ply
format ascii 1.0
element vertex 710
property double x
property double y
property double z
property uchar red
property uchar green
property uchar blue
end_header
66.063694500404836 -97.100793587590871 -159.345102506969766 13 14 6
64.683658341314526 -96.189720524776675 -158.604975413137282 16 17 9
64.165666421127128 -95.262331186841280 -158.341721260970758 16 16 5
63.839259892385655 -94.331801281570506 -158.184440830063920 14 14 2
63.895820415540129 -93.390100073426922 -158.239112713055277 10 12 0
63.665217673386735 -92.458276215076282 -158.134823716718955 13 15 2
63.243255784587518 -91.535029077368762 -157.924558261038669 15 18 4
62.151548603482979 -90.642063953578358 -157.343366379808373 15 19 5
61.442808484989598 -89.737927124251229 -156.974126496560331 14 17 8
61.595240302232185 -88.796569515937875 -157.081796411715203 13 16 7
61.556312953537258 -87.863788259978833 -157.083489913322666 3 6 0
61.421739907359665 -86.936110904661831 -157.032195531170970 1 5 0
61.382823489378779 -86.003606427399106 -157.033895663828730 8 12 0
61.343906841054775 -85.071104456808911 -157.035599646006915 11 15 3
61.878659049779287 -84.103111212987272 -157.355264843110490 14 17 6
61.457273124414712 -83.193733440504673 -157.145006892612201 12 15 4
61.513921814047535 -82.254236833203450 -157.199718924544811 10 13 2
61.379392426502193 -81.327659357950182 -157.148448344688518 8 11 0
61.913848697647666 -80.352616300809615 -157.468146256459107 5 8 0
61.397064994066625 -79.454319851626849 -157.204907219205126 3 7 0
61.453655332640153 -78.513473106169656 -157.259644787914937 10 14 0
61.987883505412867 -77.533005363324847 -157.579372251319967 8 12 0
63.190621252392248 -76.492669725815034 -158.270091632337284 0 3 0
63.820006437307370 -75.495429826834553 -158.642848175225765 0 2 0
64.831225111490369 -74.459868977007375 -159.227612517645753 0 2 0
66.033167451409383 -73.400532826915963 -159.918394781478980 2 5 0
67.139338719199941 -72.343311939636379 -160.556202079776938 2 5 0
68.531629707732577 -71.251241680759776 -161.353031683163579 0 3 0
68.873597860639165 -70.257904540822182 -161.566889186781282 2 5 0
69.883565088761372 -69.192481527370944 -162.151767825990589 5 8 0
69.652688790742047 -68.254452979648221 -162.047658297125054 9 12 5
67.990573057702477 -67.475466738857548 -161.148537411644440 12 13 7
66.805878972958340 -66.651698174969397 -160.514424888043550 10 9 5
67.624776036851472 -65.601899173462144 -160.993373174985294 9 8 4
67.871158034231712 -64.615280276016705 -161.154329942879031 9 8 3
66.972987526178997 -63.766425861779624 -160.679263429925868 8 10 1
66.551830199682399 -62.863014201865894 -160.469229172364180 8 11 0
67.370322966572814 -61.803697742127660 -160.948276538283352 7 10 0
67.997930357296354 -60.764350867145922 -161.321346124542998 5 9 0
67.958079188200088 -59.810113236762874 -161.323405256421466 4 8 0
68.013542368956337 -58.842894800689486 -161.378496768038758 5 9 0
67.783063599261595 -57.914861408007795 -161.274594559409763 6 9 0
67.838509931491103 -56.947355065112291 -161.329742208740697 4 8 0
67.417516323920552 -56.048237437205181 -161.119878295982062 4 8 0
67.949325385384725 -55.010684063765225 -161.440132623957510 5 9 0
68.290474660268217 -53.998523863446572 -161.654407962561862 4 8 0
68.631529659590228 -52.984179312984196 -161.868723132553214 4 7 0
68.782015223268559 -51.997397724831593 -161.977057674153457 5 6 1
68.075416276739190 -51.145826939233494 -161.608326937195045 5 7 1
68.225905157456054 -50.159286514758904 -161.716738677880187 5 6 1
69.137971850136012 -49.046133236138466 -162.249299900380947 6 7 2
69.859422848846748 -47.959451874436716 -162.675890831313353 4 6 0
70.390326000699929 -46.900870073708980 -162.996509420476229 3 4 0
70.350071610164321 -45.938028679878045 -162.999092341520054 5 6 0
70.975918229842421 -44.857740895337344 -163.372836911132509 8 9 3
71.791893771400794 -43.739534716366322 -163.852677045954920 8 9 4
71.846576593962027 -42.754958395820864 -163.908444070775545 9 10 5
71.996354681122398 -41.752222096599070 -164.017286765680126 11 12 7
71.194955047431733 -40.926980934904726 -163.595998990331282 11 12 7
71.439844361455641 -39.906595215930921 -163.757977925727459 11 12 7
71.019029585243288 -39.013376791455755 -163.548878338512907 10 11 6
71.168769770079393 -38.010241735023349 -163.657966394796489 9 10 5
71.508591459550985 -36.968088950434932 -163.873169723080423 11 12 7
71.563147260677113 -35.981381725665393 -163.929378930272122 12 13 8
70.952361593498438 -35.130524998793895 -163.614490977782765 14 15 10
70.436737237395107 -34.263122705433965 -163.352691034081147 14 15 10
70.301304749288022 -33.318256078029286 -163.303062786001988 14 15 10
69.595824584956858 -32.495718932422363 -162.935347880437462 16 17 12
69.365489091389975 -31.574049143933710 -162.832841262910506 16 17 12
69.420152218106580 -30.590867077687165 -162.889501886227947 13 12 8
70.234591748957428 -29.438121562712841 -163.370493176947548 11 10 6
70.763921970209310 -28.344604851363613 -163.692498501707860 15 14 9
71.483011663815375 -27.204438773212075 -164.120673737782482 14 13 8
71.442372664627612 -26.235348553559746 -164.124692819699987 14 13 9
71.022000273126480 -25.355022827068183 -163.916670524772258 15 16 11
70.696626628903005 -24.454322843181014 -163.761775208695610 14 15 10
70.750940365336874 -23.464176479775691 -163.819124498233521 12 13 8
71.279700535182485 -22.358295597001494 -164.141774334698113 13 14 9
70.859461932238446 -21.482023647036090 -163.934151840996378 14 15 10
70.534174987781455 -20.584277898161105 -163.779672154245048 12 13 8
70.019218868606856 -19.735755782461197 -163.519215020983978 10 13 6
70.452869486771192 -18.648757206873370 -163.789299120556336 9 12 5
71.170909107279101 -17.485798808558975 -164.218653609770541 8 11 4
71.888750992052621 -16.318392535692968 -164.648155567938886 7 10 3
71.942680170572203 -15.321020478871015 -164.706473128497493 5 8 1
71.238131454112477 -14.524589595664992 -164.340529204611926 5 8 0
71.955628653920371 -13.349797848803854 -164.770464209014278 5 8 0
72.199015942348296 -12.299254529459747 -164.935299356685675 5 8 0
72.252776226705635 -11.298991652745864 -164.994177377580627 4 7 0
71.643182277179164 -10.482073485265326 -164.681812414842227 7 10 0
71.696941159180653 -9.482380425861713 -164.740979156280758 5 8 0
72.224339272616021 -8.347854749208082 -165.065598361291990 2 4 0
72.372681823410119 -7.318342629918609 -165.178149972033253 1 4 0
72.047392777524919 -6.424482639658487 -165.025553302841530 1 4 0
71.153942172545101 -5.698003609326278 -164.554719103412964 5 8 1
70.544748384893808 -4.892515291002391 -164.243217475887207 6 8 3
70.219707547380096 -4.005561745740648 -164.091068695385644 3 6 0
70.273382896754129 -3.006220254870280 -164.151364769093220 3 6 0
70.327012980005179 -2.006169285974190 -164.211842294162665 0 5 0
70.664529780329758 -0.918370171234500 -164.431730452533884 35 40 34
-64.371208613672309 -0.594398912401266 -90.450259522498101 143 134 117
-87.312610698047450 -0.562446984849763 -78.131778693511947 140 137 118
80.546750839403387 -129.223245226371120 -167.587326536701738 36 35 33
78.391417359555305 -128.096303039888255 -166.417077022176159 38 37 35
76.524872575322490 -127.000241875103342 -165.406583354115185 36 38 31
76.003965185783784 -125.998968061240689 -165.141531216470156 29 31 21
74.906718253367785 -124.965866154263736 -164.557043889173883 16 20 6
74.290037033434487 -123.966200694353589 -164.238806032465021 17 22 4
73.289279845514443 -122.948941389204251 -163.707614947019323 16 24 1
72.961034981099715 -121.971749401251756 -163.549165132911696 18 30 4
72.440796589484535 -120.986853216661245 -163.284249900540658 48 63 34
72.016688127913881 -120.009089323238129 -163.072604276021139 47 62 34
71.400654252192794 -119.025248777548853 -162.754488075384955 48 62 36
70.592762986847788 -118.036959982546719 -162.329897570078714 49 63 38
69.593082359136417 -117.045851342289765 -161.798829000652830 41 55 32
69.553358629056561 -116.093350410710428 -161.800252568532301 21 29 13
69.801519126681285 -115.149995367125044 -161.961441586902424 8 14 0
68.994154482682802 -114.174512152552921 -161.536917447014332 5 9 0
67.611334546097964 -113.188370433894391 -160.792910602809798 9 13 0
67.092181553728153 -112.229914855968843 -160.528154881829664 9 11 0
67.915972604110721 -111.301609224803130 -161.008910495164031 8 10 0
68.164127363017428 -110.358299403486257 -161.170187178028812 9 11 1
68.124531481645647 -109.409120153327407 -161.171728679082491 20 22 11
67.413756617855483 -108.451936570208815 -160.800525113826069 20 23 12
67.086624511355069 -107.502052923325209 -160.642335113756872 11 14 3
66.759559577033826 -106.553804793160879 -160.484154595525496 10 13 2
66.528410469607138 -105.607521859355373 -160.379235427758431 12 13 5
66.105631427884816 -104.662213756841084 -160.167819034916306 9 11 0
65.874594255837678 -103.718657271404766 -160.062916161118153 15 19 6
65.835231031257479 -102.775223174079002 -160.064528962469836 13 18 4
65.795867240016435 -101.831794179730210 -160.066150725113971 6 9 0
66.043878813805975 -100.885287735466335 -160.227545764644532 12 13 5
65.717138094508357 -99.944950615178982 -160.069419135160302 15 18 9
65.582003491648948 -99.003106055712593 -160.017809001574534 12 15 8
65.255375137913859 -98.065492558483982 -159.859692364694411 10 12 5
64.067094457250448 -97.148532550194929 -159.222268129489692 15 16 8
63.932173824576523 -96.211858526517631 -159.170669429288324 16 18 7
63.414379480984621 -95.286356649698703 -158.906044809325380 15 15 4
63.375261386126851 -94.348934063012720 -158.907712811750258 10 10 0
63.144740251722226 -93.417913589593198 -158.802869128713070 14 16 3
62.627194047882824 -92.498394755931969 -158.538251457459296 15 17 4
61.918403418787477 -91.589078458482163 -158.167115052301142 12 14 1
61.018436339397226 -90.691593416250299 -157.689456906191623 13 17 3
60.692608955965397 -89.773286584981662 -157.531359829321502 13 16 7
60.653783257266696 -88.842941346352490 -157.533049037577882 16 19 10
60.901857266735647 -87.898114295763207 -157.694529048054704 4 7 0
60.480508669025141 -86.987358463395054 -157.483182369065446 0 4 0
60.537303810063236 -86.051921267692279 -157.538151195312707 6 10 0
60.211678356243226 -85.138513763733215 -157.380074355793681 11 14 2
61.128764983676433 -84.149854461240977 -157.914429111376364 12 15 4
60.994280659196477 -83.223808551647224 -157.862894308317976 10 13 2
60.668687692153981 -82.311221407403067 -157.704836103152388 9 12 1
60.152054025906693 -81.413721671651430 -157.440251816178431 6 9 0
60.017703936059092 -80.490938330295862 -157.388733189823910 3 6 0
59.787844450043565 -79.575970593938536 -157.283955558717196 4 8 0
60.131149933070105 -78.616832507023247 -157.498785203708735 9 13 0
60.856398909079417 -77.624266096555090 -157.926697407736668 3 7 0
62.058952734346406 -76.586927681185813 -158.620966834733025 0 3 0
62.401836436764086 -75.617746945309875 -158.835845493869300 0 2 0
63.126527442487316 -74.611879473449591 -159.263815018695993 0 3 0
63.946499480371301 -73.592767998627011 -159.745074380540643 3 6 0
66.007143293129559 -72.449537510289488 -160.918865017065855 4 7 0
66.540235456987432 -71.445451949088607 -161.240365642008982 2 6 0
67.264049107378241 -70.418678142496503 -161.668429279485679 3 7 0
67.987680002645220 -69.387559050638473 -162.096517090304729 6 9 0
67.852467422841471 -68.444412334770448 -162.045181268006161 5 11 1
66.572531090259758 -67.628154352745327 -161.354589935425338 6 9 2
65.674423997816803 -66.775749428266991 -160.877095278757963 5 6 0
65.825619125348624 -65.806435506159701 -160.985621404744336 6 7 1
66.453573916239634 -64.779314159626168 -161.360542049074809 6 7 1
65.746467131343820 -63.910996412004287 -160.989643377671598 5 9 0
65.802226604854013 -62.951382590344210 -161.044963489147591 2 10 0
66.143943200176750 -61.954746025856963 -161.260137138501449 2 10 0
66.866830767219710 -60.906213312296146 -161.688447721318425 1 9 0
66.636487255780196 -59.980337861971961 -161.584021489252052 0 7 0
66.310892959675698 -59.068512338295463 -161.426342914585518 0 8 0
66.461773870961395 -58.092087424717938 -161.535082809216050 2 8 0
66.612606316144081 -57.114566517589878 -161.643856076966927 0 6 0
66.668130788893677 -56.149735505041598 -161.699384420743314 1 7 0
67.104621096033156 -55.128116346111121 -161.968069876080534 2 8 0
67.445757688954018 -54.118099080522562 -162.183516257037809 2 8 0
68.167700902615536 -53.047490523069399 -162.612132392011574 1 7 0
68.032532992637073 -52.106378174253635 -162.561255769269138 3 6 0
67.992586178538829 -51.150648232239710 -162.563701541539587 2 5 0
67.762252452974394 -50.225732533827966 -162.459621828611944 3 6 0
68.578938447049836 -49.129322950635668 -162.941714161104073 2 5 0
69.205078175373330 -48.059923618778498 -163.317294863980948 2 5 0
70.021368288243934 -46.954240415120395 -163.799506085871911 2 5 0
69.790844467696502 -46.025168456402938 -163.695625425168060 3 6 0
70.131167442763228 -44.996516944875097 -163.911519439542900 5 8 0
70.281147529060149 -43.999757161028612 -164.020896868372262 6 9 2
70.335964388284822 -43.019200121533657 -164.077044337964651 6 8 3
70.105451039320769 -42.090835299345514 -163.973381462320987 7 9 4
69.874976611097054 -41.163525699694567 -163.869775541684817 9 10 4
69.834696197606206 -40.201006747068121 -163.872812137569184 9 10 4
69.889475028656534 -39.220050037418446 -163.929205979882653 8 9 3
69.659058976450410 -38.294537299291214 -163.825787935217676 8 9 3
69.903898607609051 -37.275341117488765 -163.988907577935635 10 11 5
69.673501140316205 -36.350563787188662 -163.885627488089625 11 14 7
69.728203407583237 -35.368361527998928 -163.942306460565845 12 15 8
69.877883843102268 -34.365809639590928 -164.052360981833687 11 14 7
69.837513829195416 -33.402189344710443 -164.055901696050483 12 15 8
69.322201333991359 -32.540041935885476 -163.793027175563765 16 19 12
69.186894368474384 -31.598254284883225 -163.743427522406648 14 16 10
69.051600402574195 -30.656955346062588 -163.693912077910511 11 12 6
69.675939106412386 -29.547185032446571 -164.070903569897951 12 13 7
69.730461196926910 -28.561898915618467 -164.128180479775040 13 14 8
70.449457609580406 -27.424363961946369 -164.558687690906538 11 12 6
70.503832280923689 -26.435959690157755 -164.616169212641893 13 14 8
70.558172566693031 -25.446943016026289 -164.673753429124190 15 16 10
70.707373575659290 -24.434832232985084 -164.784751670746743 13 14 8
70.856516602097429 -23.421559099851684 -164.895861041256467 11 12 6
70.910728571596565 -22.430142624452468 -164.953773706073520 13 14 8
70.490598337706388 -21.554571969091796 -164.745239764829336 14 15 9
70.165395767633470 -20.657525539158062 -164.590123775382665 12 13 7
70.029924615288962 -19.714346254942647 -164.541747587382758 9 12 5
70.463423782315317 -18.626958795680181 -164.813388298646998 8 11 4
70.801978307816057 -17.561138013668057 -165.031849894065374 7 10 3
71.424838383733686 -16.419079554366540 -165.410409184479931 7 10 3
71.668351979150373 -15.372813549101652 -165.575837152665372 5 8 1
71.248312319965976 -14.501194931254288 -165.368151575238244 5 8 0
71.965584641932310 -13.325997966691332 -165.800480247515509 5 8 0
72.303623404378470 -12.249300824928572 -166.019673423756245 5 8 0
72.546806050864177 -11.196320690552996 -166.185697539748872 4 7 0
71.368871370198576 -10.535885036205217 -165.551943143518969 5 8 0
71.043708436891677 -9.642822289340657 -165.398276763620942 5 8 0
71.097444981864328 -8.643934319679037 -165.458085654031208 3 6 0
71.624643675953394 -7.508845210157327 -165.784729908051645 1 4 0
71.867616137057666 -6.452472988742462 -165.951549801534753 1 4 0
72.015821079523505 -5.421966727902552 -166.065209206017158 2 5 0
71.122627975946159 -4.697347376837190 -165.592301735728711 5 8 1
70.513585093808217 -3.892894220521805 -165.279558936053348 6 9 0
70.283231858541967 -2.977684447783203 -165.180346750170713 2 6 0
70.620693406294663 -1.890965477647150 -165.401387372262747 0 2 0
70.958039467211734 -0.801891614381464 -165.622630306116832 19 24 18
83.674162630554747 -130.446970203084419 -170.334382705041264 31 28 28
78.731925827897612 -129.106380566445409 -167.606107460846005 40 37 35
76.192978401435482 -127.957939340094171 -166.215720424001745 38 36 32
74.711433028883221 -126.893001531692732 -165.414026699946987 22 26 16
73.998727752349623 -125.884502370396234 -165.040487116516715 9 16 1
73.286178536092962 -124.879825577683150 -164.666980370082513 12 20 1
73.246067233283554 -123.917404171795013 -164.668117790795890 20 31 6
71.957577636184169 -122.887153584772506 -163.973574856328298 27 41 12
71.437521129746756 -121.903560620420308 -163.707190221928499 51 66 36
70.917575811865788 -120.922699548795151 -163.440833079099150 47 62 33
71.165701545624643 -119.979804574692494 -163.602642185386117 58 72 45
70.453921011487125 -118.993966559559397 -163.229302691928211 49 62 37
69.550352559727003 -118.004221370561226 -162.748948363194302 28 42 17
67.783337160565168 -116.987068927479967 -161.786944972724001 7 21 1
67.935721461526327 -116.046069033937044 -161.895332745333036 6 15 0
67.896182230065335 -115.097901335355957 -161.896706313222097 3 9 0
66.993298203180814 -114.124767943468257 -161.416423401895713 9 12 2
65.706953762104604 -113.146517722278631 -160.722073167491260 9 12 1
65.379946345669225 -112.197658589936481 -160.562938544722556 8 10 0
65.820150167576912 -111.266123196751352 -160.831988718623450 12 14 3
65.493185627061507 -110.318368479980350 -160.672889073933646 15 16 8
65.453899164897734 -109.376504198776843 -160.674369579624340 17 18 10
65.606329820167787 -108.436940212091955 -160.782910883046583 10 11 3
65.854561926342512 -107.497172462646120 -160.944992012580201 13 16 7
65.431870033134089 -106.551561108346988 -160.732427795359825 15 18 9
65.200918061515836 -105.608791892412029 -160.626921187223644 11 12 4
65.161638101192807 -104.667235461177114 -160.628474147549440 14 16 5
65.122357313987038 -103.725685253926358 -160.630039599617362 15 18 5
65.083075739209562 -102.784140969724106 -160.631616947144977 7 11 0
64.660674185050254 -101.845619777304691 -160.419103735259881 7 9 0
64.717204930156129 -100.904146617850358 -160.474227345604362 17 18 10
64.294926572240172 -99.968622317829926 -160.261730229609100 14 17 9
64.159975649790454 -99.030568305853436 -160.209819905075562 9 12 5
63.642108761210977 -98.100423202076200 -159.943808820251519 8 9 3
62.932908201675446 -97.177221008347885 -159.570746575925142 13 14 6
62.511001162921730 -96.250673950060516 -159.358271409572893 12 14 3
62.089184170971805 -95.326302782358866 -159.145801022386621 10 11 0
61.667457238603276 -94.404107304773902 -158.933335171443474 14 14 2
61.150142520310624 -93.487285064400496 -158.667343931842026 12 14 1
60.919940112409165 -92.562773430064212 -158.561946530968669 12 14 1
60.307161677903082 -91.654313804918559 -158.242432353546832 15 17 5
59.790162503624970 -90.745102860429185 -157.976451399187852 14 17 5
59.847071289565008 -89.812907690501973 -158.031663486885350 15 18 10
59.808335634385060 -88.884727469853132 -158.033352310956531 16 19 10
59.769599391713371 -87.956549848763970 -158.035049138442815 2 5 0
59.444066895869810 -87.043668914649757 -157.876154592490252 0 3 0
59.787712287845807 -86.094832148188857 -158.092001004667793 5 9 0
59.653386941023655 -85.172030832935548 -158.040189079349688 10 14 2
59.996906365458926 -84.220211794927792 -158.256058277231602 11 14 3
59.575908606399992 -83.315694518020081 -158.043659092186090 8 11 1
59.537168328559574 -82.387528677266488 -158.045407984929398 7 10 0
59.211835558826806 -81.479544881923204 -157.886557983544606 5 8 0
59.746243047840892 -80.510205343126501 -158.209545600453765 2 6 0
59.802974154108767 -79.573958294390138 -158.264863819222285 5 9 0
60.241667936037345 -78.607003458438925 -158.534345303562532 9 13 0
60.584762154173802 -77.645146985876352 -158.750305427040985 1 4 0
61.118712457600282 -76.664950139273643 -159.073359728586013 0 3 0
61.175212763910451 -75.723274100993137 -159.128736525408613 0 2 0
61.995299116666956 -74.712036603916289 -159.612447235669777 0 2 0
62.815180179242475 -73.695911600019230 -160.096182030898149 2 5 0
64.207427296784772 -72.619877645591089 -160.901187745284517 2 5 0
64.358908823660727 -71.658439175404311 -161.010185868767678 2 6 0
65.178184779008404 -70.627920734842235 -161.493997795066235 1 4 0
65.329493066950306 -69.662405292530408 -161.603038949202841 4 7 0
65.385371020109403 -68.706056888802067 -161.658557882215860 1 9 0
64.487505473341287 -67.854437404953373 -161.178659660508544 4 8 1
64.257365928549405 -66.932107143007755 -161.073582444974136 6 9 2
64.504015755202374 -65.955505528557339 -161.236249475125788 5 8 1
64.941271113889968 -64.954585731172358 -161.506034009053479 5 8 1
64.997104571754278 -63.997399039870373 -161.561663905170292 3 9 0
64.576336856671901 -63.099087528854426 -161.349586428628243 3 11 0
65.013392044338957 -62.093532597255653 -161.619456872883404 2 10 0
65.640916127095693 -61.060398853439359 -161.996457213489634 1 9 0
66.077716166836126 -60.048854222856598 -162.266398163251068 0 8 0
65.942780692976328 -59.112410457815692 -162.215080379507157 1 9 0
65.617347702986649 -58.202983946326711 -162.056693387873622 2 8 0
65.768215161281660 -57.227605400565693 -162.166088629698294 0 6 0
65.823797891903780 -56.264913850072872 -162.221970099338961 1 7 0
66.450700964841417 -55.217324325957613 -162.599200727607723 1 7 0
66.410949496640967 -54.266218244033702 -162.601610715651702 0 6 0
66.656799224053202 -53.271296732248906 -162.764720205507217 0 6 0
66.426624511780858 -52.349086757589369 -162.660105179731232 0 3 0
66.577206964006564 -51.367372972112939 -162.769749186918432 2 5 0
66.918074737469453 -50.353724851678905 -162.986551787016879 4 7 0
67.163690431008717 -49.353570052041185 -163.149850683532861 1 4 0
67.599522871357749 -48.319848940756906 -163.420316519267004 1 4 0
68.510904600892616 -47.202243259489251 -163.958629230976783 3 6 0
68.756197612184451 -46.194686733308949 -164.122100229014904 4 7 0
68.716083874924720 -45.235791332221076 -164.124952403011036 5 8 0
68.675964068903852 -44.276867976361686 -164.127861033235575 6 9 1
69.301455310319000 -43.196706937459290 -164.505755324488547 5 8 1
69.831704033573885 -42.130299353491587 -164.830160332482563 7 10 2
69.981547659036664 -41.132033939137962 -164.940387669672845 9 10 2
69.465960047771091 -40.259558700449276 -164.675738174021063 8 9 1
69.045521479337367 -39.371360811183997 -164.464711509169035 8 9 1
68.815228930422450 -38.447950075271322 -164.360877937054283 8 10 1
69.345133700606368 -37.374023945654663 -164.685643912134623 10 11 3
69.114824975631905 -36.450529244856156 -164.581956300221350 11 14 7
68.979550444989627 -35.508587498240793 -164.531909726540789 11 15 8
69.129247320440356 -34.507861219134789 -164.642648405232336 9 13 6
69.278889503025255 -33.505998350733520 -164.753472684200204 10 14 7
68.953661401458476 -32.604514086919721 -164.596527532660843 15 19 12
68.723443505695343 -31.684030151886979 -164.493235078153560 11 14 7
68.398320795000814 -30.785422913840549 -164.336453555671994 10 11 5
68.737758085272162 -29.740555018842247 -164.554781065110689 13 14 8
68.792340972442958 -28.757621992498308 -164.612484082680908 12 13 7
69.036702019093127 -27.730755309144854 -164.777441111201512 10 11 5
69.280983099817888 -26.702189439659268 -164.942505408945294 14 15 9
69.809833558871446 -25.605303302517044 -165.268419184320862 13 15 9
70.528278434024116 -24.460124798047211 -165.701616092995238 10 13 6
70.487644611212147 -23.492516229530594 -165.706284394291458 11 13 7
70.352148681677818 -22.547848135893865 -165.657481095500060 12 15 8
70.216662091693649 -21.603639423291490 -165.608790088008703 12 14 8
70.081184446892451 -20.659886744255456 -165.560214308191036 11 13 6
69.756085926559933 -19.764261569934501 -165.404580979677405 9 11 6
69.620647834215731 -18.821954562575669 -165.356241666058764 8 10 5
69.959176629087779 -17.758185662313721 -165.575980888550589 7 9 4
70.297598275066207 -16.692138004458315 -165.795862905019675 7 9 4
71.014988020477460 -15.524104845002986 -166.230267430874108 7 9 4
70.595088192014089 -14.653980284789883 -166.021687634009140 4 10 0
71.501707338553501 -13.429339659416287 -166.563597556284662 4 9 2
71.555468709328636 -12.430815198024249 -166.623294685637802 4 9 2
72.651143128472143 -11.145465584530470 -167.272751526811220 5 8 1
71.947002998215282 -10.352898309789389 -166.903954528026247 5 8 1
71.716505215892653 -9.431215993224850 -166.803309261066033 5 8 0
71.012590616291050 -8.644641511314651 -166.434784022091947 4 6 0
71.255588466120230 -7.590702870593853 -166.602475941925036 2 4 0
72.066490820126148 -6.370727561853712 -167.092006215376358 2 4 0
72.593202614483857 -5.228641667017895 -167.420905819618696 2 4 0
72.173328165006012 -4.362337627249856 -167.213861634228181 5 7 0
71.753523621088959 -3.498051331451460 -167.006978326349270 4 7 0
71.806886581476533 -2.493447908574611 -167.068351681862538 3 6 0
72.049419381827192 -1.430648922685441 -167.237156061537149 2 5 0
-75.188756963344503 -1.298779280614197 -85.789928267658425 141 138 121
86.169622104852749 -132.635693525083525 -172.722797074602170 9 8 6
84.398316419427658 -131.504128267306299 -171.755427138972038 31 30 28
81.858737925989828 -130.325395174571923 -170.357810571254873 40 39 37
77.206132065469490 -129.010107215247132 -167.776931027786674 37 36 32
75.916778957465738 -127.951172398558370 -167.078602181087518 21 21 13
74.627717265273986 -126.899323476826879 -166.380309908987073 12 19 4
72.858750322521530 -125.824381541397628 -165.413116699394863 9 21 0
71.570328409766432 -124.788058056950163 -164.714889864606533 31 45 18
71.338382267449674 -123.819232057266916 -164.608357651862434 44 61 29
70.626452003148984 -122.825408192663303 -164.232920792769505 40 57 23
69.722689746591072 -121.825506523707872 -163.749937865793839 44 61 28
69.682974011134888 -120.872609514943676 -163.751079972896690 55 71 44
69.355341833610169 -119.906511039664565 -163.590887222784147 37 51 26
68.164134359145919 -118.904846894951092 -162.946619482663351 8 19 1
66.685350200470054 -117.898125957768670 -162.141003711900908 6 15 0
66.166278766809626 -116.935480209305936 -161.873305091661535 12 21 5
66.222875830816008 -115.995482943237818 -161.928371642604617 5 14 0
66.567193128351846 -115.064100640036713 -162.144836631075862 8 16 2
65.281058225899244 -114.083351568098223 -161.446880001631172 9 15 3
64.666461613786907 -113.127211130431505 -161.125477164404771 8 14 2
64.051999399221131 -112.174339912199841 -160.804091811089251 12 16 2
64.204628145812933 -111.240435685578049 -160.913061286085110 16 20 5
63.398627866005882 -110.288547402447534 -160.484125511125427 15 19 6
64.318051931601360 -109.366559485059497 -161.023478714116152 11 14 4
64.853905913935989 -108.434559148369544 -161.347684566713212 7 10 1
65.293798545910988 -107.498432866297492 -161.618119233940661 9 12 3
64.488008563332471 -106.551737896864736 -161.189248050835914 11 14 5
64.257208377793233 -105.611394018725377 -161.083155159584095 14 16 4
63.834871864962849 -104.672019891931214 -160.869485542569123 13 15 2
64.083077692486654 -103.733356236122603 -161.032397209646291 7 9 0
63.469305857518066 -102.797401477385648 -160.711160498841906 6 8 0
62.664156381519945 -101.866216379515365 -160.282338940109099 11 13 3
62.433657132467374 -100.933235506518528 -160.176305637423127 14 15 7
62.586136945427540 -99.996163146575228 -160.285473241872410 14 15 9
62.738570601821607 -99.058010083734473 -160.394654959829126 12 13 7
62.508114113728709 -98.126130999298198 -160.288656701302102 10 11 5
61.799203756862084 -97.205893740771600 -159.913673638853282 14 15 7
61.760269625945512 -96.272789832028252 -159.915290830720835 10 11 3
60.764564534430122 -95.366222164091425 -159.378920564989585 9 11 0
60.630076452713524 -94.438766078098112 -159.326754405015407 14 16 5
60.304301545553415 -93.518249091205661 -159.166996243810956 8 9 1
59.978593853867380 -92.599364579651407 -159.007245611370280 14 15 7
59.557321674837624 -91.685851454817140 -158.793700624514457 16 17 11
58.562417122384488 -90.798577018591089 -158.257348454214963 17 18 12
58.428219792281539 -89.878196260493155 -158.205221456321226 18 20 15
58.867630631577015 -88.931039719622291 -158.475923209945023 17 20 11
58.733409065704166 -88.010121217953724 -158.423817834734677 6 9 0
58.885934508379592 -87.074458363243636 -158.533134677593694 0 2 0
59.229541238510194 -86.126975646353642 -158.750073684012250 4 7 0
59.095294487539149 -85.205520401124488 -158.698001333122534 9 12 1
59.056610561675029 -84.278698764223080 -158.699744852340046 9 12 1
58.635806775607023 -83.376608273508623 -158.486274661647599 7 10 0
58.406129467863991 -82.463782889448055 -158.380425673306462 5 9 0
58.080989403499473 -81.558769675722999 -158.220779388397943 3 7 0
58.328890685020951 -80.613404707783076 -158.383989534461733 0 4 0
58.672207262073300 -79.659142864818534 -158.601024186508766 5 9 0
59.874689642831981 -78.634850867142077 -159.302356715837078 11 15 1
60.313182229782058 -77.665990580808270 -159.573241696628173 1 4 0
60.369758564663243 -76.726746004090671 -159.628906828637923 0 2 0
60.330871789810146 -75.795311756148124 -159.630777846153336 0 2 0
61.532544132426153 -74.751741769465355 -160.332208871032634 0 2 0
62.161421840897390 -73.754494862294791 -160.710801239285757 0 4 0
62.408518980419558 -72.790119840169240 -160.874170210587238 0 4 0
62.464758941832429 -71.842993679617351 -160.929935429195382 0 4 0
63.665563154383790 -70.778781892826657 -161.631480963937292 0 4 0
63.530875920308063 -69.847271707107552 -161.579666943857973 0 5 0
63.300849636389614 -68.926555020940782 -161.474058403736649 3 9 0
62.975518211186966 -68.017445742526988 -161.314654532260192 4 10 0
62.936263722340129 -67.077567505014201 -161.316717210842569 4 10 0
63.182984004662501 -66.104476346880929 -161.480252860492442 3 9 1
63.906205601784620 -65.073047168740530 -161.912901843333316 3 8 2
63.580909911250160 -64.164999369961166 -161.753594579997582 3 9 1
63.732137945579382 -63.199155123585143 -161.863401865905303 2 8 0
63.788037408552270 -62.244371374206146 -161.919421787213992 1 7 0
64.415525146938023 -61.214476244420865 -162.298389579254206 1 7 0
64.757077957206377 -60.218864003337053 -162.515937796694999 0 6 0
64.812797772156614 -59.259977256188506 -162.572062043636720 1 7 0
64.582786535932939 -58.340258621607070 -162.466757800049322 0 6 0
64.828935103841445 -57.354050490823504 -162.630596977491365 0 5 0
65.265436295769518 -56.338631321005352 -162.902123089972207 0 4 0
64.845011768563609 -55.446982132391256 -162.689283857727901 0 4 0
64.710242557383594 -54.514507859061489 -162.637951898613807 0 6 0
65.146560959221517 -53.494967833664475 -162.909609947634237 0 5 0
65.582761274457482 -52.472694187112893 -163.181319049257468 1 4 0
66.018843284181003 -51.447685610392895 -163.453081096138106 1 4 0
66.359662614172237 -50.435353968278022 -163.671070867802712 2 5 0
66.319854731178054 -49.483566837517706 -163.673804186921643 1 4 0
66.565405731215776 -48.483887053870575 -163.838074700809813 0 3 0
67.001103074469370 -47.450096992544445 -164.110062020934066 2 5 0
67.721977052176783 -46.364066167826046 -164.543603529185873 3 6 0
67.396702296730552 -45.458143514274759 -164.385071990222599 3 7 0
67.737021220462623 -44.434521961421652 -164.603418811575352 4 7 0
68.172307201144861 -43.391381826999869 -164.875666581604889 4 7 0
68.797579093687432 -42.310320572453548 -165.255654129612680 6 9 0
68.852433415651944 -41.332566314164382 -165.312711313442094 9 12 1
68.242044087056627 -40.481135360790141 -164.992988275153607 7 10 0
68.106879166218505 -39.540921270480034 -164.942506960120426 4 7 0
68.066736770659816 -38.582537038728361 -164.945933414263862 5 8 0
68.311575201533344 -37.567277523721778 -165.110950058761233 7 10 0
68.461351803962486 -36.569558413528313 -165.222209919884421 7 12 5
68.326153225462633 -35.629167274015352 -165.172031184745919 10 15 8
68.380892660858706 -34.649751442351509 -165.229615438198493 7 12 5
68.055796574394890 -33.749863332389772 -165.071914836058511 9 14 7
67.920637883275276 -32.810945809346947 -165.021982081393503 9 14 7
67.975347907015816 -31.831365999935819 -165.079826311922687 6 10 3
67.745274799936681 -30.913721218659742 -164.976226046394402 9 10 4
68.179573057035952 -29.849276037559161 -165.249647127032318 14 15 9
67.854595580482908 -28.953165142511988 -165.092388676913174 12 13 7
68.098969489014166 -27.928648124452593 -165.258321726674012 10 11 5
68.817618034403438 -26.792762428107316 -165.693620562487212 14 15 9
69.915510000518964 -25.563632124184721 -166.344455375811918 13 16 9
70.444026286899373 -24.462761904388664 -166.672308369971859 10 13 6
69.644678087527325 -23.677034111724716 -166.246318256153955 11 14 7
69.224800460459448 -22.803489395559843 -166.035846896658569 11 14 7
69.279069809861767 -21.815568612939195 -166.094771572243474 10 13 6
69.333302027245509 -20.827013235771911 -166.153819927872007 10 13 6
69.197914670933983 -19.885493394222962 -166.105273388108202 8 11 4
68.872975963168926 -18.992637581163777 -165.949125992441793 8 11 4
69.306235333258940 -17.906264764053020 -166.224011256323536 8 11 4
69.360337564247686 -16.915677977996044 -166.283583505826698 7 10 3
69.888126489028252 -15.799811573528899 -166.612631989207387 7 10 3
69.752624761754248 -14.856947308333766 -166.564758301879181 3 11 0
70.753795945574382 -13.608875138917014 -167.163472663575419 3 11 0
71.470564485214254 -12.431917362026731 -167.600755684892221 4 9 2
72.565928346234216 -11.146420620654629 -168.253715520181800 4 9 2
72.145992115399793 -10.274838476172276 -168.044857312623634 4 10 0
71.536775572358920 -9.458415841083957 -167.728386845182257 6 9 0
70.359687747390581 -8.806106861093536 -167.088775843422837 3 9 0
70.602656022867052 -7.753638570214838 -167.257511428835841 2 8 0
71.697311183242334 -6.453002447516925 -167.911383533475117 1 7 0
72.602407927160698 -5.200968030644141 -168.457706260868349 0 6 0
73.034158066560224 -4.082926702224801 -168.734807863630408 0 6 0
72.992733702773819 -3.102960696059087 -168.742660917728188 4 7 0
73.518860801477103 -1.952025545371077 -169.074054971820345 4 7 0
74.612331146012195 -0.625207351385848 -169.729035158633366 3 6 0
-72.002801434122006 -0.754456700925880 -88.173535940455764 142 139 120
-73.246976657170677 -0.812656262012220 -87.489782386720194 145 142 123
-77.112967546343015 -2.287550574322633 -85.284322267551943 145 142 125
83.530058838870161 -133.426800149506818 -172.261993822069826 12 12 8
81.663206120055179 -132.289893911879915 -171.235504205953276 36 35 31
80.949648305114522 -131.252086271727677 -170.857753834113311 39 39 34
78.507146346977947 -130.089885014381451 -169.507011425257360 24 26 19
76.065206776174705 -128.941293881949832 -168.156308719033831 16 21 10
75.352521786171792 -127.924759768610244 -167.778692017027481 11 17 5
73.487666653100348 -126.836347628406031 -166.752415788948781 17 29 9
71.623238608283202 -125.758281059325896 -165.726174384810435 38 52 27
69.087206237915041 -124.650198641201200 -164.321552349794302 46 63 31
69.527548593728341 -123.726578374729840 -164.592794885083435 37 56 24
69.103938410092610 -122.753260618980335 -164.377542831018644 43 62 30
68.200563537727646 -121.757380756119360 -163.892026463209532 53 69 39
66.913553061904736 -120.747690655521566 -163.190299870492112 26 41 14
66.490365943794984 -119.784749757805301 -162.975143893879476 7 19 0
65.779457390165362 -118.811589687042357 -162.597835901068436 10 19 0
65.068705224112705 -117.842247670645534 -162.220554915439038 11 20 3
65.221335279471987 -116.909061324408185 -162.329852745190863 9 17 2
65.278015487540245 -115.971481856143782 -162.385119221968296 12 21 4
64.951105878900080 -115.021172930032463 -162.224165652382567 12 20 5
63.857222321472136 -114.050278110230593 -161.630736437337589 8 14 2
63.914010399899325 -113.115453775454469 -161.686079703599518 11 17 5
63.491487345770395 -112.168920878061002 -161.471131932361914 15 19 5
62.973207235901214 -111.222607555599083 -161.202141074883912 14 18 3
62.167534652802772 -110.273942897382256 -160.770976813907708 12 16 3
63.374333192640506 -109.359471977385795 -161.475181629782014 9 12 1
64.197587600879160 -108.433353662522876 -161.963158361136891 8 11 2
64.541633043034665 -107.497967858493354 -162.180836237610663 10 13 4
63.544534549344348 -106.551929498812086 -161.641617208532409 12 15 6
62.930773686445491 -105.612669094532436 -161.318672921693320 13 15 2
63.083281730538260 -104.677181484805431 -161.428273790204003 7 9 0
63.235743279358474 -103.740615303968070 -161.537893689269112 6 8 0
62.526461199453536 -102.807287059840874 -161.160925424659126 9 11 0
61.242939732305445 -101.882273466383964 -160.459560104919433 13 14 5
60.821204950784534 -100.955121315727041 -160.244813435388579 12 13 5
60.973820624763619 -100.022382223896059 -160.354490695621678 12 13 7
61.604884074655956 -99.080734571367699 -160.734530383463380 12 13 7
61.661662943418833 -98.146314203634759 -160.790172865414206 12 13 7
61.814094324078610 -97.209247285251607 -160.899900349691791 10 11 3
61.201160667914849 -96.290140194361996 -160.577078750893207 10 11 3
60.014440883686405 -95.390205192538915 -159.929838653252915 9 11 1
59.497487308788209 -94.476328418091740 -159.661101016467228 5 7 0
59.171907771348003 -93.558781286211968 -159.500515567313045 11 12 3
59.420112417140331 -92.622070281350517 -159.664374925174599 16 17 9
58.329733333820514 -91.736059709120909 -159.071228410333589 17 18 12
57.717586876709618 -90.835979727968379 -158.748451095876078 21 22 16
57.105575398230769 -89.939160470322221 -158.425680514968491 18 21 14
57.067144151953130 -89.018289564922995 -158.427363289199747 14 17 8
57.124274780378471 -88.092597562250290 -158.483133722714257 7 10 0
57.563587919128793 -87.145984816100693 -158.755219784579793 0 4 0
57.811706259667460 -86.207392072624273 -158.919172025914548 2 6 0
58.059755530337839 -85.267172071338024 -159.083140571625734 5 8 0
58.212218139291394 -84.331233968660655 -159.193048727443056 7 11 0
58.269128042109855 -83.400391928098657 -159.248895263118868 7 11 0
57.848539624820376 -82.501269638648097 -159.034366878135870 4 8 0
57.428040626346956 -81.604319677072667 -158.819848793835718 1 5 0
57.580464359998643 -80.667569670053823 -158.929815868412049 1 5 0
58.305606776796424 -79.686132660072701 -159.364278167955661 7 11 0
58.935116894408225 -78.707889793781973 -159.744684844734820 10 14 0
59.659905093288103 -77.718035586268030 -160.179196331962174 1 4 0
59.334814609026068 -76.812730381910313 -160.018839883231010 0 2 0
59.486868302596974 -75.867288737805154 -160.128906915913433 0 2 0
60.688321386902203 -74.825892671752101 -160.833900736049941 0 2 0
61.412513550050676 -73.821914168917303 -161.268513724624995 0 4 0
61.373470095602329 -72.886926564527158 -161.270487719066580 0 4 0
61.143684271888333 -71.970812923962058 -161.164314338756611 0 4 0
61.772171601784294 -70.968389891882467 -161.544922408384679 0 4 0
62.019107917604117 -70.002088224330578 -161.709220212872822 0 5 0
61.503284393618515 -69.116177730877141 -161.440858151639702 2 7 0
61.750170742031798 -68.148779573856118 -161.605206366467598 3 9 0
61.711046033298373 -67.212134647126902 -161.607322480855174 3 9 0
62.434336113933057 -66.186942032722456 -162.042166868725246 3 9 0
61.918661205287776 -65.304806353579423 -161.773900559556751 3 8 1
61.879494312484724 -64.367324422062907 -161.776101657039732 3 8 1
62.411933302559987 -63.358540923843137 -162.102870536391123 0 6 0
62.944233035698289 -62.346489655411524 -162.429678538718974 0 6 0
63.571638804450401 -61.318744633394147 -162.810618049452330 0 6 0
63.437009434640061 -60.388760006899318 -162.758868010311573 0 5 0
62.921508130660868 -59.511178580557015 -162.490782779948773 0 6 0
62.501327974433480 -58.623059371345150 -162.276820384202040 0 6 0
63.414035564381152 -57.547941650704146 -162.820202392030495 0 5 0
64.136134635838516 -56.494943547664697 -163.255449527183345 0 4 0
63.906274222937725 -55.578126861643845 -163.149798075461405 0 4 0
63.295790744494013 -54.719681830837089 -162.827803016051860 0 6 0
63.827294674477230 -53.689308940109285 -163.155003220846226 0 5 0
64.739230670348263 -52.596182214497667 -163.698648421497154 1 4 0
65.270406726333135 -51.558164877758955 -164.025964355490657 1 4 0
65.801441208045787 -50.516866279666218 -164.353339622640135 2 5 0
65.571460146509708 -49.597753147343269 -164.247977835235702 1 4 0
65.721910233941628 -48.615880465777202 -164.359068860455523 0 3 0
65.872308928085545 -47.632894553280387 -164.470218693996088 1 4 0
66.973407224038283 -46.483811116586338 -165.122452678914129 1 4 0
67.028524966860914 -45.512647805848758 -165.179631786822711 2 6 0
67.463822837039572 -44.472743535548453 -165.453290699299401 3 6 0
67.423794985404072 -43.516654972796800 -165.456497359955108 3 6 0
67.668848858537103 -42.507776838996165 -165.622087734179303 5 8 0
67.438735686714267 -41.586513376967076 -165.517217390409684 7 10 0
67.398674062490045 -40.630041279392955 -165.520629176417174 4 7 0
67.643590949224176 -39.618329014166598 -165.686439988746514 2 5 0
67.793447121319275 -38.623614814842107 -165.798221762203809 4 7 0
67.563358202422251 -37.703540553231839 -165.693641237025503 6 9 0
67.333305940971798 -36.784505475927155 -165.589136036762085 6 11 3
67.198240011884138 -35.847020978821213 -165.538821453420695 9 14 7
67.253064512876620 -34.870511482489256 -165.596817225592503 7 12 5
66.928147718913408 -33.973523559480249 -165.438440997620035 7 12 5
66.982952284030659 -32.996902538414631 -165.496612807715394 4 9 2
66.847914843681792 -32.060825301937349 -165.446643618302176 4 9 2
66.712889418429256 -31.125229477894560 -165.396766473747931 8 11 4
66.672757236247548 -30.168995376730528 -165.401103971819225 13 16 9
67.486444931328208 -29.020193828386610 -165.892632795919923 12 15 8
68.015339120736883 -27.931410622848944 -166.221919611680562 10 13 6
69.018320657344589 -26.729628363129365 -166.821947299035173 12 15 8
69.546858808954369 -25.632810066997585 -167.151487031819357 12 15 8
69.316651031554841 -24.712459809419528 -167.048142099895358 11 14 7
68.612410290665707 -23.906855473942954 -166.674266193518235 10 13 6
68.477125424253416 -22.966849988095916 -166.625264799163972 12 15 8
69.005380425511873 -21.864252367941688 -166.955297879325599 12 15 8
68.775253637195817 -20.946811542700345 -166.852412853234853 11 14 7
68.829459418055137 -19.958852573716086 -166.912050700471582 10 13 4
68.409847612159979 -19.090790725124023 -166.701143571937962 11 14 5
69.127244122724335 -17.932234662314443 -167.140003833002538 11 14 5
68.991844603909101 -16.991090016281262 -167.091776721703013 10 13 4
69.424779945072373 -15.900828108311140 -167.368529928755208 8 11 3
69.194613344856634 -14.984106715829720 -167.266447146903573 3 12 1
70.384952669574659 -13.686314436764297 -167.976666501793716 1 11 0
71.669662346698601 -12.355576502461723 -168.741229533546999 0 10 1
72.385978321478547 -11.173166961374644 -169.181111932390877 1 8 0
72.250114466135358 -10.222840347282879 -169.133835222141585 1 9 0
71.924948528538096 -9.326035554428183 -168.978413320717834 1 9 0
71.126625789135630 -8.564875370286794 -168.552376408020791 0 4 0
71.274761909436563 -7.536890895163520 -168.668034052733333 0 4 0
72.179775025579033 -6.288654926470386 -169.217136097708362 0 5 0
72.895322737978461 -5.090105735590560 -169.658137600932577 0 7 0
73.610663488066905 -3.887030198847500 -170.099355198428100 0 7 0
74.042046115892106 -2.764003022241674 -170.378300410961657 3 5 0
74.946149299273202 -1.495740572463687 -170.928292311661437 3 5 0
-70.529766260699205 -0.536506552692517 -89.615410847710592 138 135 118
-71.680329284761484 -0.537035514358040 -88.982896794509060 141 138 121
-73.017914934739935 -0.643895343234405 -88.241271799928811 143 140 123
-74.916929680812189 -1.060253185315145 -87.171928324364217 144 141 124
-76.560918622284078 -0.753661757662988 -86.290215500540015 140 137 120
-78.926787116568704 -1.451776323014362 -84.947628103065057 140 137 120
-86.428399626357674 -0.998023047777806 -80.881681652593898 142 139 122
-88.510200050553266 -1.622397325605506 -79.703119151985334 146 143 126
86.079566927433802 -134.646863681559182 -174.721086631091225 16 16 11
82.387296018721713 -133.346460952118662 -172.657001050687597 31 32 25
80.136782594099657 -132.181773797223883 -171.407906863829908 30 31 23
78.078883396766116 -131.044411136917688 -170.267521931760740 16 19 8
76.885793335857841 -129.982620167662276 -169.616152816537522 10 16 2
75.692971397645238 -128.927379125743613 -168.964831901702809 10 20 2
74.308387921511041 -127.865521664718941 -168.204896591846534 21 34 14
72.636107311175977 -126.792365171922867 -167.282013073331854 55 69 44
70.292262403076563 -125.686196133784975 -165.978854816661254 47 63 34
68.140919530932990 -124.604624186128319 -164.784392008687263 37 56 24
68.293343224472608 -123.666928053074159 -164.893906944657630 45 66 33
68.157844007026199 -122.712495144488699 -164.840470264103772 47 66 37
66.679106562100117 -121.689288646258689 -164.026430760938752 18 35 10
65.008834668651900 -120.664887667984715 -163.103757606754044 9 22 0
64.490037787569065 -119.702654558568128 -162.833097296224253 14 25 5
64.450917127974947 -118.763845596247023 -162.834131606080717 16 23 7
63.740481943482337 -117.797988974773361 -162.454870649611081 12 18 5
63.701436119064624 -116.861115067978261 -162.455969559497476 10 16 4
63.566509091389776 -115.920933636966097 -162.402766596864069 11 19 3
63.431602686890699 -114.981310349756626 -162.349593338048294 7 15 1
62.721578079684775 -114.025562976520277 -161.970444135483604 12 18 5
63.066006853673684 -113.101226541327762 -162.188996987626012 11 17 5
62.452004826577365 -112.152359018824811 -161.864231833402386 12 17 3
62.221426972919801 -111.214624717322536 -161.756829072324706 12 16 1
61.607647904765372 -110.271211755190564 -161.432107793519208 10 14 0
62.526801092210178 -109.353829441315312 -161.976780994161061 8 11 0
62.870994906888086 -108.424120799423306 -162.195467446458338 9 12 2
63.119319356310314 -107.491370435122718 -162.359842966726603 12 15 6
62.218383452492105 -106.549704238314845 -161.872197383688643 12 15 4
62.370950348859367 -105.616635840726573 -161.982278363284735 9 11 0
61.853267700784272 -104.682034984388636 -161.712015844336065 5 7 0
62.005820470259607 -103.748711657127430 -161.822137421032949 8 10 0
61.009679253142792 -102.820046295149950 -161.280214431973320 11 13 2
60.492309657186468 -101.893070611205303 -161.009997508909635 13 15 5
60.453541836769318 -100.963711590054771 -161.011492530872943 10 11 3
60.414772758960680 -100.034359006496402 -161.013005100327632 11 12 5
61.045729603050347 -99.094064194631656 -161.394918587882671 12 13 6
60.624222860611781 -98.170165090396935 -161.179104197633393 12 13 5
60.202805532017067 -97.248443363963844 -160.963302581020599 9 10 2
59.877118960691519 -96.326520132809165 -160.801855293115153 13 14 5
59.360239179417761 -95.411530666724232 -160.531736284045138 2 4 0
59.417183532694992 -94.481731414737936 -160.587685263088275 11 13 3
58.613637979677890 -93.580130424881332 -160.154560687210164 18 20 10
57.905868531891940 -92.679412591991891 -159.775787524349056 17 18 10
56.815917783606608 -91.797443103651148 -159.179645597825981 20 21 15
56.873095364945698 -90.873359755172203 -159.235645311901294 17 18 12
56.548001001067462 -89.965852221070307 -159.074279970456899 10 13 6
56.605176195647175 -89.041774377398454 -159.130309780655523 6 9 1
55.802473232217665 -88.160553391775821 -158.697239335589529 6 9 0
56.050758685286041 -87.227650437216141 -158.861990564835565 0 4 0
56.107941479458702 -86.303850115897248 -158.918065690718663 1 5 0
56.642627161471921 -85.351326213768672 -159.245896463345446 4 8 0
56.795199372069987 -84.419177140271728 -159.356356074638313 6 10 0
57.234172993698280 -83.467404785988663 -159.629880511734825 8 12 0
56.909260887048333 -82.564524888418902 -159.468631794809738 4 8 0
56.679875351952433 -81.656551660989109 -159.361746717476649 0 4 0
56.641431045261072 -80.735676473058064 -159.363577720145855 1 5 0
56.793859908882723 -79.800270053245171 -159.474128502150933 6 9 0
57.041667838573005 -78.856239908721406 -159.639051324766854 7 10 0
57.766479565964801 -77.871538065130764 -160.075756832127411 0 3 0
