ply
format ascii 1.0
element vertex 717
property double x
property double y
property double z
property uchar red
property uchar green
property uchar blue
end_header
28.162797178946214 -39.784772741785822 35.550425472354192 0 2 0
28.976507259605050 -38.533158725989644 33.438536736323385 0 2 0
29.567234125978224 -37.434883529872224 31.897550652415532 0 2 0
28.857475589374523 -37.301138675009426 33.688688128175414 0 2 0
29.002370028749894 -36.531949319883019 33.290112780442428 0 2 0
29.704587376477662 -35.335432694377225 31.463118762531337 0 2 0
29.923813023882211 -34.500647144906807 30.873869696188251 0 2 0
30.068759850273381 -33.720387480410579 30.475019573835425 0 3 0
30.139438293127945 -32.996269970039144 30.266612222742538 0 3 0
29.950121953777177 -32.477036823202575 30.724959508048585 0 3 0
29.946593148230804 -31.812012059711805 30.707083569710193 0 2 0
30.054542770780671 -31.057070209260146 30.403411922970321 0 2 0
30.236816531957068 -30.240010924656730 29.909154830244546 0 2 0
30.196274045026222 -29.603254204786502 29.986530078549265 0 2 0
30.267204577701222 -28.874674824196706 29.778059361175025 0 2 0
30.301041367990017 -28.176020453831192 29.664866142936972 0 2 0
30.186376783607045 -27.602045210115641 29.932885409706131 0 2 0
30.257455475422184 -26.871708088477924 29.724399750033854 0 2 0
30.291448774281378 -26.172090643920686 29.611213797993827 0 2 0
30.325495867446200 -25.471871082471864 29.498023351501985 0 2 0
30.359598252089498 -24.771043754688971 29.384828571973031 0 3 0
30.356625975996010 -24.102270485910381 29.366970117484158 1 4 0
30.465105217455267 -23.334604674140138 29.063078942877581 2 5 0
30.387994016429197 -22.731273584154415 29.235929678734522 1 4 0
30.422334993307956 -22.028497195066965 29.122733573468025 0 2 0
30.159723607969525 -21.595076830693827 29.772488549009751 0 2 0
30.045697152048646 -21.029261584855114 30.040849177870115 0 2 0
30.228743135897389 -20.190638383640533 29.546194327231404 0 2 0
30.634590842538209 -19.141828650447231 28.479133400434989 0 2 0
30.780628254248946 -18.330763095275998 28.079712462232379 0 4 0
30.778243455743684 -17.657811333194353 28.061866750066059 1 4 0
30.664570373905924 -17.090841942333086 28.330270101160153 2 4 0
30.513858619210033 -16.560997721501113 28.694147951768713 0 2 0
30.623065062447886 -15.781767672785232 28.390107691662195 0 2 0
30.472517263041588 -15.254053731889890 28.754074118620622 0 3 0
30.507643777831731 -14.546060187596655 28.640904596076155 0 5 0
30.505733927178554 -13.874080236508155 28.623181377028118 0 5 0
30.763719430556151 -12.942929328307009 27.937282986988976 0 3 0
30.724857971815290 -12.305954174725134 28.014997439700068 0 3 0
30.760313991719457 -11.594243528271402 27.901799640244349 2 8 0
30.832971224404830 -10.843974106797949 27.693123708970916 2 5 0
30.905716228871874 -10.092407342637648 27.484432322235278 0 3 0
30.496084153955060 -9.838158372181972 28.517108966534266 0 2 0
30.197894023056648 -9.473775202020198 29.263460986478805 2 5 0
30.196700978930828 -8.802311564826688 29.245898126291195 3 6 0
30.158492711417459 -8.169775277825881 29.323861057050038 0 3 0
30.120383066895982 -7.537530658624450 29.401851741443039 0 4 0
30.230816026305966 -6.746709710460934 29.097764135158059 7 10 0
30.526899557397428 -5.754050963266021 28.315979688481150 8 11 0
30.563311477504463 -5.038571932198230 28.202880785179673 11 14 5
30.302949770071073 -4.646512323967685 28.854164009269851 17 20 12
30.005587968086552 -4.298773179389374 29.601115224815203 20 21 15
29.411461446584887 -4.283703143956722 31.112688959355722 27 28 22
29.633852680665839 -3.367354766221701 30.521985630240067 21 22 16
28.743076426300171 -3.696081695885383 32.798492476856069 21 22 16
28.520379685083235 -3.283460810524338 33.354856885665015 22 23 17
29.745056857504146 -1.229199847628689 30.183306322552852 20 21 15
29.671027189957030 -0.642018630803139 30.357205720741007 19 24 10
28.929144890764938 -0.824443307233199 32.252022919319501 20 24 10
28.095700313150907 -163.295870277375201 38.211636355821071 206 163 175
26.873619183998741 -161.852877902310411 41.293519682991985 143 68 91
26.059140693833058 -160.687281204363501 43.342907047698276 119 53 73
25.541102632748121 -159.720152448732904 44.641304246928684 92 35 50
25.208338856093739 -158.875814876405457 45.470300118400161 82 35 45
25.246143212123556 -158.264132492442087 45.360163934911185 66 29 31
25.098649749557303 -157.539246448190312 45.719671529098548 69 34 32
25.210556207154781 -156.972148511431470 45.421656364747889 58 30 26
25.100102154033486 -156.271500356340766 45.687272262292396 39 18 12
25.286110347908846 -155.746000468781091 45.201301018149053 56 39 31
25.175634639475248 -155.046259535471364 45.466935872130989 33 20 11
25.361624152563891 -154.517324713003262 44.980872203415828 25 16 7
25.177002927918693 -153.776715230565543 45.434472971359696 26 18 11
25.288848637618621 -153.203654526193674 45.136291556127219 29 19 11
25.252439042644404 -152.547497798954197 45.214014248993294 32 20 12
25.475440382745099 -152.032301460563815 44.633782428999126 37 23 15
25.587245246385855 -151.454352274585062 44.335466553013873 46 32 23
25.884342095983598 -150.972329469027159 43.567060094097997 68 48 39
25.884931406289105 -150.331806614560435 43.550660870098227 91 67 60
26.033749890493326 -149.767136699902665 43.158165366920656 97 69 60
26.034301959750827 -149.125343948227567 43.141725750781717 105 73 64
26.146020940520422 -148.538787794427492 42.843170269678382 108 74 65
26.220657423514957 -147.932338897242659 42.638609714564552 112 76 69
26.332335597515673 -147.342610815316505 42.339964053437257 120 85 79
26.443992170445000 -146.751160938377069 42.041269553311906 128 93 87
26.444436593040344 -146.105923601198270 42.024719013658455 129 96 86
26.333666416135259 -145.409346492104760 42.290375061876489 133 103 91
26.482315108497602 -144.831991347569897 41.897517555968733 135 106 93
26.482684290629152 -144.186214292337837 41.880937661648204 141 110 99
26.557154598391762 -143.572883781637557 41.676165530278098 142 110 100
26.409214074270729 -142.862406733630991 42.035953047511839 142 109 99
26.335372768173087 -142.185466308517363 42.207576051248736 147 114 104
26.298566549876973 -141.524979937870057 42.285105714233083 150 117 108
26.409988094839072 -140.925668114730911 41.986160229374264 152 121 111
26.632573364061983 -140.369358636853264 41.404782684724950 154 126 115
26.855128766849283 -139.809699312164440 40.823312615491460 156 129 118
26.892330705915434 -139.174881388873644 40.712456152352274 154 128 116
26.966565167554954 -138.553527490100976 40.507428704571026 149 125 113
27.077831580423180 -137.944821567716815 40.208209107753930 145 124 112
27.411452471486157 -137.415671018598658 39.343964597853272 122 111 108
27.448522247725755 -136.775361009496038 39.232939373750924 44 54 77
27.300234102145218 -136.069430735961333 39.592772850174953 40 65 113
27.300169195338249 -135.416514759458380 39.575919784669026 38 73 132
27.225939314422256 -134.738615835473979 39.747438356783732 21 63 125
27.299931242716433 -134.110464054634264 39.542185828572855 22 67 132
27.077370571585277 -133.385874589106407 40.090531979826437 31 80 144
26.928902174131444 -132.687761669464379 40.450530102336870 44 90 158
26.743332509555081 -131.980398452490647 40.904793786344385 52 97 164
26.631853978477430 -131.297879923583992 41.170667119486069 45 94 155
26.594465531619960 -130.638571917836060 41.248107738782295 43 88 131
26.445846826178268 -129.948108803385310 41.608272328576163 131 166 195
26.371317259316633 -129.280314576983244 41.779990040901851 122 154 193
26.111431215426030 -128.563549705248448 42.422996170527256 74 117 169
25.925634275927123 -127.870003454816256 42.877569594173934 69 116 178
25.739798990659288 -127.179131028259917 43.332204113959932 19 50 103
25.665113649819659 -126.518481276074695 43.504074139004842 29 48 83
25.627450747160601 -125.867781856671598 43.581680486994543 134 156 182
25.552684659544497 -125.208943194616054 43.753580658948948 101 132 175
25.477877957841613 -124.551149557969737 43.925499452404381 95 129 172
25.403030423025299 -123.894403011722417 44.097436875689965 142 168 205
25.031651039632727 -123.176164235244684 45.023878534521771 187 205 228
24.549052927677003 -122.440710040904335 46.233406056062194 203 218 229
24.177603483149355 -121.734130150323239 47.160134044261952 195 205 216
23.954359986407873 -121.060968965105118 47.709666541784429 221 222 233
23.842258080439485 -120.411227109477082 47.976257361756751 202 197 200
23.915412985511203 -119.795355048912299 47.771149844258076 190 194 181
24.062641071716349 -119.190720420807409 47.377297340271355 128 145 119
24.172763633824239 -118.577967112491848 47.077738710747667 72 103 73
24.245781679531859 -117.957916275168543 46.872495341208406 44 69 66
24.244638762200609 -117.326028676789193 46.855963493346593 43 58 77
24.206394751930169 -116.689032275552933 46.933804058501806 76 87 105
24.168107633972248 -116.052562793172100 47.011649370833027 143 152 164
24.240945289110812 -115.430246036306883 46.806310555125407 140 149 163
24.350791693990978 -114.811090059584217 46.506530140922536 152 164 178
24.423535210779917 -114.186287691824219 46.301107906225837 159 173 192
24.459177404454245 -113.556660420560846 46.190065359548925 121 137 174
24.494773558526788 -112.926478539629542 46.078999064252713 66 86 137
24.382111793626365 -112.283041659410145 46.345637652848922 64 90 137
24.306461379579311 -111.644142069473645 46.517870678935225 115 138 169
24.267820403005331 -111.008962627575727 46.595676674599957 60 79 109
24.377339494894400 -110.383755031400469 46.295673035982759 17 36 68
24.375658916059415 -109.750661910936273 46.278999802436999 26 43 80
24.410982857334631 -109.119383739049610 46.167849391593649 78 99 137
24.335114463172843 -108.482955669507305 46.340101446748662 41 67 112
24.407395828526496 -107.852684649902727 46.134443363187927 20 47 101
24.442582184602259 -107.220342027775729 46.023237274888317 20 47 103
24.551814680890701 -106.588902174458596 45.723014105493661 18 46 103
24.586906701358188 -105.954950676889823 45.611747170154587 18 47 103
24.696041501496822 -105.320814037876374 45.311434405403475 20 49 105
24.693995561085025 -104.685364231593368 45.294625440604790 22 49 104
24.728947980548256 -104.049562277607706 45.183282141936132 20 47 102
24.726812465909624 -103.413886710859444 45.166448979580025 18 45 100
24.650551023969669 -102.780079669543980 45.338688007299339 18 45 100
24.500169564767063 -102.149781491208088 45.700042744389151 19 46 101
24.423830160633493 -101.518764877965097 45.872337748931329 16 45 99
24.495603264455504 -100.881914000078737 45.666405697902377 15 45 100
24.567329168958025 -100.244006418457886 45.460436710543519 16 44 100
24.639008000023935 -99.605044299331624 45.254430868548155 17 43 99
24.673604999966443 -98.967588586187730 45.142972007699512 12 38 94
24.708157356956391 -98.329628507465571 45.031490980609334 12 39 95
24.631567053429869 -97.700480077361760 45.203782700279362 11 43 101
24.554939189815421 -97.072468804173653 45.376096044152604 22 57 116
24.515304708039530 -96.441946105328427 45.453818341741396 20 60 121
24.586719396953036 -95.800248644123315 45.247687766013911 29 70 132
24.435919166402954 -95.182687854364431 45.609285116024893 20 64 125
24.322114785267296 -94.562893842749446 45.876299101260827 15 59 120
24.171251520991291 -93.949533269643979 46.237991851159734 13 54 117
24.168456826169603 -93.318353570201793 46.221139423335217 16 54 116
24.091575992811450 -92.697806754110587 46.393593394520678 21 57 117
24.051683454247140 -92.072851021486144 46.471406336554622 18 54 114
24.048775954604110 -91.442669875167255 46.454556522770787 18 54 114
24.119869811889373 -90.800341647176964 46.248343864674723 17 53 111
24.153902617757318 -90.163365985909323 46.136781649033651 17 53 111
24.039827466518467 -89.552514087603953 46.403970721225392 6 43 105
23.999755095649512 -88.929519879227286 46.481797364170149 10 48 110
23.959649297950115 -88.307140672448185 46.559633011971357 25 65 128
23.956523665934888 -87.677909720965701 46.542762958595375 24 64 128
23.953362970043457 -87.048751595053872 46.525887590670180 24 63 125
24.098208915991172 -86.387615360916300 46.130089158618659 24 59 119
24.206000772480500 -85.732660938773506 45.828963984731729 15 46 103
24.239735669753443 -85.093265104629438 45.717278237389849 15 42 97
24.310440775915630 -84.444572844171716 45.510821694119102 26 44 95
24.270093839286268 -83.822178777421172 45.588607492559618 18 33 56
24.451736904677844 -83.144161366742907 45.097807134949619 0 8 6
23.819296807779253 -82.675739351474405 46.691943648724447 3 7 0
23.519878272683741 -82.127382370878010 47.433298699837565 5 8 1
23.183455075481632 -81.593655541608101 48.269555044637485 5 6 0
23.845954504844997 -80.782394941320376 46.546464771939696 1 2 0
24.471375164696376 -79.972159821916790 44.917909704602977 0 2 0
24.541803457817394 -79.317877726283996 44.711252206396068 0 3 0
24.464227658104839 -78.707714998720888 44.883831437782050 0 2 0
24.904506083612844 -77.937004992008838 43.728891184092163 0 2 0
25.455689306536939 -77.124387198677795 42.289275787020415 0 2 0
25.525956823856511 -76.460946170470521 42.082349084457604 0 2 0
25.152357138177720 -75.944919644852831 43.013550659451852 0 2 0
25.037658292109086 -75.345947664397272 43.280918191985904 0 2 0
24.922945727575737 -74.748699608224470 43.548327373152802 0 3 0
24.697275786197842 -74.192724076364556 44.100384527372313 0 3 0
24.619523088047409 -73.586284759740082 44.273023503393858 0 3 0
25.244342516157069 -72.720228308251805 42.642905380488514 0 3 0
26.127922033787272 -71.747046001488911 40.348300690984274 0 3 0
26.197954027277802 -71.074849759601193 40.141099863167398 0 3 0
25.565468207233778 -70.677941774438750 41.737071459114503 0 3 0
25.117879132685985 -70.216299111371725 42.858727687852252 1 4 0
26.149110595201066 -69.157910492216729 40.183754332562245 1 5 0
25.960279361884325 -68.591143942126450 40.640975167471566 1 4 0
25.475717048948837 -68.152201428167146 41.857747274202353 1 4 0
24.991184252084835 -67.720409835513152 43.074709869456512 2 5 0
24.987203234748542 -67.085565557576288 43.057519569688992 3 6 0
25.094093943366801 -66.401493882357869 42.755458557911112 3 6 0
25.607519843686610 -65.532058669834285 41.408747309813378 4 5 0
25.825222566708305 -64.790988510625922 40.821602908283239 4 5 0
25.488549968177253 -64.305571165645631 41.659054071202206 5 6 0
27.332219865449630 -62.791136145794013 36.892450085980130 4 5 0
26.625961623680304 -62.477634648540715 38.679669383366559 6 7 0
25.698055044416911 -62.282930007396587 41.037174270506370 6 7 0
25.657014259186731 -61.661746720159783 41.114848964077396 4 7 0
25.468181018014327 -61.115632986055189 41.572602056372517 5 8 1
25.020739393335340 -60.704479236771306 42.695590722388914 5 7 2
25.127498884105272 -60.012648791815501 42.393302682080304 5 6 1
25.862267089886046 -58.989107979118089 40.475332397094405 4 5 0
26.560023625289141 -57.974513840537398 38.652115382153681 4 5 0
26.962201993162125 -57.109423770471714 37.589040169523344 4 5 0
26.440912289259600 -56.744316885495650 38.902297452310847 4 5 0
26.399834245608467 -56.120309746941153 38.979891671208719 3 5 0
26.506497394439478 -55.413823574280755 38.677205873033984 3 5 0
26.465425914112139 -54.789978405898630 38.754805615771659 3 5 0
26.645944378962994 -54.038852656695497 38.261888981557831 1 4 0
26.678737311232311 -53.371447389543277 38.149287595749115 0 3 0
27.302362696782538 -52.353851325293846 36.515016082804266 0 3 0
27.778237185564329 -51.415645109630333 35.260942921188644 0 3 0
27.663302451922334 -50.828859136813691 35.528576361556020 1 4 0
26.145366182206971 -51.105195909233906 39.411032982136391 2 5 0
25.587500012559680 -50.807344163710695 40.820636679680717 0 3 0
26.284916942969950 -49.728528763049695 38.995693630368862 0 3 0
26.280868884043485 -49.085628554367105 38.978281802624906 0 3 0
25.981516996571116 -48.632793915315631 39.722114199998202 0 3 0
27.490951362559805 -47.007313944332495 35.803116970958058 0 3 0
27.482857790829009 -45.704074500067662 35.767844057279802 0 3 0
27.331207355214076 -45.151859000586910 36.130952360152065 0 3 0
27.474842524740851 -44.401037188461061 35.732592420175820 0 3 0
26.511342419218046 -44.409263642887716 38.190144658264188 0 3 0
25.990788613294939 -44.123873103743577 39.505608912165798 0 3 0
27.204676466351799 -42.628197103739772 36.346251881780404 0 2 0
27.532884710892795 -41.743110117110291 35.471716875275206 0 2 0
27.602802566618216 -41.038362426366007 35.263653079673276 0 2 0
27.303774950040385 -40.599792428567781 36.007919904432015 0 2 0
28.333026459757043 -39.193819967392102 33.323575645914275 0 2 0
28.845710621470147 -38.154427507310416 31.972328770910167 0 2 0
29.026355198097640 -37.355289913189893 31.478199704139314 0 2 0
27.842071054497900 -37.582189818104432 34.508790807921173 0 2 0
28.871254986768143 -36.141980146345865 31.823549654281464 0 2 0
29.125754138644893 -35.281866272204716 31.138768249713593 0 2 0
29.380269619354870 -34.417973889774139 30.453892740972663 0 2 0
29.597918636869231 -33.579182483906145 29.864216934775015 0 3 0
29.631175430540836 -32.882913067516967 29.750966250567899 0 3 0
29.295655877669660 -32.480331859707562 30.590790420725966 0 3 0
29.218365554360055 -31.874739852938085 30.763546099613762 0 2 0
29.362396927683683 -31.090424492643645 30.364403582650596 0 2 0
29.617094306146342 -30.213221610877575 29.679222088414832 0 2 0
29.650563963437889 -29.515233921907537 29.565970753035316 0 2 0
29.536581164525344 -28.939769847150259 29.834091478705460 0 2 0
29.422656121742939 -28.365887748521818 30.102264853897651 0 2 0
29.308790025004825 -27.793582647215459 30.370490994294016 0 2 0
29.489948581192579 -26.970169673145755 29.875841261850326 0 2 0
29.560540195204908 -26.239565619866980 29.667248800748780 0 2 0
29.704918053692118 -25.443569685541068 29.267876099362070 0 2 0
29.849342705016866 -24.645345955794330 28.868455538417436 0 2 0
29.625159837906708 -24.171548384289029 29.422937245486480 0 3 0
29.401050813690773 -23.700917393997933 29.977515771548354 1 4 0
29.361332924234844 -23.067414265913971 30.055144089227667 0 3 0
29.616576551346100 -22.166546454998699 29.369464293352735 0 2 0
29.282091978210921 -21.801757938677696 30.210475508515685 0 2 0
29.463731303755743 -20.965484726507025 29.715592712642518 0 2 0
29.424273257058424 -20.332130088279985 29.793278163026486 0 2 0
29.900895434075387 -19.215375518457634 28.534753330047266 0 2 0
29.972135695213886 -18.474591140762222 28.326031362441427 0 4 0
30.080299372291996 -17.697495953506259 28.021832255726082 2 5 0
30.188530364369193 -16.918641739740004 27.717601589574230 3 5 0
30.001998060221069 -16.423155924470137 28.177132460468556 0 2 0
29.889257040164722 -15.858404046677938 28.445784203523402 0 2 0
29.739746312628085 -15.331305248944897 28.809979236023423 0 3 0
30.032539165954347 -14.368756404496118 28.028296338004992 0 3 0
30.141146252505855 -13.585328844928684 27.724024868165117 0 4 0
30.176131087137669 -12.874089817424567 27.610742575803528 0 3 0
30.063801317968142 -12.311193846548743 27.879526547735509 0 3 0
30.246349718059029 -11.449418262705462 27.384172488018123 2 8 0
30.539522386008016 -10.471296126453918 26.602165843185247 0 2 0
30.353758861023849 -9.983685888578460 27.062057541576422 1 4 0
29.725930787140832 -9.958812827824774 28.668579983254688 0 3 0
29.282444084808397 -9.749822220050309 29.797594055162676 2 5 0
29.391748002561890 -8.963667683339350 29.493395196858870 3 6 0
29.574833842883201 -8.097304175732337 28.998033055168833 2 5 0
29.536942496138927 -7.464614134178550 29.076057031976745 1 4 0
29.314927542428840 -7.030770835302222 29.632013939344034 9 12 1
29.314080677988073 -6.360017480299667 29.614540412135256 12 15 6
29.276490865780303 -5.729244310487598 29.692675683508497 11 14 5
29.644282897588361 -4.652910027215228 28.719213213226311 11 14 5
29.091091992304463 -4.590870483355870 30.135857947473625 11 14 7
28.722228317873338 -4.331332105124686 31.074646286319762 15 18 11
28.021887631713334 -4.449056193186420 32.874201482915339 14 17 10
28.279574654119067 -3.494714637420690 32.187643739886227 11 14 7
28.463684836464935 -2.620007745353306 31.692276537593585 12 15 8
28.426849352820881 -1.995224509074348 31.770721038354651 13 16 8
27.948012214344047 -1.879905609914498 32.997014352637621 14 20 6
27.432444773521162 -1.814047007786241 34.319163566822311 16 22 9
26.511714856371249 -2.228324977114724 36.693847279259558 16 22 10
27.322730559317101 -0.622704399992104 34.572275434019133 15 21 11
26.623287350051442 -0.789526753044561 36.373281057821629 15 21 10
25.113388263363021 -1.930132486221796 40.279677271540947 6 11 0
26.864498638291060 -162.266226545303027 39.566356026477024 145 85 104
25.798325191987395 -160.930731941622128 42.274534378424022 124 67 84
24.916085452006527 -159.727529395111048 44.513281445551314 86 44 54
24.512115994193749 -158.837037506426753 45.530709966406334 72 39 45
24.549636292884138 -158.225894257900222 45.420529417908057 61 32 31
24.476773560383187 -157.546566883737142 45.592291598351949 65 35 31
24.698241692229054 -157.046210621397591 45.012128012653648 53 29 24
24.514983636772172 -156.300779023298190 45.465884044568014 41 23 16
24.478885193303668 -155.644787701317625 45.543674831647536 44 30 21
24.516362232395075 -155.032114832638172 45.433445957721517 36 23 14
24.774590341608203 -154.545778146901199 44.759069807328046 27 17 8
25.069603851589008 -154.076440952616537 43.990563164261431 29 19 10
25.291019856071884 -153.561431641974139 43.410010959771853 38 24 15
25.107685073509010 -152.819252971892610 43.863835150484903 43 25 17
25.108306285942277 -152.180075601853588 43.847477172939193 59 40 33
25.108911411681618 -151.540805871499515 43.831113513324482 90 70 63
25.293476037835468 -150.999106343056610 43.344428327799335 100 76 69
25.367638734270500 -150.396815363215779 43.139877821715203 89 61 54
25.441783737991273 -149.793345169644056 42.935293272416970 119 88 80
25.442318205325982 -149.151260755415308 42.918842523057691 120 86 77
25.442832387717893 -148.509084089738366 42.902385233228358 118 84 75
25.553714736861160 -147.921337154064645 42.603627417299634 125 88 80
25.664576418008188 -147.331867550987511 42.304820931279124 132 95 87
25.775416571663406 -146.740675340414043 42.005965600399236 135 100 92
25.739046406172228 -146.078327602732855 42.083536705548113 133 100 91
25.629057349314934 -145.382260606091222 42.349366145652482 136 104 93
25.850218186737123 -144.839064431085006 41.768034612934258 137 108 94
25.960962745504908 -144.242887862959520 41.469031117591669 143 111 98
26.108479269545441 -143.661260392213904 41.075831173886655 146 114 101
25.887992349340252 -142.917386992563820 41.624105360977040 151 119 108
25.814667473718451 -142.239595773606226 41.795812359477594 154 122 111
25.851707455801950 -141.609168332554503 41.685035910832710 158 126 115
26.035910535040195 -141.038837441580540 41.197538110498215 157 126 115
26.330478831388625 -140.510427649723567 40.427416561324605 155 127 116
26.661815738261538 -139.992214831054923 39.562985627344176 152 126 116
26.735534671318909 -139.368464603950912 39.357790621317605 149 125 114
26.882818199392418 -138.771727823700957 38.964153188583794 138 119 109
27.140464054343617 -138.214191119234442 38.287821234563751 128 115 108
27.471673262282756 -137.679855999064557 37.422948285000047 80 80 87
27.434865415020553 -137.007787253596945 37.500178885792053 42 59 91
27.287628004838460 -136.297178178885076 37.860107231309030 31 58 108
27.140355523017405 -135.588673185935619 38.220082650041292 20 53 109
26.956249399814695 -134.869816546631114 38.674350124189147 12 51 113
26.772107592682119 -134.153612803434015 39.128678700752459 22 69 131
26.551131752773806 -133.428151571531856 39.677327472524269 36 85 151
26.514109626222961 -132.764091052075457 39.754720662078142 43 92 160
26.329858724265399 -132.055039922621091 40.209211336832652 43 92 158
26.292761897772024 -131.393027073744577 40.286642015504327 45 92 156
26.218829315481017 -130.720673758592085 40.458364604202529 84 123 168
26.144858468845136 -130.049348892767256 40.630105868892741 180 212 239
26.034051767082119 -129.368778253777293 40.896167257125455 167 192 222
25.776018281049922 -128.649772189806725 41.539495607752599 123 152 190
25.701931901116659 -127.983181088451943 41.711335263871746 91 123 176
25.407026328706294 -127.260880382722249 42.449129794963454 123 153 199
25.222473097448017 -126.570446792438943 42.904038627529417 145 164 189
25.111473797775020 -125.900514838957918 43.170334895911111 134 159 190
25.110822528176172 -125.258088298660311 43.153632086112026 65 93 141
25.073334244937222 -124.607248668519901 43.231270638442680 40 69 119
25.035804803854184 -123.956909879289952 43.308913665338963 154 180 221
24.814259389285475 -123.267973209406009 43.858387624331016 132 152 180
24.592675801848308 -122.582271332671226 44.407937183228199 187 203 217
24.187083097206880 -121.863435733548243 45.429460010096818 189 205 215
23.891837615734396 -121.171573228523016 46.167969863896445 197 186 198
23.670142678864991 -120.497500981679622 46.717796527916477 127 94 91
23.705960921190865 -119.871858548542534 46.606892870396422 154 149 105
23.815320472988255 -119.258003938900998 46.307149316222251 129 156 89
23.887842048264915 -118.636573945900963 46.101768532451729 86 119 69
23.960318336159943 -118.014025709034783 45.896349617338359 89 112 106
23.959166809567485 -117.379635744464622 45.879751463373680 75 89 110
23.921180887819631 -116.740134438356890 45.957580366069664 105 116 134
23.846362025527640 -116.096343289802590 46.129857811598413 157 166 183
23.955448922277917 -115.476344602099303 45.829899860625943 143 153 170
24.064488263955099 -114.854692094313705 45.529889499756933 151 163 177
24.136691419770735 -114.227390711081568 45.324291964349612 159 172 188
24.172059959455986 -113.595262021904290 45.213128766006975 165 184 208
24.133808462793901 -112.955676697941300 45.290901022967461 60 84 132
24.021940701836158 -112.310275795277107 45.557651834481703 49 79 128
23.836460693414288 -111.660700399047855 46.013424350762932 166 194 228
23.798083406039098 -111.024380707758851 46.091255029519516 119 145 170
23.906800648221363 -110.398041260705313 45.791057711000121 138 159 187
23.905117969154489 -109.763809953910126 45.774354690970739 155 177 212
23.903390737876734 -109.129583574724592 45.757642658802695 162 187 229
23.828054623336548 -108.492286430113765 45.929981488437988 37 63 114
23.973365552245504 -107.863686194956486 45.535117596416512 24 50 108
23.897942108599594 -107.226956322246693 45.707453142625269 22 51 111
24.006376450249711 -106.594930714360217 45.407051136017401 22 51 111
24.041203627149962 -105.960389536565387 45.295714663123789 18 48 106
24.223097196183190 -105.326013909493881 44.806091284279944 16 51 108
24.257829078084079 -104.689326727461875 44.694679914128244 20 52 107
24.218962488842024 -104.052861739512650 44.772406472382869 19 50 107
24.216829180886741 -103.416321948841286 44.755551472973480 18 48 107
24.104328747580766 -102.782566119964613 45.022472846219245 17 47 106
23.991790449916444 -102.150477860351202 45.289429461437180 18 48 106
23.915987179136145 -101.518594150213829 45.461812082016166 15 44 100
24.024002507359739 -100.879145643764431 45.161132672512053 15 45 99
24.095198437798615 -100.240105687555229 44.955025763025645 19 48 104
24.092808611859837 -99.604579560211207 44.938144286735763 17 46 103
24.163913288246270 -98.963979109944233 44.731978410179124 11 41 99
24.198204153513089 -98.325158648682731 44.620421551268748 8 41 98
24.158918300864450 -97.692042074449176 44.698148464776864 10 46 108
24.009297340822890 -97.069644826101168 45.059862984726919 21 59 122
24.006700406520672 -96.434883614397904 45.042958751610030 27 67 129
23.967299572183023 -95.804093788114884 45.120722088882616 28 68 130
23.891098625687100 -95.178095840970627 45.293174935421519 27 69 129
23.741340823394033 -94.562177420752818 45.655028483574824 22 64 124
23.701831061047336 -93.934276467072976 45.732843984531911 24 62 123
23.699042569436692 -93.301965299649041 45.715963646829721 22 61 119
23.622701005429491 -92.680284381941121 45.888498990875377 20 59 116
23.509569992231839 -92.065313479138084 46.155775503337651 20 59 116
23.580181108017527 -91.422885661655997 45.949461249363623 22 61 118
23.687502760745218 -90.773327359269445 45.648378794691865 23 64 120
23.758027444430176 -90.128575326752895 45.441986865210367 24 65 121
23.681507286553035 -89.509396467185368 45.614550105450007 21 61 122
23.568206598177142 -88.898298720642018 45.881891706465353 8 48 110
23.528374088255568 -88.274518553974602 45.959747282223390 23 63 126
23.525255602783481 -87.643888769280579 45.942842616702023 22 63 125
23.595592939683229 -86.997854043459498 45.736379173069395 28 68 127
23.776122309475653 -86.326769348889940 45.245529163092129 24 60 120
23.809633662990208 -85.686173220459295 45.133766601526418 13 46 99
23.769626525397790 -85.062223259005265 45.211581975710999 13 43 95
23.766329151796590 -84.430068431347166 45.194601280620560 23 47 96
23.799737849759765 -83.788892919958400 45.082802717564874 29 47 76
24.163743705059773 -83.062893082085594 44.117599256525551 0 5 5
23.792981367836887 -82.524446176630448 45.048804614169484 1 3 0
23.716089287339699 -81.912184332618239 45.221469960895661 2 3 0
23.271848987861304 -81.402998020957270 46.342586914497730 2 3 0
23.966274396693869 -80.576097790954506 44.523527495139604 1 4 0
23.264895981675089 -80.146851981573164 46.308762585521237 0 3 0
22.894098572013213 -79.628974795812638 47.240491274652271 0 3 0
23.074200180072580 -78.947448871625170 46.749284219590919 0 3 0
24.098930668686450 -77.997629936977305 44.075777471696085 0 2 0
24.425806384970315 -77.257298364014503 43.204702591075886 0 2 0
24.899515288641098 -76.463786388014668 41.953917088231407 0 2 0
24.675476482039628 -75.898257413996504 42.506062447109997 0 3 0
24.598306730739139 -75.285531871695014 42.678658874239488 0 3 0
24.704704662932322 -74.609438125276853 42.376702540226091 0 4 0
24.884501031729542 -73.905445056798541 41.884853406121493 0 4 0
24.550267873893091 -73.387177191432883 42.721957716713433 1 3 0
24.216042976066959 -72.873895157546571 43.559192314319858 0 4 0
25.203402400326766 -71.861717441530828 40.978526029964087 1 5 0
25.236225579952290 -71.205944455060859 40.866230864141102 2 6 0
24.901955522356488 -70.695123492455053 41.703519672864019 0 4 0
24.237348299957119 -70.322588812470258 43.395645582852012 1 5 0
24.857416795856302 -69.432025165405435 41.763920796308184 2 6 0
25.477412287189871 -68.532328816026293 40.131945486904783 1 4 0
25.289925696426067 -67.967265749771840 40.589486091001646 2 5 0
24.992345148667795 -67.452704204819526 41.332089816653337 2 5 0
24.217716288550015 -67.152768017172463 43.309863599774104 2 5 0
24.507311349252412 -66.387573988522135 42.532614819133670 1 4 0
24.650092770783395 -65.684978370406000 42.135323576273265 2 5 0
25.563380449340002 -64.623686801869709 39.742425679205667 2 5 0
25.559316657357641 -63.980260255976532 39.724997048975808 2 5 0
25.041604419349255 -63.582267673449543 41.038140021260972 3 6 0
25.110920781982287 -62.907234747680370 40.830719229689208 3 6 0
26.134034840933644 -61.761486837291912 38.151827572357774 2 5 0
25.946495423181581 -61.205786718715260 38.609598825222719 4 7 0
25.318788365271068 -60.876187585959272 40.208286717124395 4 7 0
24.691135616859178 -60.555890880344052 41.807225674343925 4 7 0
24.797101394465876 -59.861893255253889 41.504718920422079 4 7 0
25.269818529650109 -58.972150247559902 40.251248018148289 3 6 0
25.852513157114807 -58.016378711922073 38.712289636880769 3 5 0
26.325132903065096 -57.111916487303873 37.458419124414917 3 4 0
25.770913723718188 -56.767028914524175 38.867557818811150 3 5 0
25.473434472525426 -56.286819999480890 39.611068333414863 2 3 0
25.836005160961882 -55.437083708272681 38.642379107338172 2 3 0
24.951899687275443 -55.297549330521889 40.908177155730954 2 4 0
26.964361801391156 -53.487143669007089 35.657990249963376 0 3 0
26.886872697988444 -52.877469904882652 35.830599876971604 0 3 0
26.772736424905766 -52.290812184156081 36.098400417584230 0 3 0
27.281823657493277 -51.329689384255268 34.748434385715512 0 4 0
25.738056241513682 -51.615338723784006 38.727947233079334 0 4 0
24.744278337977853 -51.583753660991789 41.280376543899649 1 4 0
25.583303720590706 -50.419911313917076 39.073829721468883 0 3 0
24.992823089205359 -50.148844828031947 40.579548797363373 0 3 0
25.868434074439939 -48.947322469823135 38.277420224492886 0 3 0
26.780627039088564 -47.709135951374321 35.879735358359738 0 3 0
26.666628859767229 -47.130050382914511 36.147759524831287 0 3 0
26.516011960798842 -46.576933707554943 36.511056599744791 0 3 0
26.365426313298812 -46.026033418406591 36.874417249593762 0 3 0
26.617937408558127 -45.204209518404014 36.190215584386493 0 3 0
27.639897429540490 -43.851533598675267 33.505750187732957 0 2 0
26.646645927654497 -43.879179918368244 36.059815154503525 0 2 0
25.067308890940751 -44.331718249067215 40.138450672969469 0 2 0
25.979360477422595 -43.045557100568871 37.739499462490215 0 2 0
27.477500586415346 -41.327020905695818 33.815785313703913 0 2 0
26.740955935465195 -41.199916889039798 35.703714210441063 0 2 0
27.066797289311388 -40.308717199291351 34.828536014764268 0 2 0
27.319380205219900 -39.466665971943506 34.143827387271926 0 3 0
27.535343347472654 -38.648118538663304 33.554327873147145 0 2 0
26.945543763923787 -38.432054171131810 35.061605248869199 0 2 0
26.612198294135098 -38.030033443186568 35.901889855810538 0 2 0
27.817083168200000 -36.453854551844117 32.738609698190345 0 2 0
28.399336207360427 -35.341677148132760 31.195526773252169 0 2 0
28.908337564057788 -34.278086159986387 29.842900306194707 0 2 0
29.051149494862408 -33.495756901941974 29.443558863332242 0 3 0
29.010903556105163 -32.857024854064178 29.520943997245581 0 2 0
28.751007348247867 -32.395359201148651 30.170527460118535 0 2 0
28.601016014366415 -31.848383400248451 30.534111243498700 0 3 0
28.927045898254164 -30.914035254435085 29.657858854055434 0 3 0
28.996815259727427 -30.186432239691818 29.449175121561751 0 3 0
28.956795044704137 -29.549229913805807 29.526646013358032 0 2 0
28.697172922616751 -29.097173417751765 30.176533536464007 0 2 0
28.584047666411017 -28.524688666621806 30.444907015921615 0 2 0
28.654010375459066 -27.797215751374988 30.236266301308575 0 2 0
28.833833296183222 -26.973864002278511 29.741344162021164 0 2 0
28.867282354767397 -26.275171942283048 29.628070434261275 0 3 0
29.083793957248027 -25.415261379365933 29.037616607177625 0 3 0
29.117341571533231 -24.714014383249854 28.924297200764840 0 3 0
29.041144635341375 -24.110150055413641 29.097321731520339 0 3 0
28.708821102606521 -23.737834085899443 29.938582107179570 0 3 0
28.596162689112234 -23.171072251993124 30.207198955759509 0 3 0
28.666553407589404 -22.438468256289699 29.998513702174620 0 4 0
28.663811801425830 -21.772180995794223 29.980766684366046 0 3 0
28.661134069704623 -21.105794191857619 29.963030202072957 0 2 0
29.061044530317673 -20.062147122518606 28.894884490128277 0 2 0
29.278039226653014 -19.185222480543725 28.304090942227276 0 2 0
29.385317504384318 -18.409415157856031 27.999743424976714 0 2 0
29.419480103863457 -17.702054771872689 27.886392499578875 1 4 0
29.636657627600989 -16.817173663709113 27.295431245993854 1 4 0
29.414840054451439 -16.356582907237325 27.850738783218986 0 2 0
29.193108029702330 -15.899094173611072 28.406143875585201 0 2 0
29.081221586314314 -15.336156481211681 28.675017713203516 0 3 0
29.554786155719611 -14.191441884661611 27.415144523118812 0 3 0
29.808900578553342 -13.259854131684776 26.728440771020729 0 3 0
29.733829445353720 -12.657246185927240 26.901728647780885 0 2 0
29.512510914721872 -12.204600822866739 27.457343480671739 0 3 0
29.620527838863907 -11.417184168178414 27.152848062545019 0 4 0
29.728626307469902 -10.627939398355176 26.848322222040423 0 3 0
29.690483153489843 -9.989176552944512 26.926137916947454 0 4 0
29.067139300852006 -9.964358586810359 28.533581651515391 0 5 0
28.919446255177277 -9.446452844045929 28.898386658305498 2 7 0
28.808428352335547 -8.891593854801322 29.167647026937544 0 3 0
29.063297386572792 -7.946463493779832 28.480748786654715 4 9 0
28.879310441035578 -7.470534829226850 28.941306210663072 1 4 0
28.658845485417189 -7.036777684283257 29.497583299346985 7 11 2
28.438482562321120 -6.606018904327444 30.053958651144058 18 21 12
28.474265716290283 -5.896471801844071 29.940883759692355 13 17 6
28.546726089080096 -5.145570263024099 29.732151142191412 5 9 0
28.107208738039198 -4.964471613401519 30.862698846387900 7 10 3
27.631223206954481 -4.830682983996203 32.089100761924271 8 11 4
27.082193386664528 -4.786361508325433 33.507056058854658 11 14 7
27.228228548552998 -3.959183543948794 33.107219094243618 10 13 6
27.374370402306333 -3.129496003733145 32.707339289908276 10 13 6
27.410891647128402 -2.423776207725552 32.594514519294904 13 16 9
26.862299399413395 -2.396141350954026 34.012989952471258 14 20 7
26.094358217292857 -2.632606893131443 36.005970275614004 13 19 7
25.655716404627881 -2.493347139636699 37.137776675880815 11 17 5
26.095030368175181 -1.322122178003964 35.972308653599384 12 18 8
25.620037718126468 -1.232207052518418 37.200045812123705 17 23 13
25.291465696871974 -0.973803885055275 38.045013749054164 19 22 11
23.792521743488521 -2.130450424287698 41.954070965071594 6 10 0
25.641686256908876 -161.245044995141427 40.923014890320729 117 62 78
24.692768545400725 -159.991569590669030 43.351017175946765 89 51 59
24.145609638303412 -159.005801618952177 44.745074847187254 69 43 46
24.036744573301377 -158.301587672091330 45.010924734737728 63 37 37
23.964396612599835 -157.621433158227404 45.182771179770612 59 34 30
24.038144851318165 -157.031273885130418 44.978448549979021 50 32 25
23.892725321902134 -156.308067419661228 45.338424900023796 43 28 21
23.491604939714435 -155.434988947630046 46.356886986721094 35 24 16
23.565321552523905 -154.846457575910705 46.152599855529303 34 24 15
24.223467880102099 -154.595384481000735 44.443064742895871 30 20 10
24.552861503861330 -154.146409608024442 43.580020930752227 37 23 15
24.772662334836561 -153.630590659585522 42.999116515359901 58 38 31
24.627168761594419 -152.907917643547762 43.359091434921737 72 48 41
24.664300742921760 -152.287717326696054 43.248597632511633 97 71 64
24.701417136648530 -151.666880480708812 43.138084215427057 107 81 73
24.884633345544195 -151.123549297626596 42.651080338979369 63 37 28
24.958246241237994 -150.519616336653826 42.446374700046420 40 9 2
24.958782378035565 -149.876518584338157 42.429898157537338 122 86 78
24.959299078737111 -149.233327378207690 42.413415217675691 126 89 80
24.959795547299890 -148.590042950422230 42.396925723152833 126 88 78
24.960270998371094 -147.946665596206628 42.380429520479538 129 91 81
25.033785349712694 -147.339005815832252 42.175607545971616 135 98 89
25.070747345586454 -146.712533146168028 42.064917099505692 138 101 93
25.034624956842570 -146.050702364832290 42.142552365536886 139 105 96
25.035009026197820 -145.406413558035723 42.126013909426376 141 108 98
25.291085394894218 -144.879755121015080 41.450156398499189 143 111 98
25.437544749542674 -144.299562414916721 41.056776596954080 146 114 101
25.547447551299541 -143.700830406519259 40.757534518658844 150 118 105
25.474666995864830 -143.020371608933402 40.929284375291161 154 122 109
25.511452770593984 -142.388099936283652 40.818408214060923 157 125 114
25.730868333875719 -141.832480163770015 40.236398239553353 158 126 115
25.913724097353125 -141.258322903087617 39.748525369028584 153 124 113
26.206146004436327 -140.726094111877416 38.977865021603321 150 123 112
26.388942846106936 -140.145504187720007 38.489814155424057 145 120 113
26.535176998424703 -139.547739543763640 38.095934948462627 141 119 114
26.790975110627286 -138.989998741079660 37.419218693224593 118 106 102
27.448591834077654 -138.580413377384417 35.705486654316530 121 120 120
27.704324341352851 -138.011885590928131 35.028478727572036 40 52 75
27.558171627178226 -137.293406376837964 35.388426598966788 16 40 83
27.265856763670079 -136.525006729229005 36.125563610123834 1 31 83
27.083102693163603 -135.799088893303320 36.579926318366375 1 30 84
26.827249810740902 -135.050900504708238 37.222949328707926 7 43 104
26.498298215258842 -134.282079090819536 38.054674895886478 21 66 129
26.242374732157742 -133.541922903065256 38.697890586888889 43 92 158
26.205604802678792 -132.875368120332809 38.775271179903115 42 91 157
26.059203435182773 -132.175180951382430 39.135639824932213 42 90 155
26.022359096778004 -131.510399759350292 39.213050897802219 48 95 156
25.875883352789344 -130.813626113828576 39.573492325837066 69 108 156
25.838963132991566 -130.150625933254446 39.650933767901051 175 201 230
25.728942592441015 -129.467552432077497 39.917091872689582 136 156 182
25.618883738966808 -128.786056240621377 40.183282799495373 192 217 248
25.508786315314239 -128.106139407096975 40.449506548372995 188 216 250
25.142938947928705 -127.361582319747356 41.376404227298508 116 145 179
24.813585904830298 -126.631616483017467 42.209049591104275 134 156 189
24.666845156245309 -125.951083561578699 42.569855531688290 52 75 116
24.629653868572689 -125.298609118469670 42.647512843832999 36 61 118
24.665480161918268 -124.663370261609870 42.536363330692865 30 57 113
24.591678086310012 -124.003253173382788 42.708428282842874 149 173 216
24.517835558528930 -123.344184555547997 42.880511978559809 100 119 150
24.370896248173466 -122.671067294941111 43.241468448916009 188 200 219
24.187389906343043 -121.992818270754341 43.696906294935019 200 208 221
23.894263015568356 -121.296251703921541 44.435729421094607 126 102 121
23.674153809454424 -120.617479990840309 44.985760167636613 136 95 105
23.563586441138852 -119.961324667352486 45.252500361767687 137 123 109
23.526031000257156 -119.319146022346615 45.330348518403326 136 153 126
23.524959102560395 -118.683396474279618 45.313731633292889 68 93 75
23.560369179494721 -118.053258909845496 45.202628310007356 87 107 109
23.486161128369886 -117.406455805927351 45.374953371283993 145 160 175
23.448435753112832 -116.765815270193187 45.452806338693023 140 153 167
23.447191417135905 -116.130520164064578 45.436165801197291 147 156 170
23.518949390354663 -115.504299015681156 45.230504804130561 126 137 152
23.554138826980981 -114.872697490175753 45.119318461831682 149 161 177
23.662326808429611 -114.248535474006516 44.819068732708644 147 159 177
23.733945839856716 -113.618997474573220 44.613293686869184 158 176 196
23.805518167662200 -112.988358277121122 44.407480658805952 84 106 149
23.621403955217197 -112.334360448679661 44.863419286382168 51 79 127
23.473771338719096 -111.685996934615261 45.224871974047545 162 193 230
23.399137114860203 -111.045084155755035 45.397261533203618 135 164 196
23.543568839712655 -110.419427284968464 45.002293199516117 30 53 94
23.541881900706713 -109.783238589619160 44.985538821430936 38 60 108
23.576667133730332 -109.148869004332724 44.874198170015262 26 50 104
23.465343965233792 -108.507796326274160 45.141172328506599 26 53 108
23.573070579359502 -107.875979110304158 44.840630516787854 28 59 115
23.461663819468342 -107.236566504890519 45.107630343673890 23 55 115
23.532784223650808 -106.602414517494196 44.901634009648745 24 56 115
23.530832506884146 -105.966289315952906 44.884826953914796 20 56 112
23.674883207304347 -105.330883765659621 44.489529024590496 18 57 115
23.709351088785155 -104.693607357818422 44.378048301563553 19 55 111
23.670753905312736 -104.056549458376381 44.455814832303133 18 53 110
23.705132765002986 -103.418774836768108 44.344302998035090 17 52 110
23.629942528081102 -102.783232610904662 44.516717014484982 19 52 111
23.591219878017988 -102.147621980032611 44.594495134981287 18 52 108
23.588962209259044 -101.511125854626556 44.577615750982801 11 44 99
23.623166819746004 -100.872927208670049 44.466057235789918 13 44 98
23.620822826387936 -100.236227667482737 44.449154897152511 21 52 107
23.581933476482362 -99.601848421744606 44.526930581031280 16 47 104
23.652510052304862 -98.960389364602861 44.320634227576534 13 47 103
23.723040578032432 -98.317880541257537 44.114301352468431 9 45 103
23.684025695893197 -97.683627793578239 44.192054547847164 12 50 113
23.535475441212022 -97.060089698480326 44.553959282956015 24 63 125
23.532883621784158 -96.424194882032921 44.537026861594740 31 71 133
23.493754682006283 -95.792270201167028 44.614816704308765 32 72 134
23.491083107728770 -95.156750525922590 44.597877597908905 25 67 127
23.269406447355074 -94.548079033942912 45.149394801505537 22 64 122
23.230169452877817 -93.919044731689482 45.227237025893118 25 64 122
23.227387570303250 -93.285602315927292 45.210328867227275 26 65 122
23.370529386158125 -92.631082921036054 44.814351516901269 22 62 119
23.294686840353570 -92.007783809471903 44.986947491361462 25 66 122
23.218811325414244 -91.385638651732819 45.159566465010499 28 69 125
23.252363931998389 -90.746342230252509 45.047845887432089 21 64 119
23.285876943127391 -90.106566856207522 44.936104834474321 18 60 118
23.282866478111188 -89.472961832600760 44.919145591571521 45 87 147
23.133887971806296 -88.867107181845668 45.281418561578192 21 62 124
23.130810971953345 -88.234733458486531 45.264477427243463 21 62 124
23.127698837557332 -87.602432442475944 45.247530960814174 20 61 122
23.233988908624170 -86.946992245657725 44.946085188868949 26 67 125
23.303759054187744 -86.298003114118103 44.739429195426823 25 63 118
23.446442395762666 -85.631435938597988 44.343047064261526 16 52 104
23.406707453403378 -85.005543750997575 44.420868182158074 13 45 96
23.476362829549622 -84.353793879615978 44.214117441550286 21 48 96
23.509508484551560 -83.710135834404454 44.102200890575915 30 49 79
23.907324823013681 -82.972294236984297 43.041512814206158 0 4 6
23.976856744462054 -82.315346438709639 42.834602685810097 0 4 0
23.718144039524013 -81.746645126391513 43.481668305440934 3 3 0
23.532354376334801 -81.161463471373324 43.939038118534171 2 3 0
23.419479688424794 -80.558168781401491 44.206668360618977 1 4 0
22.941954465463446 -80.063926502313691 45.423457752975196 0 3 0
22.464440882384721 -79.576847464863818 46.640434284579101 0 3 0
22.898441631676071 -78.814999170834938 45.484434815909651 0 3 0
23.332379251131556 -78.046712489457690 44.328256340742570 0 2 0
23.656883097246293 -77.307453360486150 43.456722565959552 0 2 0
23.835512113367457 -76.611764462174818 42.964848144530180 0 2 0
24.232823971256046 -75.839259551716637 41.903162558933815 0 3 0
24.520720444528749 -75.098778805263294 41.126202733319445 0 3 0
24.261808293977055 -74.547675016077619 41.773681307983566 0 4 0
24.622530110837012 -73.776403609731176 40.806636548447841 0 4 0
24.217801524846863 -73.282290206142221 41.834132582580651 1 3 0
24.505558353501250 -72.533496707068210 41.056929711700207 0 4 0
24.283050125788350 -71.976391210588247 41.609606301287528 1 5 0
23.914771834100115 -71.479710844667849 42.542398450350532 2 6 0
24.129562596755278 -70.755939737380999 41.955102873370947 0 4 0
24.198558741846448 -70.088248294262456 41.747805742508291 1 5 0
24.158218473341982 -69.464813368968194 41.825566063404210 2 6 0
24.263609181835911 -68.780606184670219 41.523193853707511 1 4 0
24.660448736980932 -67.969871682194764 40.460425379634074 2 5 0
24.182854650826236 -67.534765988652993 41.678725873164211 3 6 0
23.668859776090670 -67.122979200335323 42.992275633043192 4 7 0
24.247776039928155 -66.225730659181224 41.454051578098984 3 6 0
24.535206073978642 -65.453576225415929 40.676179154125833 4 7 0
25.004727033691061 -64.592274427180968 39.422786147985676 4 7 0
24.854983509494453 -64.017303427000897 39.785698724755065 4 7 0
24.086063356268959 -63.742490803254846 41.765291542005031 5 8 0
25.065400348965909 -62.625035791169516 39.180264303614820 4 7 0
26.226732314947498 -61.402712661519139 36.119291336390376 4 7 0
26.040508917452300 -60.841580927251485 36.577192461333425 3 6 0
25.053154993026759 -60.692611175321090 39.127912017296126 3 6 0
25.267545662856733 -59.935386706430172 38.539671551287455 3 6 0
