ply
format ascii 1.0
element vertex 713
property double x
property double y
property double z
property uchar red
property uchar green
property uchar blue
end_header
55.511839773326116 -136.509351040376060 -182.324956758363385 9 11 1
55.281420075173678 -135.184588461301360 -181.487357439190646 9 12 3
55.050980371380199 -133.864677893648832 -180.649637082719494 19 21 17
54.871108725184584 -132.561639471470414 -180.005338114177562 143 143 131
54.944148593249388 -131.319706018237866 -180.328731277593874 2 4 0
54.915982609207745 -130.054232691165225 -180.265032782357423 10 12 0
54.381944073853070 -128.685527962216781 -178.265470695175622 16 18 5
54.024941526188144 -127.362659277603626 -176.943214536970913 15 19 5
53.920834334401427 -126.093801200048333 -176.588836800356262 14 16 5
53.766120796114251 -124.818365630715576 -176.040780014576569 14 16 7
53.282619938332779 -123.492994213475768 -174.233963071396659 14 15 8
52.824402028034790 -122.181815836429578 -172.523708562568004 13 14 8
52.745500256344698 -120.933630610864952 -172.265742039160557 6 7 2
52.919446800384051 -119.719774472663431 -172.976171204914294 8 9 4
53.042779061975899 -118.496082307510974 -173.493006992297069 13 12 8
52.989070305844180 -117.250587892861944 -173.331918012401843 12 11 7
52.935333250272073 -116.006188198834153 -173.170806603118194 11 10 5
53.033276398554293 -114.775940155755322 -173.590904759833677 9 10 4
53.181750862447537 -113.547315483326841 -174.204825131929624 7 8 2
53.431318888725208 -112.321932649834594 -175.206383716154335 7 8 0
53.478580682975029 -111.080263180977425 -175.432943143226112 6 8 0
53.374117390703596 -109.831042560814481 -175.078131973838310 4 6 0
53.143223463613651 -108.580009597294818 -174.238728330637969 6 8 0
53.089274597600749 -107.337670214420598 -174.077607232414152 9 11 0
53.111136790557566 -106.097244705769668 -174.207230009931095 7 9 0
53.436312947553724 -104.856144809513935 -175.500028827796200 6 8 0
53.811994721095985 -103.607404625809380 -176.986894057434995 5 7 0
53.580967366101163 -102.363994669894836 -176.147321175403761 5 7 0
52.970775638816590 -101.138104528605183 -173.853352616724692 9 11 0
52.663900186399076 -99.912107013852648 -172.722545000156799 2 4 0
52.685587975202147 -98.674772905934404 -172.852123821930036 2 4 0
52.631421880066348 -97.441937136672095 -172.690802171613313 5 7 0
52.476135964124317 -96.217996884505311 -172.141534653806104 2 4 0
52.497737926125026 -94.982001483463179 -172.271096554284497 3 5 0
52.216048511880373 -93.775274410265453 -171.236740297255551 7 9 0
52.187056872492640 -92.547155328034350 -171.172247747126505 2 4 0
52.158038004107702 -91.319683697937450 -171.107744083795581 4 7 0
52.103722921596237 -90.096161685103311 -170.946212779318614 8 11 1
51.897772612405163 -88.895269203971267 -170.202514036711136 2 5 0
51.540202669252963 -87.721932454834885 -168.876517602745480 1 4 0
51.637428380450487 -86.482248702495227 -169.297006293191146 2 5 0
51.709353732590237 -85.244891835194508 -169.620510045630795 3 6 0
51.705451686486299 -84.020015751762045 -169.652902012757977 0 4 0
51.347825976436553 -82.864401564889761 -168.326459925227880 1 5 0
51.419671561587172 -81.627985593775122 -168.649955773467184 5 9 0
52.249353009469949 -80.225537098059476 -171.885722599438282 0 3 0
52.750551298675802 -78.880049065901218 -173.859909846479866 0 3 0
52.544394282738928 -77.692645962341800 -173.115905594020035 0 4 0
52.136149211736694 -76.560199184887139 -171.595019958311582 0 3 0
52.081528636764865 -75.344570128812151 -171.433347749089876 0 2 0
52.304721409165580 -74.054841902812569 -172.339861479174772 0 3 0
52.325818106142513 -72.817349365218305 -172.469565640881683 1 3 0
52.119585316974231 -71.646045844825110 -171.725161698097338 1 4 0
52.014362836290395 -70.448605160594298 -171.369170777381385 2 5 0
52.010139860138068 -69.221754684495110 -171.401679501334343 2 5 0
52.031146288221017 -67.986867887198969 -171.531334974150809 1 4 0
51.951119084420561 -66.785569271231452 -171.272390035651995 0 3 0
51.946828132786159 -65.559810715445550 -171.304884541396291 0 3 0
51.967764823072578 -64.325207123162343 -171.434547015582211 1 4 0
52.266418924682327 -62.987880777635752 -172.633153357090464 0 3 0
52.363041890744910 -61.720836126944079 -173.054471373295996 0 2 0
52.560624743398598 -60.412401984505038 -173.864606136892064 0 2 0
52.707678249371369 -59.120055635331639 -174.480461481870350 0 2 0
53.006171179989551 -57.762262229671883 -175.679628763558924 0 3 0
53.153154091386469 -56.462151062783072 -176.295698857084005 0 4 0
53.224375140375479 -55.191805461310402 -176.620197919331133 0 4 0
53.371297714490190 -53.886395622674783 -177.236417051408239 0 4 0
53.745361256798141 -52.474553975716795 -178.727820885821018 0 4 0
54.548461689427853 -50.854860401664624 -181.872528594836865 0 4 0
55.099085984569960 -49.338272622843768 -184.045219601632368 4 8 2
62.110548402705369 -31.310249711884168 -211.664070577272412 5 8 4
62.357677751548181 -29.826138262642516 -212.672802446444450 0 2 0
62.150707471180631 -28.617036988971563 -211.929524653826945 0 3 0
62.624812604774668 -26.984918873011836 -213.814547392601014 0 2 0
62.670061938979188 -25.616592604055569 -214.044786328329224 0 2 0
62.558742665844569 -23.010663519005817 -213.726373250938536 0 2 0
62.225648070363000 -21.895866177137297 -212.495961154551537 0 2 0
62.346523741380501 -20.478872692360518 -213.018286426533791 0 2 0
62.543035789811626 -19.007021640342380 -213.832855634186046 0 2 0
62.663870812889783 -17.584294984470606 -214.355337112177097 0 2 0
62.658606370945748 -16.249149965013636 -214.390852567554475 0 2 0
62.401182841314892 -15.097049657556147 -213.452224529667717 0 2 0
62.244631656152023 -13.876418401742443 -212.903131218870612 0 2 0
62.592350476345771 -12.282858600919228 -214.302511167877014 0 2 0
62.713126338016409 -10.853789632046841 -214.825168360389512 0 2 0
62.733043714687120 -9.499709817728307 -214.958121415244818 0 1 0
62.601696378592031 -8.263136462809520 -214.506383998276533 0 2 0
62.621610164437335 -6.910083092829483 -214.639311316090129 0 2 0
62.414650272284810 -5.738308281291124 -213.895068683123668 0 2 0
62.510186401703592 -4.325745011270369 -214.320362806571723 1 3 0
62.756946963489831 -2.786948170873602 -215.330580750970910 20 23 17
55.981811327979095 -140.836857736632339 -189.060750219958834 11 11 3
55.403406762003513 -139.383017887642723 -186.868255102065632 13 13 5
54.975169957151131 -137.984297898628512 -185.256223169654731 9 9 3
54.221563821993833 -136.506000061133705 -182.385494444491428 7 11 4
54.143696660693166 -135.221075589811591 -182.128263250115310 7 10 3
53.865591861609147 -133.887453784640286 -181.096444480885054 5 7 1
53.712600718442332 -132.589831721135255 -180.548606596416391 12 12 3
53.584612928293275 -131.301166388510296 -180.097523553804081 9 11 3
53.406552695376767 -130.004255523037898 -179.452694960999338 13 14 5
53.028279783007441 -128.669615675239356 -178.032990782119043 15 16 7
52.800136763655317 -127.372628173706403 -177.194208072015499 15 18 8
52.647044045440396 -126.094448532141968 -176.645889572908231 16 18 5
52.543973790548691 -124.828251303107081 -176.291230496415835 16 18 6
52.165643819980055 -123.519182441685388 -174.870878505409678 16 18 8
51.912407999246980 -122.237398584212656 -173.934736167621281 13 14 6
51.884336754671814 -120.992983593223386 -173.870475109697395 14 15 9
52.056392519030965 -119.775279293327614 -174.581391391306454 13 14 8
52.103315717977104 -118.538738593545020 -174.807887997030377 13 13 5
52.050134604496087 -117.290197811970984 -174.646769349712201 12 11 5
51.896857530200812 -116.032947163527666 -174.097948876218936 10 11 4
52.068775271621845 -114.807292666568188 -174.809098519540669 9 11 2
52.240653605121267 -113.577815932793598 -175.520354828438087 8 9 1
52.512553114535955 -112.351041917999822 -176.619483238515159 7 9 0
52.634320523104876 -111.110129327773365 -177.137084174834570 6 8 0
52.380845385662191 -109.850268728551441 -176.200425493330044 5 7 0
52.202394479764251 -108.598340044515282 -175.554516878684183 6 8 0
51.998912428890840 -107.349744789909025 -174.811542140335064 7 9 0
52.220608388445434 -106.110012449534565 -175.717073445395442 7 9 0
52.492283089298887 -104.865375385075978 -176.816708688353572 6 8 0
52.788921907091286 -103.614483014801422 -178.013499164710026 5 7 0
52.535311006011270 -102.369394297773368 -177.076487342567532 7 9 0
52.181652990205968 -101.133174846185284 -175.751310280161192 8 10 0
51.827988092973186 -99.904684801353199 -174.425935275573920 4 6 0
51.599350926986666 -98.677025095277401 -173.585465857269014 9 10 2
51.520736012453675 -97.444441540054669 -173.327038097227273 4 5 0
51.542118741939326 -96.205869708540106 -173.456711420302099 4 5 0
51.563471874233066 -94.966837326233588 -173.586402693148784 7 8 0
51.309755667507055 -93.754574602862675 -172.648565837852345 5 6 0
51.181042228263628 -92.534136071241292 -172.195871972770817 5 6 0
51.102313588493750 -91.310489386244186 -171.937237045560607 5 8 0
51.198570774759112 -90.065520206268999 -172.358060734285175 6 9 0
51.069791478009137 -88.850594574761089 -171.905238192359718 4 7 0
50.740998084223115 -87.669257758988365 -170.675659927639799 3 6 0
50.612189151341916 -86.462221888183194 -170.222639975539948 4 7 0
50.608351310104439 -85.236096938833043 -170.255050982241130 4 7 0
50.529496761430089 -84.024087437940906 -169.996141741733936 2 5 0
50.200661324849008 -82.863209201386397 -168.766044441883935 3 6 0
50.421716567551293 -81.594969818102058 -169.672442422949928 3 6 0
51.267587816652110 -80.184889400092857 -173.007199909043322 0 2 0
51.663492837593431 -78.859976692451227 -174.593996168865488 0 2 0
51.434531833631475 -77.677194331592503 -173.752435722397138 0 4 0
51.155579016036803 -76.512087343306035 -172.716444644109060 0 3 0
51.076547328779235 -75.300545385925503 -172.457559682274450 0 3 0
50.947517452839470 -74.104500018893646 -172.004301590657576 0 3 0
51.018384142213236 -72.854379399080500 -172.328351709824176 0 2 0
50.939294107733602 -71.647155620563012 -172.069367344299621 1 4 0
50.835199486004520 -70.449409491456208 -171.713152937852271 2 5 0
50.930978592886142 -69.190500257214282 -172.134434233888157 2 5 0
51.026727879674823 -67.929586940136574 -172.555773335589208 0 3 0
50.972542055405945 -66.717589838686010 -172.393918269728715 0 3 0
50.943321594325802 -65.498111243805127 -172.329249806963162 0 1 0
50.839134542219504 -64.306462449572649 -171.972897101194178 0 3 0
51.034711191945235 -63.005534929505487 -172.783249799920839 0 3 0
51.230251952766992 -61.700439440001631 -173.593717359347863 0 3 0
51.475716110297576 -60.371480438745500 -174.598789187358534 0 3 0
51.970926518965989 -58.936047362977135 -176.576524586875962 0 3 0
52.266258003198935 -57.573075907004444 -177.776473942932057 0 3 0
52.611500092269182 -56.182437498975418 -179.171128288465013 0 3 0
52.582061515737522 -54.948479630997703 -179.106878012559775 0 3 0
52.552606354672143 -53.715280924633305 -179.042611558730812 0 3 0
61.680607716572830 -6.620078182827122 -216.371547590413286 0 2 0
61.650455956257140 -5.303007786696893 -216.309587219131743 0 2 0
61.545486418703746 -4.048050861412696 -215.955027847018471 0 2 0
54.748116391500510 -140.855033410934340 -189.415470696959972 6 9 2
54.175847938088133 -139.400840092111849 -187.221725962547623 10 11 3
53.727380280446866 -137.994673780547856 -185.511921224329114 11 12 6
53.328425856005367 -136.611938422123586 -183.995585093546708 8 12 5
53.127535169647665 -135.290352566091372 -183.253961319698135 7 10 3
52.877109859620028 -133.960500330009012 -182.318482207677164 11 12 6
52.626669195972703 -132.636052651334438 -181.382866853016310 14 14 6
52.400970390224309 -131.322753135930469 -180.544003461523857 12 13 5
52.100985623500819 -129.997928717478004 -179.414331226767217 15 16 8
51.701964849402792 -128.658857515646730 -177.896882537968565 15 16 8
51.451468145282782 -127.357999281240836 -176.960670269560865 15 18 9
51.200956610647943 -126.062573201987561 -176.024320939415986 15 17 5
51.074199943819558 -124.794432278915650 -175.572455992535765 15 17 4
50.848409071540054 -123.512613896673940 -174.732799538190477 15 17 6
50.894880829191251 -122.277738749079290 -174.959345793180034 14 15 5
50.891818264586860 -121.034650815953171 -174.992035265877803 12 13 5
51.061986464753431 -119.814468604497534 -175.703402662782310 11 12 4
51.083613939175635 -118.572438390138828 -175.833114977283515 11 13 2
51.055712422713754 -117.324401074125547 -175.768912527713724 10 12 1
50.978286092806698 -116.072004439585328 -175.510751958161791 8 11 0
51.148320558688717 -114.843050460161265 -176.222373026657067 6 9 0
51.417308150753044 -113.617897238056145 -177.322056970825372 5 8 0
51.710999108576885 -112.388369066711178 -178.518901140240473 3 5 0
51.658196690165148 -111.133276016651564 -178.357873802728477 4 6 0
51.456895876466412 -109.872796821684233 -177.614758121607906 4 6 0
51.255578971281444 -108.616728684727775 -176.871531973153651 5 7 0
51.153222530485031 -107.367224984213735 -176.516295915327760 4 6 0
51.347764509290243 -106.123113097545868 -177.325395495184523 6 8 0
51.443296558890324 -104.874710134583538 -177.746456497784493 5 7 0
51.489311391824437 -103.624737784492751 -177.973485865226962 6 8 0
51.386849390457478 -102.377074254318998 -177.618224000650514 7 9 0
51.259625955522985 -101.132493876032768 -177.165847140109292 5 7 0
50.909727528009093 -99.900662720303799 -175.839785672372102 7 9 0
50.510346562222338 -98.679323151247928 -174.319374383846252 4 5 0
50.457295155840718 -97.443684755551416 -174.157896355790456 2 3 0
50.577380331565976 -96.195741581104727 -174.676023707438844 4 5 0
50.524276689755162 -94.960545650832003 -174.514544982818336 6 7 1
50.347472312806488 -93.738900882278614 -173.867517536241280 4 5 0
50.195387908283188 -92.518435729193911 -173.317503647160379 5 6 0
50.142223013510730 -91.289273739564479 -173.155881862669901 5 8 0
49.965370330398216 -90.077779423305415 -172.508602528936422 4 7 0
49.887432746445924 -88.855956014393072 -172.249758303065619 5 8 0
49.661086439408585 -87.658931090066147 -171.408028828620445 6 9 0
49.484191358929564 -86.458719300955451 -170.760467197600690 6 9 0
49.430931952176763 -85.240522212070047 -170.598581998463658 5 8 0
49.352922544780583 -84.028207135969168 -170.339507270951856 3 6 0
49.250165966702077 -82.822598259037946 -169.983221177450844 4 7 0
49.691389540935319 -81.504752066096472 -171.764768586610217 0 3 0
50.182010628161287 -80.166247619831296 -173.740945472889848 0 3 0
50.326417416481554 -78.897512000176846 -174.356734794389013 0 2 0
50.297718463313615 -77.667836941946703 -174.292222335112967 0 4 0
50.145379793134353 -76.470363360593396 -173.741667615352867 0 3 0
49.918860541268231 -75.296045567886637 -172.899387964626158 0 3 0
49.741778437914462 -74.113112740112825 -172.251419046451133 0 3 0
49.787175258081113 -72.870093130025595 -172.478395867783604 0 2 0
49.832546453274631 -71.626150354878220 -172.705401755610296 1 4 0
49.704858233599751 -70.434946572234381 -172.251743570749511 2 5 0
49.873776584558023 -69.151387560697657 -172.965001945182905 2 5 0
49.943791718548539 -67.897032709669574 -173.289335956006369 1 4 0
50.112646111578130 -66.607287131412534 -174.002767011950141 1 4 0
50.034312341812353 -65.401478812645877 -173.743591002885182 0 3 0
49.931249448657553 -64.206527146993494 -173.387092878826820 0 3 0
49.951742237564687 -62.967437846476081 -173.516962106453605 0 3 0
50.046351679884332 -61.699273422185108 -173.938722048142836 0 3 0
50.536321943259878 -60.271560478763845 -175.917333271648147 0 3 0
50.828549352208988 -58.914109118764436 -177.117777010874761 0 3 0
51.367833583879772 -57.446391192124388 -179.291533832675611 0 3 0
51.832931001262573 -55.998887969754620 -181.173642857321852 0 3 0
52.075602989808900 -54.639685558040519 -182.180067483745802 0 3 0
52.898683743603009 -139.403873782335893 -187.381524213848877 4 7 0
52.675443579592340 -138.061891037688895 -186.542896254746211 9 12 4
52.378713967621756 -136.704243971463399 -185.413402821718250 7 10 1
52.106463867146140 -135.359645962540384 -184.380666141250060 10 11 5
51.760730571828070 -134.002131235373923 -183.056991839022032 13 14 8
51.463967832871177 -132.664238177682307 -181.926995713925919 14 15 9
51.216172011284890 -131.344330404415274 -180.990720717443253 14 15 9
50.968362719787841 -130.029838213408510 -180.054308807556993 15 16 9
50.402199904935685 -128.653259952290881 -177.857309774469400 15 16 10
50.178859423213837 -127.358092959167635 -177.017494940705433 15 16 10
49.857558925319275 -126.049229072711086 -175.789668746613074 15 14 9
49.928021315728508 -124.817392081710281 -176.113330237626087 15 15 6
49.924998351955310 -123.571587064028705 -176.146081664767962 14 16 5
50.117824493785378 -122.356348952507474 -176.954788522298770 13 15 2
50.212678671712652 -121.122507721999568 -177.375613009834922 10 14 0
50.013704475013647 -119.847140230053739 -176.632404050592527 9 12 1
49.937126790602576 -118.591156596451299 -176.374161908384679 8 11 2
49.909490335878743 -117.342268254581782 -176.309927034627719 7 10 1
49.832867074788261 -116.089016341415814 -176.051623786350092 7 10 1
50.074465310923543 -114.865773171277056 -177.054762070231732 6 9 0
50.340502697489825 -113.638972947091261 -178.155093684411895 3 6 0
50.582019253888767 -112.404531528090530 -179.158537544496937 1 5 0
50.529757654294620 -111.148311495639803 -178.997428332658217 1 5 0
50.526427478923381 -109.895385856961525 -179.030426431975116 2 6 0
50.547547753474205 -108.643304530792633 -179.160502025359563 1 5 0
50.519688555998350 -107.389634102270122 -179.096436181685021 3 6 0
50.638655821031186 -106.138145692308086 -179.614884293552223 4 7 0
50.488370884275255 -104.884058274591553 -179.065368442336705 4 7 0
50.435963751647549 -103.632179770375615 -178.904177109474858 6 9 0
50.310115115744651 -102.383120470289398 -178.451633747751714 5 8 0
50.282137006196969 -101.133543226350014 -178.387486727337432 6 9 0
49.960478445376303 -99.897816735505998 -177.157847653774525 6 9 0
49.589873491580157 -98.672030898648174 -175.733762986553984 2 5 0
49.488434665616538 -97.436378654015712 -175.377981442290945 4 7 0
49.656136291529322 -96.181835187866923 -176.090741052458668 7 10 1
49.481246806520481 -94.954312801765639 -175.443472387206043 7 10 1
49.379746016379350 -93.723299533720095 -175.087583907330043 3 6 0
49.229293862212266 -92.500060639298340 -174.537306725380972 3 6 0
49.250087669937429 -91.259079145030967 -174.667163006146382 3 9 0
49.075135753186970 -90.043989472483673 -174.019586488211075 6 9 0
48.875707154205102 -88.836404465414233 -173.274722523839102 6 9 0
48.774121338013664 -87.617956108385783 -172.918527416585221 6 9 0
48.599131096100933 -86.414150703290815 -172.270667721125619 6 8 0
48.473052565953985 -85.205526432946954 -171.817128634512017 6 8 0
48.346959355359402 -83.999764315308923 -171.363518739864332 4 7 0
48.465451522941400 -82.747548137889737 -171.882083081263488 3 6 0
48.755126405588214 -81.456298538383365 -173.081342984004607 0 1 0
49.240424406315540 -80.114802865913418 -175.058688971565005 0 2 0
49.236517581223914 -78.877560168846372 -175.091400873842701 0 2 0
49.354871332413396 -77.610342898665749 -175.610380511581070 0 3 0
49.302004865227374 -76.384636194676716 -175.448608391707012 0 3 0
49.298029861225729 -75.147038240287515 -175.481343442539867 0 3 0
49.098402283327601 -73.964358807762011 -174.735877941024683 0 5 0
48.947673854578518 -72.771979994587809 -174.184861501715659 0 5 0
48.919195994050476 -71.546094781440303 -174.120205942355824 0 5 0
48.792894560164392 -70.351583294484811 -173.666348589827919 0 6 0
49.082237588931910 -69.025057715949828 -174.866586391612316 0 6 0
49.224842526230880 -67.741419121156540 -175.483129707942339 0 5 0
49.269622914271714 -66.488619474389580 -175.710485224082959 0 4 0
49.241037549611761 -65.261181674098978 -175.645891761325743 0 4 0
49.236881725161915 -64.025452643853868 -175.678615702256138 0 2 0
49.232707249534158 -62.789917807807747 -175.711338460620823 1 3 0
49.277404131403060 -61.535433482855964 -175.938754557376001 2 4 0
49.346523222095556 -60.270212673730896 -176.263552628775358 2 4 0
49.635605847534954 -58.912491622026216 -177.464648429780652 0 2 0
50.193511095001128 -57.434131766108202 -179.736974816769077 0 2 0
51.864222323206889 -139.480717780851762 -188.510781078631567 5 8 1
51.473794276941064 -138.086452146224275 -186.992993271334285 11 14 5
51.156031418694305 -136.721368887968310 -185.765891370416512 11 14 5
50.862482927517327 -135.369884138013873 -184.635586441307339 13 14 8
50.496258741159416 -134.006023357602771 -183.214164298576122 15 16 9
50.275357604399431 -132.686400598418402 -182.374479822591638 16 17 9
50.223989058907016 -131.411837671368431 -182.213660506551889 16 17 9
50.075717867336529 -130.116436053501815 -181.664797124707945 14 15 7
49.443039325832409 -128.720364945308859 -179.175600805346676 14 15 7
49.173653094404578 -127.412299216851949 -178.141334418203883 14 15 7
49.098002497235285 -126.147393742593636 -177.883132206297660 15 15 5
49.022331332134883 -124.884093498872858 -177.624892812127825 14 16 5
49.091940956584601 -123.647004321522971 -177.948864697826082 14 16 3
49.161521971753992 -122.408245910229965 -178.272885504518797 14 16 3
49.303720931339576 -121.178481207874512 -178.888122607051912 11 14 5
48.816300664339714 -119.860165997100708 -176.979812762276936 10 13 4
48.813166666250126 -118.612891429133541 -177.012624868532782 8 11 0
48.737367630419733 -117.357417407198866 -176.754209854339592 7 10 0
49.048952684649883 -116.142905898716279 -178.049110929475262 6 9 0
49.045737866310255 -114.892892692740048 -178.082010248683673 3 6 0
49.260400733948394 -113.660079622939165 -178.988805829822354 1 4 0
49.281340921234353 -112.409264612045448 -179.118885705152422 1 5 0
49.278045128228761 -111.156560493611835 -179.151871038071022 1 5 0
49.541026036869958 -109.915858481436970 -180.253188193080291 1 4 0
49.634507013198878 -108.663460720514777 -180.674772975388464 1 4 0
49.631126618479911 -107.406744900349594 -180.707879131327502 2 5 0
49.530893753376048 -106.149001097157793 -180.352419978712135 3 6 0
49.503261209223304 -104.893475765726180 -180.288355481371070 6 8 0
49.233550879216118 -103.641349359891521 -179.252712813374444 6 8 0
49.181675671113837 -102.390319542070003 -179.091390475050332 6 8 0
49.105575476733193 -101.141274424229493 -178.832871427342354 6 8 0
48.908439893666461 -99.899443758463363 -178.088420335039302 1 3 0
48.832305046324137 -98.655191418164037 -177.829784782451554 6 9 0
48.780352866322673 -97.411010437918534 -177.668301591266300 8 11 1
48.752581173925009 -96.166084833327176 -177.603992254171544 9 12 2
48.313386215065918 -94.959116083895651 -175.887147733637335 7 10 1
48.430780321935465 -93.705301903331787 -176.405978541076593 3 6 0
48.427150975177270 -92.462561974033093 -176.438775305204103 4 7 0
48.496091827287373 -91.210875880097532 -176.763260857597004 3 9 0
48.153658146561014 -90.013578178863824 -175.434777433842726 6 9 0
47.811224698023018 -88.824049513059407 -174.106093586566999 7 10 0
47.734939590246960 -87.600091979010301 -173.846965422070866 6 9 0
47.707026210008507 -86.369675303149734 -173.782310941593039 5 7 0
47.703286221805222 -85.135546699371815 -173.814908302278127 3 6 0
47.554367998167216 -83.929487340759934 -173.263873369286102 6 9 0
47.719933387235685 -82.662750991691766 -173.977385670981448 3 6 0
47.885465753954264 -81.392325897406820 -174.690999885384201 0 1 0
48.244487087521421 -80.074403921708111 -176.183067068221419 0 1 0
48.313189424196722 -78.817429643363425 -176.507737939303411 0 2 0
48.406054455630830 -77.552944179370868 -176.929760834890942 0 3 0
48.329578480586171 -76.330502592899862 -176.670632725281564 0 3 0
48.325647852376278 -75.090151155587236 -176.703429689817995 0 4 0
48.200767601627163 -73.884175742935582 -176.249576475552431 0 5 0
48.293541859973146 -72.617057865619401 -176.671685886065404 0 5 0
48.144447893750488 -71.421812899910961 -176.120408083527138 0 5 0
48.140445092073037 -70.184048753069334 -176.153153123013624 0 6 0
48.088058592574917 -68.962331817609666 -175.991179642307941 0 6 0
48.277472200209282 -67.659813030509724 -176.802837639634333 0 6 0
48.418491937371513 -66.370073877750983 -177.419863479593744 0 5 0
48.607842278972164 -65.059742824436270 -178.231735945897469 0 4 0
48.627908679947893 -63.808421198251523 -178.362008132034646 2 4 0
48.720489504804128 -62.528853330831936 -178.784478327802219 2 4 0
48.692160860501119 -61.295159768115163 -178.719993548798755 2 4 0
50.705078319749639 -139.520639707994775 -189.155992418771973 4 7 1
50.270998460541456 -138.110994773866764 -187.443325954975307 15 18 10
49.836918148859318 -136.711115313709030 -185.730407716751643 14 17 8
49.426792065090218 -135.327573028032816 -184.114269179455619 14 15 9
49.304111328980618 -134.028765090848054 -183.662359066957777 16 17 8
49.205367421707102 -132.738643175244476 -183.307429560063497 15 17 6
49.106605796088353 -131.450646910670486 -182.952448863875418 15 17 6
49.055730393618362 -130.175723493574878 -182.791537684428079 13 15 4
48.597662033514155 -128.813488865694382 -180.980454400471729 13 15 4
48.474905000558486 -127.530536569952147 -180.528150996709712 13 15 4
48.495831722534611 -126.278177379824115 -180.658273461110127 15 15 5
48.325139310894663 -124.990225227797723 -180.011702408742678 14 16 3
48.202330623128766 -123.714277907660588 -179.559228931641428 14 16 3
48.223193746550173 -122.464012207114450 -179.689310447892183 13 15 4
48.148243167934830 -121.198958513928517 -179.430968460298857 10 13 4
47.618287280024660 -119.873193041104514 -177.327346486076578 9 12 3
47.686987744613987 -118.634642051644093 -177.651542575003475 6 9 0
47.851442212384292 -117.405376435250403 -178.364316335504554 5 8 0
48.303198829293812 -116.201793324671627 -180.242870937659063 4 7 0
48.276028408367949 -114.944094525984184 -180.178767699756008 0 3 0
48.272779537118105 -113.688865662302035 -180.211808524599462 0 3 0
48.197680333753063 -112.428737413648406 -179.953369990064573 1 4 0
48.338038020742403 -111.182553818640329 -180.569408272129181 0 3 0
48.741715152189556 -109.945110386979749 -182.254469144762481 0 2 0
49.073523797017408 -108.695939864790844 -183.648230479629717 0 3 0
48.998316783376673 -107.429904980312870 -183.389966402401114 2 5 0
48.851274865348159 -106.164746072677474 -182.840070845173784 3 6 0
48.632404848111889 -104.902931819131780 -181.998478740817347 5 7 0
48.365650943186139 -103.646652825838345 -180.962336707674410 7 9 0
48.242510344732196 -102.393143951927584 -180.509352593622623 7 9 0
48.382648651565660 -101.133357605788902 -181.125786715074696 0 1 0
48.044054737724451 -99.892332858298886 -179.797643410420960 7 8 0
47.968737004349059 -98.643945838005905 -179.538946878975821 7 10 0
47.917335311605854 -97.395632602696310 -179.377457340930789 9 12 1
47.650520311619253 -96.165774976600247 -178.340646391078451 9 12 1
47.287972957483468 -94.950798081192971 -176.914630046074478 8 11 0
47.284394797271446 -93.707116987440045 -176.947440584178025 4 7 0
47.591889836677204 -92.427906646516547 -178.244849352303447 5 8 0
47.588258600688668 -91.180869222847221 -178.277757343255132 4 10 0
47.225674786305106 -89.983252399558154 -176.851300733414519 7 10 0
46.791310246075717 -88.804635298899143 -175.132734089156656 7 10 0
46.668006925246679 -87.586130646947197 -174.678880540143325 5 8 0
46.807880804023320 -86.325293614091223 -175.295396004011423 5 7 0
46.852022462168698 -85.078825990678126 -175.522719233134183 3 6 0
46.680818466187780 -83.873286852318444 -174.874127560877184 2 5 0
46.748844610298150 -82.622428064959706 -175.198779414573210 1 3 0
46.912538061942094 -81.349262111826278 -175.912841546454217 0 1 0
47.147966754095677 -80.055988812301237 -176.919051610793076 0 1 0
47.383359198149570 -78.757397539955676 -177.925406269948837 0 2 0
47.451271983517920 -77.495641374285100 -178.250362438394973 0 3 0
47.423482000411440 -76.257579375186708 -178.185879829969394 0 4 0
47.443512464062408 -75.007088896312126 -178.316137951496216 1 6 0
47.439604659108916 -73.763056840886875 -178.349025163225747 0 5 0
47.483512629702396 -72.504965460155148 -178.576696125261321 0 5 0
47.407817953898814 -71.282887173231842 -178.317398373547121 1 5 0
47.356025953091205 -70.054962760870879 -178.155463040986376 2 5 0
47.136818564731016 -68.883837855076578 -177.311601119528234 2 5 0
47.228486292793022 -67.611135560877415 -177.734081549496921 2 5 0
47.415780766154910 -66.302522002028127 -178.546331449936986 2 5 0
47.889986181939548 -64.884716597555268 -180.527921068293040 1 4 0
47.742455232678203 -63.690818421149260 -179.976287899999647 1 3 0
47.881839191763525 -62.388827872059991 -180.593965278899759 0 2 0
48.924935513079006 -138.092827679284682 -187.311459813193210 17 20 13
48.448284268717259 -136.680298189808241 -185.403370799553898 15 18 10
48.161127814705644 -135.331177965420437 -184.271693653301384 15 16 10
47.968708318008261 -134.013728146302526 -183.528225464692014 15 16 10
47.942073390722264 -132.742731743978879 -183.464355344697310 14 15 7
48.010156305467923 -131.495206079911384 -183.788909586135333 13 14 6
47.865060185491110 -130.196721370554513 -183.239474403017596 14 15 7
47.577851893732749 -128.870271429562621 -182.107223187524994 14 15 7
47.598510104651133 -127.614376315873827 -182.237491930155443 14 15 7
47.548100292430185 -126.343935064091184 -182.076369639492953 14 14 4
47.379266118017007 -125.052660368287249 -181.429503090876437 14 15 3
47.115698097889052 -123.748768341271926 -180.393935536961862 13 15 2
46.946842738304774 -122.466194657970505 -179.746848921095363 12 14 2
46.801654676471664 -121.190988956686851 -179.196832195518368 9 12 3
46.561739802386739 -119.905919846581369 -178.258041993753977 7 10 1
46.748016712022526 -118.680482932816375 -179.068355373239854 4 7 0
47.076323541246680 -117.467073152371213 -180.461912727058859 6 9 0
47.499294918758046 -116.255844300457852 -182.244454473095573 0 2 0
47.425031135982337 -114.988816771182854 -181.986022507856319 0 2 0
47.540149684029544 -113.738755919637185 -182.505223308277664 0 2 0
47.347474840464642 -112.464647285007274 -181.760689661613810 0 3 0
47.391525179092149 -111.208606706506046 -181.988278525464466 0 3 0
47.743297555879295 -109.965705341871512 -183.479897823015676 0 3 0
48.071354844136224 -108.713803883361436 -184.874499128635591 0 2 0
48.233671113878373 -107.450456716036854 -185.588590526847099 2 5 0
47.993555750749863 -106.178701144388342 -184.649498074933319 2 5 0
47.706094250367897 -104.912472060947863 -183.515745608900318 4 6 0
47.276614858091826 -103.654519717923733 -181.798223031742680 4 6 0
47.344176985595340 -102.394940208784917 -182.123194993017705 3 5 0
47.246040541213752 -101.139543731695397 -181.767245249275959 5 7 0
46.958554650162377 -99.895179530628624 -180.632933856224327 9 11 0
46.860395115887329 -98.646492734657059 -180.276815795590153 9 12 1
46.927878475796703 -97.388564591460906 -180.601761323498692 9 12 1
46.593039596873034 -96.161679517025689 -179.272483043904799 8 11 0
46.187210905424308 -94.949117685631734 -177.651053099593867 8 11 0
46.207322507275627 -93.701582156319191 -177.781218363923358 6 9 0
46.345723720291566 -92.439904715462134 -178.398057598942614 7 10 0
46.413111506847947 -91.184083344490020 -178.722968395279622 6 12 0
46.078244360601211 -89.982582329410690 -177.393041218683436 8 11 0
45.814359560609795 -88.778174206006227 -176.354972797964479 5 8 0
45.716086313224963 -87.553071488497324 -175.998269792667998 5 8 0
45.925357290174887 -86.276900217276705 -176.907289718324648 3 5 0
45.945335572877369 -85.030967614022856 -177.037440989077425 1 4 0
45.988950094778964 -83.779965686343346 -177.264989299416698 0 3 0
46.127165887531717 -82.508300727045565 -177.882124164799166 0 1 0
46.099768776987219 -81.269890688793680 -177.817569940844976 0 1 0
46.237933984433880 -79.993862099440449 -178.434827728079483 0 1 0
46.305111334762024 -78.731940034697345 -178.759939038990581 0 2 0
46.324960928426627 -77.480569137250001 -178.890256970737880 0 4 0
46.392094455369133 -76.216223595689385 -179.215439776727010 0 5 0
46.364602386505105 -74.976661616905005 -179.150934742467598 0 4 0
46.526294266191641 -73.683101532929697 -179.865933464704369 0 4 0
46.498764589311328 -72.442780305045929 -179.801455727428106 0 5 0
46.447571606050055 -71.210562397538240 -179.639508251374536 2 6 0
46.538249756727140 -69.933666237405461 -180.062299845094515 3 6 0
46.108681420745988 -68.829241668306196 -178.340835785757065 1 4 0
46.152041133604911 -67.570753201547262 -178.568629456273811 0 3 0
47.578017912305043 -136.799990927005354 -187.212644767000938 16 19 11
47.223790241865807 -135.426735453564049 -185.789004020013863 16 17 11
47.056902249354721 -134.111986508090951 -185.142343679428677 16 17 10
47.053921765129580 -132.843158648963112 -185.175680188545073 15 16 8
47.168002808245724 -131.603011552233966 -185.694838126168577 14 15 7
46.673253380563267 -130.217710815246079 -183.687644495174595 14 15 7
46.576565114702234 -128.932279267137943 -183.332172331630716 14 15 7
46.456448286873467 -127.644061421273534 -182.879463135679543 14 15 7
46.570454212754541 -126.405078670272431 -183.398606452152023 14 14 6
46.380066031056280 -125.106376517393102 -182.654238036804713 13 15 5
46.119432210276358 -123.799702431775472 -181.618140328886909 13 15 2
45.952439814590292 -122.514355266229231 -180.970743085986385 11 13 0
45.668382913360993 -121.215024156112719 -179.837145970995778 8 11 0
45.454553384368722 -119.932103000870967 -178.995064265617373 7 10 0
45.708906672611569 -118.714327827897051 -180.097559929842987 6 9 2
45.986633934187722 -117.493261429997091 -181.297460573593071 3 6 0
46.545222127197846 -116.295190525340743 -183.664532682260017 0 2 0
46.776053274215947 -115.053321639369088 -184.670360062917098 0 2 0
46.936630457335710 -113.800238563794395 -185.384543481724791 0 2 0
47.026959972446136 -112.538410742539369 -185.807017956252707 0 3 0
46.930021837194829 -111.263463662688977 -185.451326638470505 0 3 0
47.043710703550353 -110.000588431005099 -185.971151220452043 0 3 0
47.227584148684507 -108.737471314502528 -186.782929468161683 0 2 0
47.294410799473361 -107.467273945419393 -187.108326153294513 2 5 0
47.337811068544333 -106.195203074527853 -187.336461816301551 2 5 0
46.913156182121220 -104.922084524648795 -185.618340723673384 4 4 0
46.722517363186945 -103.656136478582937 -184.873178941883282 2 2 0
46.555271247824642 -102.394078815206171 -184.225233072199899 6 6 0
46.388016371603378 -101.135916446980488 -183.577188533764399 8 8 0
46.010165110405815 -99.891507033946539 -182.052955751892455 9 9 0
45.959889487280577 -98.636770759193453 -181.891400877753483 8 12 0
45.932995187328522 -97.381565617490111 -181.827176682286108 8 12 0
45.906083682222615 -96.126991375539248 -181.762939744285347 8 12 0
45.481430057359212 -94.910270926149593 -180.043363795347716 8 12 0
45.126970228575225 -93.696104576436582 -178.615667508417687 6 10 0
45.076637927189715 -92.454669623936127 -178.453781198541776 7 11 0
45.143256916790030 -91.199381647314880 -178.778835945149353 6 12 0
45.139675793355764 -89.952410547394891 -178.811731945653094 8 11 0
45.065901764168267 -88.716222750887567 -178.552404108482449 5 8 0
45.366369011330733 -87.420505381027411 -179.851680267394897 4 7 0
45.409506964295240 -86.162943085344878 -180.079495541247866 2 4 0
45.359067100139079 -84.921922964509406 -179.917620597114990 2 5 0
45.168282241176044 -83.710031766358910 -179.171094560426923 0 3 0
45.141206943507399 -82.468181426528602 -179.106563052201977 0 1 0
45.464919337692699 -81.149056733249026 -180.503789443920482 0 1 0
45.414415350540537 -79.909954737688622 -180.341878182146331 0 1 0
45.317127574247657 -78.683582460761102 -179.985005765951769 0 2 0
45.336752008349329 -77.429463122344799 -180.115440772568718 0 5 0
45.917564520614384 -76.023985747712430 -182.585418155086870 0 5 0
45.960516257918627 -74.755972399465861 -182.813541177755951 0 3 0
45.909921104397228 -73.514379042215779 -182.651712873635176 0 5 0
45.415073098189957 -72.409132666183709 -180.637316413173778 0 5 0
45.270948517058528 -71.204786410475492 -180.085253951385482 2 6 0
45.454130428317129 -69.896712006308221 -180.898333577675714 3 5 0
46.120346299517315 -136.748579736324416 -186.593956318119353 14 17 11
46.233120732784108 -135.509181062601812 -187.113362984469404 14 16 11
46.299572460129930 -134.254373576890515 -187.438439649832105 14 15 10
46.180813471719866 -132.949655064164119 -186.985877491811323 16 17 11
46.038895141051363 -131.641857823650213 -186.436030617166580 15 16 10
45.665493541179053 -130.282511338753039 -184.913849464375858 13 14 8
45.616148359133000 -129.004722404378299 -184.752698289046464 12 13 7
45.474203901169240 -127.708259952283868 -184.202564431648057 13 14 8
45.540557474067846 -126.456945311869944 -184.527571145863760 13 14 5
45.329153109210758 -125.151360587963282 -183.685576483605416 12 14 4
45.164030848187103 -123.858888463478053 -183.037979374261568 12 15 4
44.860040235699991 -122.547212386087622 -181.806674843165524 11 13 2
44.602334628122094 -121.249754990388510 -180.769738742234210 9 12 1
44.344626169484421 -119.958304340554918 -179.732648302540326 7 10 1
44.503457467353208 -118.727110332662861 -180.446625309797696 7 10 3
44.939947834329089 -117.524955150222155 -182.328274729611394 2 4 0
45.561512635202206 -116.332123795962261 -184.988637738015768 0 2 0
45.951630025109743 -115.102590768243857 -186.676276169803543 0 2 0
46.295428474126588 -113.859922629257412 -188.169525185872942 0 1 0
46.407810153707310 -112.592610292764476 -188.689732358012918 0 2 0
46.473892531882420 -111.319839722967160 -189.015348086681115 0 2 0
46.146635274806528 -110.026802192994339 -187.686220727073930 1 2 0
46.166413944311422 -108.753812559185093 -187.817110789771846 0 2 0
46.047364029493565 -107.477015217789926 -187.363888179200217 1 4 0
46.159644805278667 -106.205756762889422 -187.884217826993336 2 3 0
46.202500212569880 -104.931802691047039 -188.112513831140348 2 2 0
46.060273579156956 -103.658979966290147 -187.561828151372424 3 3 0
45.779246569590050 -102.392772395762364 -186.426755189511766 6 6 0
45.590744496306193 -101.129921538628452 -185.681075204364731 7 8 0
45.263454310161649 -99.878074736839949 -184.350892224688096 9 9 0
44.982427136816881 -98.631232003284225 -183.215319846202078 7 9 0
45.025205743343953 -97.368075944898450 -183.443353106798497 7 11 0
45.137348686617855 -96.098168419942141 -183.963676186249018 8 12 0
44.717536816251851 -94.875920213169479 -182.243249592455982 8 12 0
44.297735623040239 -93.663615376558980 -180.522564352928498 6 10 0
44.016700584906403 -92.444851354657601 -179.386269392753718 7 11 0
44.290669653678378 -91.160565078545915 -180.588571516492664 5 11 0
44.217739015031171 -89.919043961180975 -180.329208225084358 6 9 0
44.653514375033708 -88.601067523743367 -182.213991534078389 4 7 0
44.649911614166520 -87.345556848460888 -182.247112222535577 2 5 0
44.900634264769565 -86.045048175119177 -183.352486488318391 2 4 0
45.012596560945283 -84.764903384399432 -183.873110660371992 2 5 0
44.430924006358133 -83.621617437726044 -181.469046399164370 1 4 0
44.565982345334980 -82.339552941573714 -182.087097190406951 0 3 0
44.747253137080122 -81.043958307189456 -182.900246981413829 0 3 0
44.674198138731107 -79.804291398515545 -182.640861377547992 0 3 0
44.416195586738660 -78.612349225377102 -181.601264783467514 0 3 0
44.504941042691513 -77.336344471218638 -182.024429850240267 0 6 0
45.079091277666450 -75.926256150629811 -184.495892824468001 0 5 0
45.560727163584318 -74.528917678006522 -186.577545236103560 0 2 0
45.140872446817255 -73.386825947302796 -184.855060067465729 1 5 0
44.605467737777346 -72.290275511370069 -182.644529095209066 1 5 0
45.190733279703828 -135.578501370869475 -188.244439806108574 14 16 11
45.530923389097133 -134.396829454049737 -189.736855829424769 15 17 12
45.093144448747552 -133.001956605757584 -187.922452262063359 16 17 11
44.861291818535271 -131.669199914645390 -186.983238149013005 15 16 10
44.652315224797178 -130.347337828869399 -186.141165284568558 13 14 8
44.786510545388367 -129.108437158994008 -186.758279846967127 11 12 6
44.531759898616130 -127.782356421268318 -185.721475821294916 12 13 7
44.437147235071564 -126.494863500048154 -185.365631044641702 11 14 4
44.319647257580826 -125.205137997036147 -184.912423925301709 11 14 3
44.019131912905564 -123.885230717500392 -183.680618790136805 12 15 4
43.924493385031305 -122.606947947665148 -183.324541774584929 11 14 3
43.669723500534630 -121.305890509132368 -182.287096304204908 9 12 1
43.369205113726949 -120.004260812966450 -181.054820384881793 7 10 1
43.571894153061940 -118.776084178568183 -181.963952639346360 5 7 2
43.866043671929177 -117.553941266052732 -183.262627183796553 1 3 0
44.411746363029437 -116.351828898474608 -185.632446799120146 0 1 0
44.888786458636787 -115.129996597529555 -187.710515383597340 0 1 0
45.365780629554486 -113.896675657673853 -189.788889699282322 0 1 0
45.636903367797366 -112.637050682705961 -190.991139651254230 0 2 0
45.450617271538441 -111.343416377743509 -190.245799045594765 0 2 0
45.561610869956361 -110.068479261915442 -190.766487617426435 1 2 0
45.398172939774994 -108.780931179004213 -190.118417993495370 5 6 0
45.528596241047069 -106.223010272223462 -190.770325978742505 7 7 0
45.525181539657780 -104.941643448563156 -190.804074961129459 3 1 0
45.293106467547311 -103.663025527287161 -189.863510153000959 5 3 0
45.106757398034233 -102.388854610479186 -189.117680473361418 6 6 0
45.149033624949510 -101.110958032274624 -189.346196971393908 8 8 0
44.756909157549906 -99.852757711241097 -187.723132897346773 8 10 0
44.570547356478478 -98.591658421124976 -186.976968691169134 9 11 0
44.452763998546111 -97.330103441883594 -186.523093140135018 8 10 0
44.449272378122977 -96.061811654099955 -186.556520675170248 9 11 0
44.125736580407555 -94.824201955141532 -185.225200340300717 9 11 0
43.733631411655139 -93.601723883662757 -183.601210973277603 8 10 0
43.432967688221197 -92.377717306092109 -182.366962842823852 7 9 0
43.703731504110614 -91.085779721852120 -183.570119816475767 4 10 0
44.203023331313176 -89.754591865806475 -185.748559161120056 3 9 0
43.970894744782008 -88.525176931050026 -184.806736306703328 4 7 0
43.990167395158053 -87.259260136657062 -184.937547751890065 0 3 0
44.146546751985717 -85.968320808720264 -185.653568666404396 5 6 0
44.211488606017255 -84.691174747687739 -185.979531207735135 4 7 0
44.207854696111028 -83.426461214899845 -186.012895642422393 1 5 0
43.724326121183921 -82.265205626579728 -183.997621734900122 0 2 0
43.697829927071211 -81.011705005354742 -183.933271911567488 1 3 0
43.694171351333488 -79.753430121939573 -183.966475342986655 2 4 0
43.484857497802523 -78.546964590118492 -183.121495400104607 3 5 0
43.435482403147859 -77.303479537968769 -182.959465608732728 0 6 0
43.980131232393177 -75.897800312794629 -185.334751724227260 5 9 0
44.616114835825826 -74.452933348647107 -188.100772250353316 6 8 0
44.185639417540095 -134.381780494647074 -189.604749470504203 14 16 10
43.707713386859133 -132.975887465505423 -187.594635875778238 16 17 11
43.410692469907119 -131.627469535811741 -186.362849245679456 15 16 10
43.520669131791784 -130.384781148149330 -186.882914680603790 12 13 7
43.608014490064605 -129.134093233436886 -187.305713994866721 11 12 6
43.401416622606860 -127.817020624033276 -186.463029641495893 12 13 7
43.240033914556037 -126.514153170288722 -185.814933530188000 9 12 2
42.988213536459199 -125.197533219704709 -184.777284394193089 9 12 1
43.052897960920639 -123.944485444712697 -185.102678209936983 9 12 1
42.755855289723847 -122.628340234434006 -183.870063677176176 9 12 1
42.684876784993605 -121.354945713271348 -183.611122000494731 9 12 1
42.455650037381425 -120.060135878971039 -182.670390515988686 7 10 1
42.497679139545596 -118.807004833979562 -182.898318965177225 8 11 4
42.584898998676721 -117.558260913864331 -183.321093884999414 6 9 2
42.965941940188763 -116.339439604386456 -185.010317533755028 2 5 0
43.414754406679755 -115.117903718251796 -186.992054035629451 1 4 0
43.976533748077742 -113.895040001573051 -189.461225893390520 0 3 0
43.995834157276725 -112.618929332685440 -189.592294560646167 0 2 0
43.856915033337145 -111.332666647182620 -189.041277032203652 1 3 0
44.757579937443985 -110.100377537409585 -192.972898402746864 5 6 0
44.834401264533540 -104.951607015679755 -193.498394372991697 17 15 3
44.514624077984671 -103.667178738996867 -192.167510540680212 15 12 1
44.217448398494291 -102.389932934287160 -190.933920014515650 13 11 1
44.417360967827932 -101.101941705562695 -191.845164535266065 13 11 0
44.120178820525645 -99.833041398392709 -190.611360092103439 10 10 0
43.958561117615851 -98.563158570737329 -189.962461460087638 8 10 0
43.864717222190329 -97.292279542468293 -189.606030483021755 7 9 0
43.725681896316260 -96.027493816440568 -189.054482866442925 8 10 0
43.451095837619143 -94.779180418934658 -187.917627118983546 9 11 0
43.244284803548418 -93.530158482453771 -187.073231357540237 8 10 0
42.992294829152293 -92.291621477134569 -186.033603127261529 7 9 0
43.305025911426576 -90.984111620261814 -187.432782608032596 5 8 0
43.346666901244809 -89.708380709161062 -187.661373559565106 5 8 0
43.478640307773070 -88.417466943135835 -188.280285416112577 3 6 0
43.362140725685109 -87.165458711744762 -187.825900291433413 2 4 0
43.313392730900325 -85.904016015056584 -187.664205016234916 6 8 0
43.422729033344197 -84.613197434052566 -188.185643166387877 4 7 0
43.261035581047217 -83.375513845918448 -187.535929603182240 1 4 0
42.579923957715081 -82.254909247175149 -184.641104214511756 0 3 0
42.644070514622143 -80.979533823844278 -184.967184231740646 0 2 0
42.866272356441350 -79.664412272728072 -185.976671090991260 3 5 0
42.727150782945159 -78.435782052786593 -185.424208658316957 5 7 0
42.638272292984084 -133.034210609299180 -188.629431067943301 13 14 8
42.501115703965418 -131.723864996762302 -188.078673118770041 13 14 8
42.498009700151492 -130.449648138607756 -188.112174367313571 12 13 7
42.584258457648403 -129.196217759158287 -188.535269365633269 11 12 6
42.380053188503254 -127.876374509798367 -187.692165665225730 10 11 5
42.108825590783994 -126.547427193590167 -186.556700657149861 10 13 3
42.038660177571117 -125.264512302412172 -186.297837732345897 9 12 1
41.834450914086702 -123.958516400300084 -185.454377706010519 9 12 1
41.875964588850437 -122.699676025513384 -185.682559140312890 10 13 2
41.604733322306103 -121.389772540969176 -184.546603713862226 9 12 1
41.579214100692013 -120.122654900863040 -184.482404683787308 8 11 2
41.598356312809798 -118.862113562759077 -184.613104244816441 7 10 3
41.394126980065010 -117.573556947975860 -183.769198548187376 7 10 3
41.547258006095049 -116.329486389834798 -184.484676989111051 6 9 2
41.812038149521925 -115.092580589599223 -185.687642066971875 5 8 1
42.233124088047155 -113.862587690509059 -187.573169457675874 3 6 0
42.319176506478826 -112.597441393179508 -187.996606904385430 0 3 0
42.539203765766317 -111.338389412638520 -189.005093722993479 0 2 0
42.580551949955499 -110.065060944101347 -189.233682776436979 0 1 0
42.979177191446048 -108.803944341133899 -191.022505458684179 0 1 0
43.869025555426795 -107.545239861935443 -194.957026977815531 4 4 0
43.461987910094102 -97.239900879230987 -193.570362347362789 8 10 0
43.257591903387144 -95.970412843665684 -192.725999032181846 9 11 0
42.829969451379142 -94.727751367578350 -190.905586235341104 9 11 0
42.424685232493928 -93.493128083062459 -189.182498681033962 7 9 0
42.398877452494055 -92.222074741988621 -189.118460352503803 6 8 0
42.462341361427129 -90.939666733159811 -189.444861786571153 8 10 0
42.882905115538378 -89.603322959715598 -191.333239255434023 7 9 0
42.946324421627757 -88.313481944179742 -191.659841548288910 6 8 0
42.674953910853809 -87.079454824111380 -190.521957712534345 6 8 0
42.604447490265741 -85.815254296096100 -190.262682066909804 5 7 0
42.600884429159258 -84.539716581321400 -190.296311141033868 3 6 0
42.597310113161427 -83.264313203698720 -190.329939059162257 0 3 0
43.040028323748011 -81.890730034782479 -192.316847251261095 0 2 0
41.362703059072871 -131.762707379083878 -188.821774489135009 16 17 11
41.580317929596433 -130.541970976667699 -189.829767953501630 15 16 10
