ply
format ascii 1.0
element vertex 702
property double x
property double y
property double z
property uchar red
property uchar green
property uchar blue
end_header
32.426537097330566 -57.663440376944614 30.066938265326115 2 5 0
32.835871266428683 -57.168698680944019 30.301848833780483 2 5 0
31.911986267570313 -56.357092299490127 29.804161912380295 2 5 0
27.342569591989133 -54.655409109710604 27.303668053269618 1 4 0
29.618665156660910 -54.608710502769583 28.564291383039958 2 5 0
30.205736418144198 -54.155854288480207 28.896883464585784 3 4 0
31.059896962063021 -53.774018072236899 29.376115605134643 2 3 0
32.448200764721150 -53.533598506529117 30.148616271456845 2 3 0
31.167414478799145 -52.614049003830360 29.455218707008001 2 3 0
30.687211058029618 -51.895798783666066 29.201555744363176 2 3 0
31.631141871940628 -51.550386615444296 29.729872851000508 2 3 0
33.910928599340053 -51.567005616329034 30.991489418143829 3 4 0
33.609099320145759 -50.901540406897652 30.835676045211500 3 4 0
31.169610661744400 -49.651925025417832 29.506514133620684 1 2 0
27.482139358419005 -48.044204482759625 27.492632329843246 1 2 0
27.000862617806206 -47.307731435596310 27.238702845023013 0 1 0
24.222025113507812 -5.861123735789890 26.415716337924295 122 118 106
23.283543022851745 -4.804151741492129 25.914695756673851 24 21 12
28.026681162636095 -6.479992325291347 28.511927051195116 27 24 19
29.704486392438525 -6.697067018996965 29.437337149254191 19 18 13
31.021983684172824 -6.748027028564499 30.166151294472115 15 16 8
31.978979314455216 -6.629577782220489 30.698320728421379 9 11 1
31.853242212800154 -5.981861004011357 30.640228118956529 6 10 0
32.088522526679213 -5.512489614321103 30.778929511682904 4 8 0
31.962717779803626 -4.863793073313058 30.720840033640300 4 8 0
37.114668965686718 -163.985399774229506 31.552760859104339 217 88 127
39.148613439722197 -162.741930530150114 32.692471210250645 208 53 100
40.234653541450569 -161.800896912931279 33.305770083832911 177 28 70
40.717296042969878 -161.049153507451535 33.584031879503982 137 5 37
39.906021525533873 -160.687299813998550 33.144119149437927 94 0 12
39.180742989916979 -160.294928743430091 32.752016166871684 88 0 14
38.800423102158732 -159.797119661481872 32.551403979827626 80 3 16
38.333647688132686 -159.321984394893377 32.302863041286841 59 2 8
38.212053064309941 -158.745199434861860 32.245870042287720 37 0 0
37.917713745587889 -158.216601424552266 32.093062609320839 35 1 0
38.141482869807817 -157.541282750719859 32.227664129401674 46 11 7
38.278955337775415 -156.891345606559071 32.314377578562826 42 8 3
38.675684854513776 -156.171504852309710 32.544847419086921 39 8 3
38.726901014325563 -155.547630575465348 32.583682380247325 38 6 1
39.123870059142718 -154.831862840178189 32.814212444761822 32 5 1
39.866782836789582 -154.027457079018916 33.236486800645636 31 7 2
40.004727273107306 -153.385536998919065 33.323317917573988 31 9 3
40.056248405874442 -152.766834325448968 33.362227872637220 27 7 0
39.675315710421614 -152.258498057431211 33.161448994800011 24 6 0
39.726806934212107 -151.639265937079387 33.200348965458105 19 4 0
38.220827234971210 -151.406505029712605 32.376207327817312 14 3 0
36.195038742201490 -151.291438729720255 31.264215909674462 12 4 0
35.553461292042300 -150.829280024377368 30.919316494030156 10 7 0
36.123708469700233 -150.074332946735467 31.245787653493537 9 7 0
35.481894625997427 -149.608115526937809 30.900824195772927 8 4 0
35.186279845416948 -149.057610797896615 30.747670288571072 11 1 0
34.630693672480362 -148.564801426846913 30.450573142999772 23 7 0
34.508105020869806 -147.970878747522846 30.393302468879696 44 23 12
34.818753011620913 -147.279922750576986 30.575920028909522 62 33 22
34.869509568014621 -146.648024986366806 30.614614837054944 70 37 23
34.920291902898299 -146.016551225973473 30.653314432491214 74 39 23
34.884397335822655 -145.403960051225795 30.644026441381783 78 47 28
35.108653137714697 -144.736697278003902 30.778724370681985 80 53 29
35.593202986602165 -144.017214644634549 31.057445359319757 87 61 40
37.032195837423018 -143.106842713948566 31.864264481638827 97 87 90
39.079091971115986 -142.084043121943182 33.007282634029067 68 95 145
40.779618511950360 -141.142591153552786 33.958443642503369 63 110 177
41.612793047354245 -140.380161197520977 34.429595134905782 91 145 211
42.359467377806396 -139.639627801779909 34.852804572536400 87 147 214
42.845932885899543 -138.952732652144277 35.132008740187018 82 143 208
43.593124604554106 -138.220992735504240 35.555347747322841 71 130 194
44.080012058845824 -137.541261437957161 35.834656696567080 60 117 184
44.653965159044844 -136.849247122605931 36.162049701231837 51 108 175
44.706771611859011 -136.252082822520947 36.201245300033293 47 106 172
45.107247194904375 -135.595714808597279 36.432630230452531 52 111 177
45.594804899620044 -134.927344497325265 36.712103425000890 47 104 171
45.995608283742030 -134.276531171581695 36.943568487420364 38 93 160
46.135693067935733 -133.670651328637149 37.030895816663673 33 88 153
46.188864048340037 -133.079604884438567 37.070173535785273 43 94 159
46.242063645708214 -132.489025043666174 37.109456086512807 50 101 166
46.382298215583916 -131.885636790335724 37.196814530063918 49 98 164
46.348549288588003 -131.309274356626986 37.188035718181382 42 89 153
46.837026546865189 -130.656452107476468 37.467729678465815 39 83 148
46.977476235109378 -130.056669222102698 37.555135998059072 35 75 137
47.205057448058881 -129.445726099246258 37.690643238534733 30 70 130
47.258559853410475 -128.860180224173860 37.729988329632008 25 64 121
47.224989800996241 -128.286756445352353 37.721242326593412 22 60 115
47.104299462861832 -127.724637574640255 37.664392742900645 21 58 110
47.070709283088121 -127.150821922333193 37.655635818121581 22 57 110
46.949967132081497 -126.587769467081472 37.598767001219088 24 57 111
46.916357437070332 -126.013571552628079 37.589999214416352 23 56 110
46.795564085673618 -125.449595122924123 37.533111223240255 22 55 108
46.761935494684082 -124.875024758057492 37.524332645260145 20 53 106
46.728305689324031 -124.300408588107459 37.515550790610703 19 52 105
46.694674827069377 -123.725749153259017 37.506765682633613 22 53 107
46.748289191981939 -123.141870228543780 37.546110947090540 23 50 105
46.627410563988349 -122.576310738013333 37.489185806625827 24 50 100
46.593777480102204 -122.001536922735056 37.480391091795255 22 45 94
46.472849845453965 -121.435088630472549 37.423447076991152 24 42 92
46.264579816539111 -120.876148064335368 37.318341231113862 23 40 88
46.143571808313794 -120.308274352227386 37.261370072276421 26 40 86
45.935189722328630 -119.747366568333533 37.156228757088371 25 39 82
45.901460108789934 -119.170813311477772 37.147393469516430 24 37 76
45.780356736854486 -118.601231237960320 37.090388085168129 19 28 66
45.659221896584398 -118.031084986376868 37.033371353963986 21 31 65
45.625461879757864 -117.453933286185688 37.024518800753313 27 28 62
45.504280581999240 -116.882940194892043 36.967483672559169 28 27 61
45.557944556079434 -116.299597229647503 37.006805075298686 31 31 62
45.349279306816953 -115.733664856984362 36.901567809444458 41 40 70
45.402961770968119 -115.150585310344724 36.940887837856380 43 42 70
45.281705462470200 -114.578204250571972 36.883820566256361 55 51 77
45.422925160445175 -113.990869764198408 36.971344287283145 67 59 82
45.301656284151449 -113.418221162640691 36.914267496901545 79 68 92
45.267891474763871 -112.840776920473928 36.905388809976827 83 69 92
44.971478449966725 -112.275288509294001 36.751867647296677 92 77 99
44.850103915866356 -111.700754254172892 36.694753777681683 96 81 103
44.641117715723084 -111.129122989121242 36.589407310029387 104 86 104
44.607266270400686 -110.550092418897478 36.580493476399056 114 95 111
44.836259738950758 -109.962418303354838 36.716267741761101 119 100 117
44.802461822174621 -109.384251586277685 36.707361890111656 113 94 114
44.681020862000537 -108.808451449942623 36.650215213723357 89 70 90
44.471889048907371 -108.234200089770525 36.544815120875924 76 59 77
44.525730621945627 -107.653503484366794 36.584137048269881 98 84 99
44.579607591430914 -107.073387145041551 36.623465320698017 85 72 87
44.458100149120781 -106.496347999252819 36.566289110109722 76 64 80
44.687468258082703 -105.914905252478150 36.702141134489949 73 62 80
45.180161849961962 -105.333042505954396 36.982808202661104 96 89 109
45.585293210186819 -104.754930582180194 37.215255956335710 97 89 106
45.639492899634291 -104.180212689175647 37.254654833703583 99 90 106
45.430359216041069 -103.605730689668192 37.149230784640437 106 96 110
45.572389248946223 -103.031777514962968 37.236911246042922 109 95 110
45.802309397448397 -102.459636435584102 37.372891980444834 116 101 115
46.032329921898338 -101.889189965656527 37.508896508941930 111 97 111
46.262450923237850 -101.320440175959376 37.644924898767073 106 94 105
46.404802835601743 -100.751903283808034 37.732679548763542 104 92 103
46.459337882246245 -100.182761798572258 37.772147846700477 109 96 106
46.426008297791356 -99.612198368173210 37.763317176745744 106 92 101
47.096024082177848 -99.060142516261990 38.140968071666322 116 103 111
47.854233793598240 -98.515102118282115 38.567000025299834 123 108 119
48.524786467441515 -97.972194993732614 38.944788185465995 116 101 113
48.579842082364422 -97.411857606652489 38.984381719480282 119 103 115
48.722916387305446 -96.855536886767666 39.072310009049716 118 104 116
48.866060037103836 -96.300383302287287 39.160254313014846 107 94 106
48.745233545602048 -95.734569417586187 39.103207514265122 114 98 113
48.624380947214746 -95.168288952483422 39.046151476147671 114 97 115
48.591547390251947 -94.606032573419753 39.037430452432432 105 91 108
48.470658791311195 -94.039097570286401 38.980360357832708 103 91 108
48.085513645927023 -93.456599136586647 38.778223252711726 101 89 106
47.788340052426321 -92.877312477127489 38.624408656834163 98 89 105
47.755403372853976 -92.313216747957000 38.615651568585960 92 81 98
47.810597626253752 -91.755063117387536 38.655259442823450 73 64 83
47.777689469403072 -91.191421487568149 38.646505874806280 76 67 90
47.921100686317146 -90.640667284988027 38.734499684782151 59 49 71
48.417271565533582 -90.117776071796740 39.016022438719276 52 41 52
49.530957879813343 -89.646844201086552 39.636271852373227 23 12 12
50.027634784220936 -89.132589921621530 39.917925650881699 17 5 3
50.171628644946281 -88.591754207099100 40.006067254079966 15 3 0
50.668636627501598 -88.083142403366296 40.287805795795620 11 0 0
51.165841931381522 -87.577897118401069 40.569595272271542 11 0 0
50.604031343361669 -86.976377485648996 40.270594354882391 10 0 0
48.982633009521265 -86.268787206310861 39.390650724264873 13 0 0
49.921356098186948 -85.808086296241413 39.914500580700633 9 0 0
51.125381535112865 -85.380833616507303 40.583692394566199 9 0 0
52.948177238197616 -85.027042654055847 41.591945832181622 12 0 0
54.948340607806159 -84.704104715322288 42.697226761468201 19 4 3
56.949240613150408 -84.393777707274538 43.802702932016146 112 89 90
57.360057090305588 -83.912328690599111 44.036579041647443 174 142 148
57.417459787739290 -83.391785379610795 44.076748932396896 185 148 155
57.563311393463437 -82.882640575569184 44.165369573844856 170 130 138
57.709233004529807 -82.374687296981861 44.254007950073046 152 111 119
57.589897673167258 -81.834043876087804 44.197314130477565 144 98 108
57.382079061377908 -81.281397511286556 44.092158560283423 136 87 98
57.262677639674308 -80.739608254488616 44.035445523627956 133 83 94
57.143251097006157 -80.197382646542565 43.978725085883511 129 78 90
57.112305105496517 -79.667100926915268 43.970464218772378 125 72 85
56.904322620722638 -79.111624039526987 43.865262252772126 122 68 81
56.873358005702897 -78.581014127725794 43.856995343466281 120 65 78
56.753846706208208 -78.037318027620415 43.800250139638763 117 66 77
56.545741218249702 -77.479722267518468 43.695014024511636 117 67 78
56.426163682549088 -76.934885438944264 43.638250463209815 118 66 78
56.129359634767326 -76.361600064314985 43.484495400996025 118 67 78
56.009699939692069 -75.815351943633701 43.427709502256093 122 76 86
55.446853643573689 -75.195924729418039 43.128413211243924 121 79 87
54.972471975806002 -74.588173640256400 42.877572841044554 134 98 103
54.409274610925138 -73.962730546741852 42.578182826457848 139 102 108
54.377971827198223 -73.426313275635664 42.569824156947718 111 73 79
54.169284230050835 -72.858738355620503 42.464432142709271 100 66 71
50.589511443101259 -71.685880323043861 40.515196575341818 34 12 14
35.616823451018178 -67.828466331893338 32.345058647396101 0 4 0
33.984580005310960 -66.934906298858863 31.462204498805178 0 4 0
34.216037435863342 -66.388407840249471 31.598512941845271 0 3 0
35.424288005775793 -66.033454853799128 32.268820704103007 0 3 0
33.968807275188823 -65.160412314285679 31.482836190230927 1 2 0
32.246362508596889 -64.225442351971239 30.551065551639127 0 2 0
33.099612490892099 -63.804235702758426 31.027247251963729 1 4 0
32.442677770368078 -63.076822172102062 30.678000599147396 0 3 0
33.029694862233924 -62.606227784900241 31.008592647331895 0 3 0
32.017011423171255 -61.799739270328203 30.465020038503397 0 3 0
31.270688420671121 -61.044854582879125 30.067074731592612 1 4 0
31.591114747641370 -60.518755736172594 30.251983451043643 1 4 0
30.755554980321847 -59.738989604326989 29.805379152121489 2 5 0
30.720247386116597 -59.134075926578994 29.795966643978218 3 6 0
30.773908298080585 -58.549487442932787 29.835146307798837 3 6 0
30.382708622614786 -57.863052511244220 29.631370796599214 3 6 0
30.970333746508942 -57.402983024610528 29.962137656981966 2 5 0
31.558183714518719 -56.946782434981543 30.292966431997158 2 5 0
30.632806028202452 -56.132248953090922 29.797556578993465 2 5 0
32.289345555240089 -55.938097898154496 30.711759259873006 3 6 0
31.274744396396585 -55.098924419738829 30.167695578433367 4 7 0
30.794243523309319 -54.386589686267421 29.915254003320996 5 6 0
31.382663486117934 -53.940250342217013 30.246246035827866 6 5 0
28.674410683442915 -52.659569342169775 28.778106351492752 6 5 0
30.064784595975226 -52.417265779310434 29.546747073242670 7 6 1
29.138108654277204 -51.580644047738296 29.051009354454550 6 5 0
32.312135998853279 -51.817965629531912 30.792604285827167 5 4 0
36.646485537512632 -52.383262124489015 33.166870378436997 3 3 0
28.232105601640257 -6.137357593633753 29.325614710176055 28 27 21
30.364594855201631 -6.580828260525331 30.491430800412274 16 16 8
32.407453542329051 -6.992718483974032 31.608488571919040 14 15 6
32.010524496824473 -6.213495748327215 31.403820185614364 9 13 0
31.794241530097565 -5.521272287325644 31.297050702408868 6 10 0
31.758700910759302 -4.917684861712344 31.288204300404772 6 10 0
38.108284140498938 -163.591610053517343 32.798137795351366 196 61 102
40.232033542436994 -162.325497473882820 33.979895234452655 200 49 94
41.492804994131518 -161.336077793532951 34.685494253410511 161 19 59
41.890122684398563 -160.615239496102419 34.914812780123469 119 1 28
41.077878186150542 -160.258023999241516 34.477152271233663 100 0 19
40.265340483891407 -159.895806556426152 34.039416128888220 90 0 13
39.279629798578441 -159.579080861230125 33.506299746966889 86 0 13
38.293562261337996 -159.256266556953932 32.973091212353040 72 0 9
37.739495949188580 -158.803830582221650 32.678092370986661 58 0 5
37.271719066935191 -158.323575379187048 32.430706359505905 50 3 3
37.149789521047040 -157.743819585531753 32.373950943181995 45 10 6
37.027820834928832 -157.163387936597019 32.317184469157638 37 5 1
37.165418682037455 -156.511413467478803 32.403436966709535 47 12 6
37.822379576728821 -155.720282694723380 32.775787434834200 46 13 6
38.739288858511401 -154.864117598487070 33.291254692805978 38 8 3
39.829706927320558 -153.968169936907685 33.902186509081602 34 7 3
40.054543342294721 -153.304519902038521 34.036290970953957 31 8 2
40.019624120766252 -152.709166669400474 34.027325319917935 29 6 0
39.811436771602871 -152.157673909429462 33.922953924136863 24 6 0
39.429885841851615 -151.648413448469626 33.723152186606796 20 5 0
39.394850979836093 -151.051046117961675 33.714151825281803 21 6 0
37.192848311727005 -150.983055090570360 32.512310918315521 16 6 0
36.203763976347659 -150.608636570443878 31.978307788406482 14 6 0
36.861818639839413 -149.836014768113728 32.350922646635709 9 5 0
36.999764402932243 -149.189804852223915 32.437244721152851 7 3 0
35.229439468824580 -148.986607987243218 31.473522320292204 9 1 0
34.586326429647983 -148.514735090941542 31.130173671401209 20 4 0
34.290080376253684 -147.960733910095115 30.977715981949089 37 15 4
34.688052833728648 -147.250758559106572 31.207167131696622 56 29 18
34.825760962171842 -146.600398116861896 31.293416500165762 71 43 30
34.789883268611675 -145.988472642087174 31.284177492266892 80 48 34
34.753999921144612 -145.376428677190688 31.274934422963710 84 51 32
34.891818722254072 -144.727889731399870 31.361204480837671 85 57 36
35.464044959394812 -143.990740582004662 31.686300490579853 83 57 41
36.905347028167654 -143.080845315277685 32.489118368303977 80 75 91
39.042400589549345 -142.041121146255648 33.674239722151498 68 102 155
40.571823660035903 -141.134605296061267 34.525137311216156 76 128 194
41.580214845993538 -140.338754568984712 35.089503908327671 88 148 211
42.502035090771415 -139.565894602722437 35.606181987804860 87 150 215
43.076339852720082 -138.864057969330787 35.931796882035712 78 140 205
43.476900797296423 -138.197957707376020 36.161882259513916 69 128 194
43.877617361044599 -137.534486800623796 36.392004773956089 58 115 183
44.539530332602624 -136.827254738747314 36.765563935216463 55 110 176
45.027636095317320 -136.154676747220691 37.043577125124486 55 113 178
45.254793430056225 -135.530038156025000 37.178211470768417 49 108 172
45.569104605783309 -134.892302186664637 37.360678712028729 38 94 159
45.883540262261846 -134.256663007486594 37.543174897803311 43 97 162
46.023913636665583 -133.651323903928755 37.630059014185719 55 107 172
46.077238409719513 -133.060822494340528 37.669130881801365 63 112 176
46.130592207178324 -132.470787786180324 37.708206876680677 58 107 169
46.706823782704191 -131.801533035863656 38.034284688933695 52 99 161
46.934646896154419 -131.188059818478138 38.169068031619275 48 91 154
47.249736896741581 -130.563417279073519 38.351713375582719 38 79 143
47.129005435220165 -130.003201204728327 38.295160806571801 33 73 132
47.269856029812672 -129.405803804400563 38.382144461122138 28 67 126
47.236325757813972 -128.833265917607946 38.373433200239504 25 64 120
47.290031012432308 -128.249022391336752 38.412575695203557 23 60 114
47.082006318201081 -127.699373791386421 38.308136327317442 21 58 110
47.222993680116957 -127.104188659941443 38.395140977764669 22 56 110
47.189472813861641 -126.531687236423068 38.386417496971177 25 56 112
47.243252097373954 -125.948582869510062 38.425564471465535 23 54 109
47.035110054875815 -125.396804013324797 38.321079673535493 19 49 103
46.914236473251037 -124.833880488546484 38.264457023694959 17 45 95
46.618631274259059 -124.289824164533087 38.112047959764865 17 43 92
46.585025681968688 -123.715715132564071 38.103283462744855 22 39 84
46.551419621582227 -123.141565436939061 38.094514985070163 22 37 79
46.605210675129911 -122.558468062620946 38.133642104287574 21 34 73
46.484206735424522 -121.993154354170159 38.076966181694573 25 32 69
46.450600229498775 -121.418898154197350 38.068185906693685 25 29 65
46.067212168743652 -120.876968547557894 37.867753361712289 28 27 61
45.858619285405695 -120.317191934486743 37.763116053220671 36 34 65
45.649962883809792 -119.756296264069448 37.658458171295194 49 44 74
45.703723443911855 -119.172477908749499 37.697553709264113 64 59 82
45.494988497500145 -118.610172445686871 37.592867315841687 80 72 93
45.548766846269586 -118.026590661976030 37.631959540785360 100 93 110
45.515036886264937 -117.449989640637412 37.623119220098744 106 88 103
45.656423105617904 -116.861027569387815 37.710158096210733 122 103 117
45.622727885807819 -116.284952749589976 37.701318887616210 130 111 123
45.764213156711179 -115.697616419280763 37.788375750254133 136 117 128
45.905764182209793 -115.111370543777582 37.875445878334119 137 117 125
46.047381112832682 -114.526217808127825 37.962529324515089 141 120 126
46.189064097666972 -113.942160885167311 38.049626142547581 147 123 129
46.243159855421226 -113.363735809965519 38.088769750567977 151 126 130
46.647967664320561 -112.768825426654089 38.319801801913343 151 124 130
46.614510845230654 -112.196591511456219 38.310997381084448 153 123 130
46.668758099507812 -111.620657053701962 38.350168982447244 155 125 130
46.459887957710635 -111.055602260618613 38.245395393935951 159 127 129
46.601890365720863 -110.476807937996185 38.332552563728939 163 130 131
46.831709205955718 -109.896235504404842 38.467715404653774 156 122 124
46.798331135906153 -109.325182947945336 38.458912154091962 139 105 109
46.589393770528034 -108.758846158983914 38.354105256666529 119 85 90
46.555990657653865 -108.187299720479686 38.345287672223122 113 81 82
46.610404525424940 -107.613985331259727 38.384475995395661 153 121 121
46.752683448341713 -107.039725840298232 38.471682948145997 148 117 117
46.807184965049004 -106.467846948845420 38.510886822147029 148 118 118
47.037444982465985 -105.894596589348467 38.646139342756243 144 117 118
47.355682255265890 -105.322322176991477 38.829440257272680 150 126 129
47.586158447604504 -104.752708746629906 38.964742525420021 158 131 131
47.465098309822196 -104.185412444110312 38.907931166941182 161 134 131
47.431935926194058 -103.617732242402624 38.899147271003429 162 136 131
47.838483637396592 -103.052044908178090 39.130573921735262 161 133 129
47.981324662791195 -102.487156776388986 39.217900134752199 162 133 129
48.036261451804847 -101.922480835713188 39.257189993220649 161 133 126
48.091235192982651 -101.358407897905280 39.296486148805599 161 133 128
48.410260730416240 -100.799384697021864 39.479967216309362 159 131 126
48.641398278102344 -100.240853059270776 39.615416381302779 160 132 128
48.872636879438630 -99.684023232220554 39.750889000198924 161 133 129
49.368134899286503 -99.135799782572420 40.030601822901986 164 135 131
50.128035913745151 -98.598642088841842 40.454593069890734 158 129 127
50.447806275387848 -98.052232951736784 40.638255360693208 156 126 125
50.767709852219326 -97.508078485621610 40.821949897374878 159 129 128
50.999630183734979 -96.962787308825455 40.957587575885469 154 126 125
51.143519527985916 -96.415542164390715 41.045155750456914 158 129 128
51.199330157012270 -95.865525966631381 41.084641770971928 156 126 126
50.902521425990329 -95.299287026286009 40.931727255507852 152 123 126
50.781983726744187 -94.740459772821225 40.874998271194016 151 123 126
50.749616535839635 -94.185925775917696 40.866369951551448 144 118 122
50.452619399683897 -93.616385501545267 40.713396534164247 145 119 123
50.155533122289967 -93.045294221945184 40.560396544460005 145 121 125
50.034845600427587 -92.483804405778017 40.503616315565367 146 118 122
50.002392571838470 -91.927705821813035 40.494954014629116 141 114 116
49.881670399420329 -91.365577091198034 40.438159202601113 145 121 126
50.202381125622139 -90.834959460349751 40.622034447326683 133 110 119
51.229685835797909 -90.359937486682284 41.191063892859063 130 107 113
53.228936256435134 -89.967863282706560 42.289782666345744 116 91 93
54.610549342970160 -89.537942484394847 43.051655953743321 108 85 81
54.578994546885127 -88.997112362983486 43.043218855943337 97 74 69
54.812559669909547 -88.479642370998576 43.179252667064574 82 59 55
55.046226818114548 -87.963902884430198 43.315311614395029 65 42 40
55.633607334176844 -87.483091054062825 43.644058212458901 52 30 27
55.513867201856954 -86.937618115166572 43.587505214425050 59 37 37
54.244452551622800 -86.276737681209710 42.904680178749516 59 38 37
55.185861638890202 -85.836224800750671 43.426195032757704 58 38 37
56.039160312480078 -85.392410374783623 43.899620769139176 67 46 45
56.804300890597602 -84.944477793816048 44.324944712906756 143 115 119
57.127243575969203 -84.451886306202709 44.509389772162166 170 138 144
57.096264356733002 -83.920760923961723 44.501087637202744 175 139 143
56.976762200870468 -83.379264569722864 44.444586198803393 185 143 149
56.945780738235584 -82.848075501251969 44.436280483185982 162 117 124
57.091928937030445 -82.339027441191675 44.524391405580118 149 104 109
57.060992754306369 -81.808591962909020 44.516095141544582 141 94 100
56.941470243766815 -81.266701092119945 44.459582868630463 135 87 94
56.999140710071572 -80.748038756600181 44.499504439229725 132 85 93
56.879600045616854 -80.205817634087907 44.442985055719461 130 83 91
56.848675047315226 -79.675536006694614 44.434687312148071 129 79 90
56.640443910023777 -79.120067768130653 44.329923277316880 129 79 90
56.609500641241766 -78.589457793781406 44.321618852956348 124 74 85
56.401187903047685 -78.032576558854743 44.216831298085978 122 71 80
56.104114647422278 -77.461257575105051 44.063781531527965 118 66 78
55.895672778375513 -76.902150964639361 43.958958014504006 118 64 77
55.598438729425425 -76.328064998705401 43.805863946170831 118 67 78
55.301116347096496 -75.752460467723367 43.652745717825198 117 72 83
54.914938518659028 -75.160793042521661 43.451340117273361 119 83 90
54.351074941213170 -74.537434767103463 43.153366967419359 134 107 110
53.520632153749489 -73.865674600222590 42.710529133902014 144 117 121
52.512282500666942 -73.158433123413914 42.171064551751883 110 85 88
50.259968236877626 -72.226553151888623 40.955584902755945 39 20 20
35.711605516480802 -68.495406865729748 33.067369552619695 0 1 0
35.054956544069768 -67.788596322053721 32.720054413482970 0 3 0
34.486986588856297 -67.094823321495767 32.420979299928021 0 3 0
32.763014939512999 -66.177170206903426 31.493937009546755 0 2 0
32.016624401916971 -65.439116444243879 31.098098421202565 0 2 0
31.981513272398274 -64.837021464709309 31.088673645008924 0 1 0
30.789974575467198 -64.003746172137767 30.451167705548514 1 4 0
29.953920929551145 -63.235803139115085 30.006827737792605 0 4 0
29.829493235748458 -62.609764320176097 29.948994934911809 1 4 0
32.553158692593939 -62.578570558200042 31.437614311931469 1 5 0
32.874280890874104 -62.054674429158986 31.621560492447728 1 5 0
31.414830188966476 -61.150192319345479 30.838838040275675 1 4 0
30.756339520223634 -60.411885589365426 30.491038664257346 2 5 0
29.028833038171967 -59.433710268482592 29.563058637657747 4 6 0
28.993299955230754 -58.824475118552577 29.553531889821855 5 6 0
29.937851913044653 -58.437785246969760 30.075881897780320 5 7 0
30.971868777635763 -58.077621236114879 30.646684264277056 5 7 1
29.867155699615410 -57.225738332046014 30.056937079139331 3 6 0
30.723268241219671 -56.830172203420716 30.531117583420340 3 6 0
31.133893872045121 -56.333582893590247 30.763540674537424 4 7 0
30.920442620406163 -55.688779227405568 30.657396738086348 5 8 0
31.420472975535660 -55.217708157136904 30.938258915700658 7 10 3
29.779695611540603 -54.219303784600704 30.058015683050527 7 8 2
29.119819997616304 -53.457454147154884 29.709868941949750 6 6 1
31.315400409762077 -53.416693732174849 30.910148840871159 4 3 0
19.013074416812174 -2.455861825377283 25.040247194073331 132 127 116
26.213384225922510 -5.315288008678872 28.927770050432230 73 71 63
30.339561411922460 -6.721711283928922 31.159614483228140 11 11 3
32.657055013342472 -7.267181650532718 32.417443357940002 14 15 6
33.074372386125532 -6.890667427372794 32.652291478398865 9 12 1
31.047258238971125 -5.305826926082911 31.571539861486983 7 10 0
32.279389163627712 -5.332419557202845 32.244955024911604 7 10 0
38.414107443926525 -163.412642116628632 33.657264607671351 200 59 102
40.541309459574478 -162.148320379832256 34.833166960688885 169 21 63
41.371630982673850 -161.292404854284740 35.298289084528008 134 1 34
41.683100696315307 -160.598152030982277 35.479073370025105 106 0 17
41.129261221264841 -160.163865856926549 35.185819787493642 93 0 11
40.661782591968120 -159.700679131452318 34.939925824593175 89 0 10
39.501540388375787 -159.436669695133617 34.314669649639811 91 0 14
38.514058822458338 -159.115526935685665 33.784143158759932 84 1 14
37.699433204261851 -158.738873320224712 33.348370526009759 79 9 17
37.231003628636103 -158.259453215979505 33.102230008969102 60 10 11
36.849046096708662 -157.753021822140369 32.903476882371010 36 0 0
36.900225077973289 -157.124801304198968 32.941863796630102 31 0 0
37.384779267071650 -156.378856988838947 33.217451531572650 45 8 2
37.522773372783661 -155.729454116523812 33.303311514011156 50 11 6
38.614545414452465 -154.827077543609249 33.911104875785924 42 5 1
39.446570999086077 -154.000059780415398 34.376646152605289 38 6 2
39.498304379830103 -153.381211741794601 34.415165994449680 35 7 1
39.376563591158487 -152.807317228868129 34.358771239751022 33 7 1
39.081253145770461 -152.276748537055767 34.207437407264806 30 7 1
39.653656251274668 -151.527148600685166 34.530751965478956 26 8 0
39.271503617904443 -151.017236652327909 34.331930533757031 25 8 0
39.583724686610196 -150.335551054248782 34.512879034604993 19 7 0
40.243384604736264 -149.572261966867188 34.883775656432107 15 7 0
39.079541835168925 -149.246654685323875 34.257570192377912 10 6 0
36.699220765634465 -149.199026574898738 32.966421914407704 7 0 0
35.621190783612178 -148.835136874762441 32.387430891211594 8 0 0
34.542772104082729 -148.464598657429747 31.808337535689958 22 5 0
33.985419480960616 -147.970089721966389 31.514143484800371 38 15 5
34.123270325645478 -147.317941794342886 31.599930949286502 52 25 14
34.261179426658146 -146.666760420854217 31.685730219464048 77 48 35
34.399146919114855 -146.016547284082606 31.771541256664193 83 51 38
34.537172940349848 -145.367304118834255 31.857364024489101 88 56 38
34.588268697270621 -144.737225848007995 31.895677737075630 90 59 39
35.335430538407564 -143.964209527622785 32.314193714644773 84 58 48
37.040104526795119 -143.001846112692220 33.255597166462110 74 73 99
39.354670587743414 -141.928630930948856 34.529891271159130 75 113 171
40.886619321126147 -141.023950717077355 35.376567818726969 80 134 200
41.896726032480046 -140.229960936092255 35.938139863805645 90 150 213
42.733042447614366 -139.475525362469426 36.404715019502547 87 151 215
43.395472884182027 -138.759012248857402 36.776268669763070 74 138 202
43.883921636859668 -138.078789303493039 37.052776174598691 66 126 192
44.198292978526922 -137.433223705151818 37.234212869781217 58 116 184
44.687086016524376 -136.758808003041480 37.510801373558081 59 114 179
45.088902735824519 -136.102768368195058 37.739868569191287 52 110 174
45.490876030745028 -135.449366200748727 37.968972179408723 51 109 173
45.718612702997802 -134.827904649286467 38.102963834651206 54 108 172
46.120867666174263 -134.179239625855558 38.332132069762778 62 113 178
46.174365027113367 -133.589638113911576 38.371006976662400 53 102 166
46.576870328042418 -132.945174734292834 38.600231635028123 44 90 152
46.805011712868691 -132.330479258199261 38.734311368232724 39 82 144
47.469629975403024 -131.650916616098414 39.106385322601255 38 78 138
47.523453367384832 -131.066736713322825 39.145327752483624 30 70 129
47.751923986518733 -130.457551879786223 39.279479896720275 27 66 125
47.369216072148845 -129.937201676756843 39.080401198019203 25 64 121
47.335741007098761 -129.365825738942988 39.071730180763751 23 60 118
47.389620979158735 -128.782464578171215 39.110669902269521 22 59 114
47.443531488599177 -128.199587142630776 39.149613103410715 21 58 113
47.410084025963158 -127.628569724350598 39.140935933674399 17 54 107
47.376635410011716 -127.057494476137975 39.132253959625061 14 50 106
47.343185798647937 -126.486363813700166 39.123567189150734 9 40 97
47.134861986868600 -125.936288246551371 39.019602970463509 15 40 91
46.664115414651462 -125.415911047348729 38.772695857819784 22 37 80
46.630551730872895 -124.842715482950979 38.763965620854123 40 47 81
46.334533591994557 -124.298676282398546 38.612284159924414 62 62 91
46.563423444033219 -123.696189851276316 38.746490874856491 77 71 91
46.354825742226240 -123.141239320931092 38.642432085015983 83 76 94
46.321229571365564 -122.567329460527418 38.633674559463529 93 82 96
46.200084962643047 -122.002024485597673 38.577246839262500 117 102 114
46.078908787849400 -121.436139717383512 38.520806099485213 132 115 126
45.870120476772456 -120.877771172914095 38.416678498492487 136 115 128
45.836462387952110 -120.302641088187158 38.407885637865220 140 118 128
45.715192487096459 -119.735032411444934 38.351405958640783 151 128 137
46.032035394220003 -119.130489444452834 38.533345396174596 157 133 138
45.910783836208708 -118.563112104353422 38.476860811826469 163 138 140
46.315466186864825 -117.954815010500866 38.706532082090277 162 137 139
46.106572854214335 -117.394405651428158 38.602347956466076 168 138 136
46.336081008826881 -116.801996046221262 38.736658510997231 168 138 135
46.302560784046022 -116.228934621597816 38.727867756291516 168 138 136
46.707666360031681 -115.627707813527934 38.957630508617626 166 133 132
47.112934108381552 -115.029212711416477 39.187430972803455 166 134 133
47.255093922978489 -114.448706131114292 39.274109311896339 167 134 132
47.221774721406291 -113.878917667400799 39.265351936376462 168 134 131
47.627401849822576 -113.286445294695838 39.495232329397794 164 131 126
48.208801162094915 -112.688186991605946 39.820615894360969 162 127 123
48.790427290768008 -112.093767643753168 40.146054371744967 164 128 124
49.020933498534902 -111.518057894440147 40.280583808401715 160 125 118
49.251538843640162 -110.944003901580700 40.415134626248090 161 127 118
49.921586902965885 -110.355758149982421 40.788454095743859 162 128 120
50.328240186667330 -109.780597679754720 41.018576286715017 161 124 118
50.471354940698177 -109.216063372638530 41.105463322096497 142 103 98
50.174954159586747 -108.664395344881683 40.953553095824802 131 90 86
49.702596130651813 -108.115265843355047 40.706081295037350 130 89 83
49.493928129737810 -107.558023696053425 40.601875344883013 164 126 117
49.197235807716851 -107.001249273054043 40.449874225459254 169 130 123
49.428335223301787 -106.435334531801558 40.584518307892921 162 125 117
50.011520977203503 -105.867168020655285 40.910317312612605 164 129 124
50.858972322413365 -105.300741556367115 41.379534630750626 171 136 132
51.354633847702416 -104.741566740974605 41.657666592176255 170 138 127
51.674402870567519 -104.186040672648673 41.840254352538565 170 138 126
51.730123310255976 -103.632414366693382 41.879472423173937 170 137 128
51.962033333737992 -103.080151827878467 42.014304763697922 171 138 129
52.282136493002753 -102.530237279750395 42.196968237148596 170 137 128
52.514264230898988 -101.981630812099510 42.331849881191800 169 136 127
52.834617186522763 -101.435922765360729 42.514571302956284 162 132 122
52.802542502850685 -100.886548509453561 42.506038479678153 159 129 119
52.858629414199527 -100.338983888277497 42.545328619814981 162 132 122
53.002925855548625 -99.794050401556632 42.632454531110398 165 132 123
53.323667732522892 -99.254865925033755 42.815263133270548 165 132 123
53.820950755548125 -98.723070685917747 43.093779994645161 162 129 122
53.789111683890923 -98.177562988736383 43.085289889431550 161 128 121
53.933750143529153 -97.638355750399114 43.172491216055136 159 126 119
54.078458347595245 -97.100311387004140 43.259707351743913 158 125 120
54.399771668340719 -96.570754693566940 43.442649089036649 158 125 120
54.544651406264819 -96.035586861830438 43.529903594087301 158 125 120
54.424702586048255 -95.488964909868344 43.473581563159939 154 123 119
54.393043664033911 -94.946355483382959 43.465117256228439 155 124 119
54.361391137587475 -94.403825886878252 43.456651141024679 154 123 119
54.241397839444545 -93.856352244787658 43.400306661874296 153 122 118
54.386468693242534 -93.324311197525532 43.487594688163313 151 120 116
54.001335471109627 -92.760020169961948 43.287587273234351 152 120 118
53.881266545129307 -92.211165179729065 43.231212516974153 152 121 118
53.849583395161488 -91.667969158189464 43.222721493175484 153 122 120
54.171613987267051 -91.150416898112397 43.405820858189472 149 119 118
54.847549056588463 -90.661779370229738 43.780561833377789 142 113 114
55.523745182027540 -90.177592671299124 44.155369831984459 146 116 114
56.023253521833851 -89.683445415252649 44.434423511388658 144 115 110
56.080507909449551 -89.155269466646686 44.473952439116374 141 112 108
56.226307115208044 -88.635483434195109 44.561408221734723 144 115 111
56.372176749475216 -88.116882400306380 44.648880224633885 139 108 107
56.429578920169547 -87.591172402393852 44.688440757018029 137 106 106
56.752681095692310 -87.091805473299772 44.871805266305287 131 100 102
56.810208280593770 -86.568197238203126 44.911394393226473 130 99 102
56.867774180949169 -86.045232858617950 44.950991544445216 133 103 106
56.748176116938481 -85.504147132661103 44.894707130119983 153 122 126
56.805787751237972 -84.981928816733799 44.934312046108360 167 131 137
56.774805065662207 -84.450429777175742 44.925971865855900 165 128 134
56.655180519091488 -83.908835151342075 44.869673873529862 160 121 126
56.446866588103688 -83.356330336701632 44.765405352925157 164 119 125
56.504538019702295 -82.835069164827956 44.805018255441070 146 99 105
56.562248138152768 -82.314456316989876 44.844639760329272 139 93 97
56.619996919726560 -81.794492138406071 44.884269950060215 134 88 91
56.677784336744594 -81.275176914110503 44.923908906936958 134 86 92
56.735610357558784 -80.756510868498211 44.963556713073956 133 86 92
56.793474946534303 -80.238494164884827 45.003213450376236 132 85 93
56.585051530778628 -79.684013445198502 44.898903914511180 132 85 93
56.198989079630621 -79.103269281375390 44.698585828218697 128 81 91
56.079228384817497 -78.559203276086066 44.642235146320601 127 80 90
55.604151132451079 -77.961962326327040 44.393858441264527 124 74 83
55.306600100613110 -77.389029464984304 44.241457549982869 117 67 77
55.008961005995559 -76.814577630412785 44.089031975002484 118 64 77
54.888974490301308 -76.266603797280538 44.032616496283708 114 63 75
54.680076902196589 -75.703926386358120 43.928171947935169 105 62 72
54.293318911164363 -75.111192244864796 43.727659756841049 118 84 91
53.639688062006911 -74.471964919818873 43.383024308492054 120 98 101
51.473973575036382 -73.572659642065545 42.221745845818361 109 93 95
33.458967082414716 -68.149266300798956 32.529202692326848 0 2 0
33.602164582577046 -67.584450574844112 32.615911092823012 1 3 0
33.478347452847032 -66.970714957104690 32.558458704158454 2 4 0
32.642154401339383 -66.220742389231233 32.116486340634651 3 4 0
30.736968660636848 -65.259055136443294 31.097618206222251 3 4 0
26.693318522634485 -63.865715259369964 28.924828895863939 4 5 0
28.260997951151978 -63.568766819606779 29.780507387850278 3 6 0
28.492647407968235 -63.010796467163324 29.915123371159993 2 5 0
28.189661622359154 -62.344591517401646 29.761254728677969 3 6 0
30.649876560330256 -62.253414858674923 31.098144033852520 3 6 0
30.079739083387210 -61.535955541633911 30.800079688187878 3 6 0
29.866097603329251 -60.891913759844130 30.694359996829945 9 10 2
30.633439905825099 -60.460386710561160 31.117753075889951 7 8 1
28.725031121733082 -59.443474563812799 30.098025070684656 5 6 0
27.708137049172564 -58.614806935562633 29.559231229131257 7 8 2
31.820568579069089 -7.010160664580006 32.641769680845684 20 14 3
32.238438694957040 -6.631962867231469 32.875447709312283 13 13 5
29.664212576328282 -4.776547044870489 31.508958915323092 10 13 6
31.714210857204819 -5.205739213733574 32.615515330862834 7 12 5
39.587960157529352 -162.964768531282601 34.984593696679553 195 49 92
40.679213850791854 -162.024248970338192 35.588792441424133 171 25 65
41.164352128889846 -161.274999840212985 35.862963506901124 138 5 38
41.736335684080814 -160.502798943185837 36.184345657830221 119 2 27
41.615113143202279 -159.940634639355494 36.128425845858914 109 1 22
41.233770932213048 -159.454379166355750 35.930974692933844 98 1 15
40.158618507247382 -159.167875824493848 35.356068287728974 100 3 18
39.083077282203305 -158.874743681666047 34.781062059288999 97 7 21
38.180629809646888 -158.525551639082408 34.300326987581755 84 8 18
37.364614294145895 -158.146366317411690 33.866697513295136 54 0 1
36.895397863433573 -157.665480938504402 33.621766509634668 35 0 0
37.033538705161078 -157.014441105784755 33.707175304768981 32 0 0
37.779371221565498 -156.198938281974335 34.123008587412215 40 0 0
38.351841801649783 -155.434901516689706 34.444499321608433 46 1 0
38.750855030530602 -154.720705700565276 34.671623205412445 48 1 1
39.410579288531068 -153.940639895602828 35.040425125926916 45 3 1
39.201865008319601 -153.390241741140329 34.937108899147759 41 5 1
39.166849873948109 -152.794079932815919 34.928216269279005 36 4 0
39.218729021606919 -152.175786157945055 34.966545451845363 33 5 0
39.444466895772933 -151.514443977049638 35.099338553059312 29 7 1
38.800969655875093 -151.069203216364713 34.759810748000461 26 8 1
38.505036800040244 -150.535280091152401 34.609174336191558 19 6 0
39.078646005582357 -149.790433451527889 34.930931099832279 14 6 0
38.695689193481968 -149.276360780522452 34.733031237394243 10 3 0
36.833662269725892 -149.106336053907540 33.731838744543779 8 1 0
35.754069609464722 -148.743858644665636 33.155760335749946 11 1 0
34.500031924977691 -148.414392350563844 32.485062602528302 25 9 1
33.767806783801007 -147.959843282031358 32.097821160096089 35 14 3
33.818862003100662 -147.327248829749919 32.135908892859206 59 35 23
33.869943902200362 -146.695076995206080 32.173999665490712 73 46 33
33.921052614291170 -146.063329298738807 32.212093423540310 84 52 39
33.972188274889447 -145.432007315392894 32.250190114933915 88 58 38
33.849102978064508 -144.837507221182761 32.193723896923871 95 63 42
34.771660992035493 -144.027246788601019 32.704687929744495 89 63 53
36.478969782116025 -143.063988145275715 33.641356004286521 70 74 103
39.232976944643582 -141.902946565863886 35.145723944146255 81 122 181
40.854559523447165 -140.981633010457529 36.035458084735566 84 141 205
41.953521913734136 -140.171579730074058 36.641522355366007 92 153 216
42.791236339505048 -139.418197167688362 37.105765434615861 87 152 216
43.629266828835370 -138.670164459435739 37.570085075169956 71 136 200
44.205857880637041 -137.975538722667125 37.892534452817486 62 125 190
44.695401535571136 -137.300378835633865 38.167716138432496 58 117 185
45.010566104826154 -136.659342290511773 38.348294013521539 62 117 184
45.587755185271021 -135.974795640623114 38.670883121337425 56 113 180
45.903217654894547 -135.338759461799924 38.851528191282782 52 107 172
46.306137203751888 -134.690163751847507 39.079536864146448 36 89 155
46.447170500740441 -134.087355898014067 39.165560413301648 29 80 146
46.675629205002053 -133.471447806592238 39.298939348755155 25 72 136
47.078941354495299 -132.829424732477236 39.527034532691260 20 65 123
47.307619615050953 -132.217178263149805 39.660460190950630 19 61 117
47.711215658857498 -131.579913706678269 39.888618612987088 8 49 105
47.765258359903214 -130.997372782247368 39.927369287424128 1 36 93
47.906775277741161 -130.402562591754162 40.013487738041164 2 37 95
47.611055206508269 -129.871128951840461 39.862771496010595 4 41 96
47.490189532273519 -129.313594447385356 39.806771497726828 1 35 90
47.369290628610315 -128.755448867996449 39.750757707609807 3 42 97
47.335866570502077 -128.185043211645961 39.742111674275591 5 44 99
47.214917686831797 -127.625955449807250 39.686074414828468 10 50 102
47.181475981700032 -127.055158666264560 39.677413189684529 17 55 108
47.235589640596999 -126.473474990320327 39.716140440777806 31 63 113
46.851875134762111 -125.945076146131314 39.517879735545606 44 59 98
46.380444336515239 -125.424725254564663 39.272177990054359 87 86 109
46.171665262764549 -124.871558175448058 39.168648549969447 132 120 132
46.225682157574312 -124.288037326327810 39.207328821049856 145 126 133
46.367367286809866 -123.695555221594390 39.293426697071695 160 136 135
46.333812845537608 -123.122508994074309 39.284697859537872 163 138 135
46.387926962414952 -122.540506738077170 39.323386675551717 167 142 136
46.266705780793359 -121.976305102911965 39.267223827673490 171 143 135
46.233153481776412 -121.403152609599573 39.258478673954230 173 144 136
46.111886191440277 -120.838067560287570 39.202292496116186 173 142 137
46.253784196429876 -120.248935357626152 39.288412013322855 172 141 137
46.307999545212454 -119.668422823753858 39.327098918335011 171 141 135
46.801068664392062 -119.052048934299393 39.603029722338221 171 139 134
47.118771414450038 -118.452944870580396 39.784100759933338 171 139 133
47.787788252391920 -117.829091265257887 40.155026233662369 171 138 130
48.105814889314587 -117.235426352295249 40.336170633789550 169 135 127
48.423971678849711 -116.643938064711463 40.517343442406613 168 133 126
48.566570642310154 -116.066448262111635 40.603606487847358 167 131 125
49.060676285092939 -115.467502110638549 40.879774553909627 167 130 124
49.379224381244143 -114.882559768854392 41.061032994732400 166 129 123
49.610011133698009 -114.304893665122762 41.194838401160496 162 127 121
49.665080640022097 -113.738501215365432 41.233692308507315 160 125 119
49.983957294935124 -113.159034343280098 41.415020192786884 159 125 116
50.390905099799085 -112.577494157979316 41.643871312391809 160 123 116
50.798016126746234 -111.998698613023905 41.872759827182733 162 125 118
50.941374445874033 -111.433814104300495 41.959177526673940 160 123 114
51.172788303940678 -110.866590308757935 42.093114475203805 157 121 112
51.492305787944417 -110.297850254980204 42.274583393989673 157 121 112
51.723935025522707 -109.734218444912557 42.408566178979299 155 118 109
51.867628186270395 -109.174876808596110 42.495050243801330 140 102 93
51.835285515087207 -108.621361127131593 42.486499122738877 134 94 86
51.891015003429715 -108.065791987223420 42.525471808294824 150 111 102
51.770613048630764 -107.514412905682420 42.469384076825392 167 129 116
51.650183655783366 -106.962518759541780 42.413283718081473 166 128 117
51.882190283290328 -106.405071828404814 42.547333939555244 164 128 116
52.290561087338233 -105.847328664816686 42.776495574933435 165 131 120
52.610948670800269 -105.293071592771128 42.958146349472855 170 136 126
53.107796414374405 -104.740162852585996 43.234934138614364 171 139 124
53.252122034099671 -104.191244041456741 43.321538037779959 171 139 124
53.484712340593006 -103.643570964980938 43.455717149608205 170 138 123
53.540980487457063 -103.096825574318302 43.494785605879386 169 137 124
53.861968629369045 -102.552636744015558 43.676570384424139 167 135 122
54.271333405218144 -102.011612723906808 43.905960351540401 166 134 121
54.239566000951129 -101.467376617277736 43.897494517917011 160 130 120
54.119528906322643 -100.921724097022334 43.841442103059848 157 127 117
54.176048421081390 -100.379076047904761 43.880552852433453 159 127 118
54.320913005075568 -99.839054208919109 43.967260634098352 160 127 118
54.554170552280368 -99.302479832344815 44.101578298619017 160 127 118
54.699190638584071 -98.765043254487949 44.188318214239771 159 126 117
54.579215381574926 -98.220250368945258 44.132258683139085 158 125 116
54.724327537954963 -97.684314165079144 44.219014044277955 157 124 115
54.781122800092930 -97.146156023771383 44.258170618877614 156 123 116
55.014762012551500 -96.615930555936743 44.392567582707599 156 123 116
55.160084451090427 -96.083486454622189 44.479365938839450 155 122 115
55.305477098425911 -95.552209615546388 44.566178806313275 152 122 114
55.450940006299476 -95.022101575677212 44.653006275758599 151 121 113
55.242607245403605 -94.474169741136507 44.549310997201204 152 122 114
55.211182407474922 -93.935270344460434 44.540873604032996 152 122 114
55.356760974101803 -93.407041363274004 44.627719800977530 150 120 112
55.413895800684230 -92.874420542116752 44.666933786563533 152 119 113
55.294009156546139 -92.330752238567015 44.610851387491650 152 119 114
55.262643675180328 -91.792737649766309 44.602414210995434 152 118 115
