ply
format ascii 1.0
element vertex 708
property double x
property double y
property double z
property uchar red
property uchar green
property uchar blue
end_header
45.978306491969704 -140.010105449820372 36.375408958962637 123 162 207
43.310878644843001 -138.876859429081094 36.280192346305014 52 118 185
41.757652826054084 -137.878124754756982 36.225439392879586 46 117 193
40.305985630845669 -136.898109146496154 36.174338238010506 62 128 201
39.866784957992081 -136.029681032938328 36.160025132712100 78 143 209
39.630076117544206 -135.183579788626389 36.153048216808465 53 110 177
39.494598130556426 -134.348308505202880 36.149725603591612 13 70 137
38.650862554253308 -133.446314012339599 36.120599822319861 53 112 178
37.807300513469158 -132.548556565705383 36.091443909337812 53 111 180
37.267389600765512 -131.682180422352360 36.073304485081813 52 103 172
37.031027986006961 -130.844735543171225 36.066181891090508 90 131 185
36.592431133126411 -129.991259544687011 36.051663849242956 121 154 199
35.749416611048446 -129.106929914216892 36.022384362086889 101 131 175
35.108803675482363 -128.242762906530004 36.000437982477479 142 173 217
34.670524415074567 -127.397125215134452 35.985824629778776 157 191 240
34.232328466304864 -126.553559369793703 35.971178773038574 55 91 148
33.389896375103376 -125.683510801167955 35.941769252936105 32 69 128
32.648706952298085 -124.824586782464308 35.916009058631175 75 108 155
32.311897855329050 -123.995752631213378 35.904945989118900 95 122 159
32.177241339944715 -123.181095517104410 35.901214237154036 129 150 182
32.143634881797198 -122.372932597929122 35.901130600467148 122 138 168
32.312067643125033 -121.576222451148965 35.908377114329404 85 101 129
32.278424327655159 -120.767320762768435 35.908222792571259 92 109 128
32.850776733399584 -119.989701323154563 35.930127380730667 121 138 155
33.321996809504640 -119.203758605944969 35.948312184216256 139 154 174
33.086252182570718 -118.382213394553006 35.940682884339196 122 137 157
32.749579731280448 -117.557262798250250 35.929334317735240 151 168 191
33.018698759371603 -116.758688989430809 35.940041227604922 117 138 170
34.499066722934629 -116.004763780655608 35.994892909705165 48 75 118
34.969764098841381 -115.206654768083297 36.012883380490734 39 69 123
35.238499287088359 -114.399100422295561 36.023469749587925 78 110 158
35.305340552965504 -113.583741820279926 36.026652452944887 97 127 167
35.876643419226298 -112.781621060609737 36.048201465490806 83 114 154
36.145142923269987 -111.968655932991453 36.058664346863779 92 125 169
36.413567771818123 -111.153982966133754 36.069085201832401 47 86 136
36.480189943289759 -110.333700959393639 36.072102157177717 28 71 125
36.647635776237109 -109.514487677508001 36.078757642157264 29 69 128
36.915871199925448 -108.695525864852641 36.089050580721164 26 66 125
36.679882790855004 -107.869206668976290 36.080899989861813 28 68 129
36.847207965801203 -107.047359989226152 36.087426890929478 26 66 128
36.913674588831555 -106.223782336479189 36.090230603306139 26 65 127
37.484091246268690 -105.401167696250553 36.111386325744149 29 67 130
37.752012508310941 -104.575110309470674 36.121458748683018 27 71 129
37.919086866234124 -103.747603541177654 36.127807300549065 27 71 129
37.783825530731292 -102.920487105566664 36.123076494657518 29 71 129
38.152332270927559 -102.089970541532395 36.136691230946973 29 69 128
38.621481249405065 -101.256176095264109 36.153936281434000 31 71 130
39.392693011150755 -100.415628949535588 36.182164080368096 32 72 131
39.357989802586872 -99.583494101256534 36.180928398980555 34 70 128
39.927508741759652 -98.740079405998600 36.201704865470504 38 75 131
39.590647899162946 -97.912701226527659 36.189349899024336 34 75 128
39.958622688656533 -97.069985856057485 36.202679415890159 17 58 109
40.729182738093982 -96.214281260684587 36.230659313934957 34 66 119
43.210756675735070 -95.303704801979791 36.321049650499745 59 86 127
47.201467563110270 -94.330797232829113 36.466477139072914 52 69 106
48.775995648222874 -93.420398055421074 36.523658643302461 58 58 87
48.438286054730952 -92.573252131376989 36.510994025954204 50 69 110
46.490829312210167 -91.792761591704433 36.439530028271705 59 78 120
44.543802487942571 -91.022665410130529 36.368040431153943 58 86 136
43.603109595831029 -90.216861575816381 36.333237306221363 50 92 149
43.064934440274328 -89.396452286648724 36.313080776932125 53 94 152
41.320059520007703 -88.640678698284106 36.248845070940050 28 61 118
40.279462395288874 -87.856200664772572 36.210269731110309 70 91 143
40.143992717389892 -87.025868954784031 36.204679771459574 4 14 30
40.109076052289652 -86.190126200189653 36.202713915566228 4 8 2
36.084848551480036 -83.948183092696937 36.053570611539357 15 12 5
28.681125346872250 -82.834480854715764 35.781772903638618 19 13 7
25.834461849075126 -82.242865742950144 35.677031205706172 19 7 6
29.282444531469878 -77.933633140019253 35.797499042221418 11 12 6
28.913781434622592 -76.348602831932453 35.781657211462836 9 12 3
25.835482826199552 -75.039212840474647 35.666930739802559 8 11 0
26.203503501667001 -74.200223990603078 35.679005571710263 8 11 2
25.367364991858267 -73.486617212811865 35.647174544953586 6 11 5
26.738613471046335 -72.537688947735191 35.695706185409755 7 12 6
24.197215574238442 -72.016870033263814 35.601702611841290 6 11 5
29.512795397811033 -68.989994646873825 35.790624566804496 4 9 2
29.244620242694793 -67.399733520509542 35.777571897142707 4 9 2
32.418732527632585 -66.182826315368203 35.891353580098354 4 9 2
31.382201811221705 -65.498018363345238 35.851888197343911 3 8 1
26.770961002745366 -63.685434475016265 35.678745438317634 7 10 3
32.548456864092714 -62.063074275212109 35.886901363726196 8 11 4
31.578550439194714 -60.563723321323231 35.847731951257060 10 13 6
35.228979960669506 -44.275435092370543 35.936353643232856 30 32 29
31.296827286008295 -44.239264809569413 35.791471389503705 21 23 20
38.657368666080629 -41.914810018929870 36.055165924402900 13 15 12
28.031340983927350 -43.278242672163024 35.668172836642135 11 16 10
29.096575599629148 -42.244441455496364 35.704090541758802 10 13 6
36.754513627290407 -39.801984453604312 35.978296497535169 8 11 4
33.723347640520501 -39.621140328403868 35.866027590359877 7 10 3
32.490536991491581 -39.064369081241296 35.818772306565435 6 9 2
32.855747654846596 -38.161137259499490 35.829246321924487 7 10 3
33.720109000870991 -37.144161456265650 35.857722157882705 7 10 2
34.484433130116940 -36.145046492167893 35.882553163171195 7 9 0
35.048929615275256 -35.187492557801910 35.900140759715711 7 9 0
35.214040285622389 -34.319441289715073 35.903289877770789 7 9 0
35.878119526262708 -33.333304263480997 35.924422360313798 5 7 0
37.140786952464225 -32.201312038052549 35.967117985496415 5 7 0
38.303383474316320 -31.086371593712069 36.006168191267150 5 7 0
38.567801414559881 -30.183228902284696 36.012805777771185 4 7 0
40.228744657173024 -28.935418884320235 36.069756321198682 4 7 0
40.792110761109484 -27.951145821450233 36.087119089900590 6 9 0
40.058808654963173 -27.289469310215928 36.057755080458669 5 8 0
66.087220600484500 -1.511100262738806 36.927543801112826 34 35 30
50.457284095334558 -3.717487008250915 36.358705082847770 14 17 10
46.144720646096175 -4.222958016616253 36.201426487492306 10 13 6
44.617400900588962 -3.853200636784655 36.143871581881911 6 9 0
43.189853086044877 -3.459267252663400 36.089930045697621 2 5 0
42.458534582432776 -2.844554229692664 36.060923953643716 0 3 0
42.820822676149874 -1.871778073363801 36.071038054594624 2 6 0
43.679987525834463 -0.731050789025838 36.098920663681071 6 6 0
33.504083035266319 -0.812632670452551 35.724593725640389 26 27 22
27.575332877297853 -1.231265624608309 35.507847176922283 20 22 17
22.476732863596965 -2.218362815784074 35.323459823600892 31 33 28
20.954160003155437 -1.961082833215583 35.266717986535880 50 53 44
20.126964504047521 -1.462715190166017 35.234823590836591 11 14 5
19.299953789982681 -0.968687970485606 35.202979051139167 10 13 5
17.579716762421185 -0.804271716437739 35.139345655950592 8 11 1
-79.462523706169009 -0.934915575719266 31.666808204545177 128 125 110
44.791972330713179 -139.890469891833419 35.497854940226219 96 149 205
42.226502117323946 -138.771363581111245 35.413071893454706 65 132 204
40.977382357710837 -137.808160288960778 35.372584722628318 50 116 192
40.133340530310761 -136.894095745623702 35.345709096814431 44 111 182
39.795433232785058 -136.036316762461240 35.335856194011917 57 120 189
38.850500821011735 -135.119211492292209 35.305515353819253 77 136 204
38.411612528713704 -134.256217222948919 35.292197195340080 38 101 165
37.770490697834532 -133.376090224929868 35.272030123451003 18 82 146
37.331791126130270 -132.517754409809243 35.258654967577968 53 111 179
36.994310290871169 -131.670527595390638 35.248661207526659 53 97 162
36.758014257496995 -130.833594138265738 35.242048562873812 148 183 233
36.218417087579382 -129.972120370805243 35.225173999205992 150 179 219
35.375620756015053 -129.088561119982899 35.198036550271311 174 201 241
34.431907966451377 -128.201290531929743 35.167456978366793 159 184 228
34.297023864262883 -127.380308846645221 35.164132040990062 135 167 215
33.555749077792200 -126.515278890151805 35.140310535769565 13 44 102
33.016738396525909 -125.668241373998612 35.123278390859042 112 138 189
31.770518902314905 -124.775745843915900 35.082337944076187 125 147 183
31.635934607194656 -123.962245954624422 35.078883596493775 134 151 175
31.501365865234106 -123.149189952836664 35.075395864956988 157 165 179
32.174900410965279 -122.384980133052906 35.099160207350522 191 193 195
32.242271341845253 -121.582189238212138 35.102425358412617 178 190 178
32.006647766165941 -120.762243868065056 35.095423591825956 111 130 118
32.073993345675433 -119.958990219402565 35.098618410774421 137 157 158
32.343240387211324 -119.165015483206645 35.108598214871030 152 168 181
32.410504024744171 -118.359942580181752 35.111720464821836 161 174 191
31.872081147221763 -117.527762816128572 35.094344236371249 151 167 183
31.838422467919997 -116.718924440236506 35.093982846785003 163 178 199
32.713037995138166 -115.944797950667876 35.124274104313486 84 105 138
33.587442275930073 -115.165674897959235 35.154524911993377 37 62 113
34.259840596680249 -114.374917426404764 35.177915156822174 40 70 118
34.326757248856609 -113.561979974780002 35.180807067392443 68 101 142
34.696268532157887 -112.756742782424737 35.193887439249281 74 106 147
34.863955939344578 -111.944248431322279 35.200108402741463 76 108 154
35.434998950702891 -111.139500272487751 35.219924320000622 30 67 116
35.804218198412002 -110.327499641910265 35.232879880823802 27 68 121
36.173340218394799 -109.513249300964191 35.245792908253080 28 69 125
36.744000494319494 -108.699565803741294 35.265479370689590 27 63 123
36.407261217704047 -107.872340832220758 35.254449888911985 25 62 123
36.372969156483350 -107.049281641153812 35.253603453807955 22 60 122
36.137104189676620 -106.224995918788096 35.245900470406639 23 62 123
36.505911975424226 -105.403635677918629 35.258599000038764 22 61 121
36.773862230635416 -104.580001211428026 35.267845970092779 21 63 121
36.537991787185092 -103.755848300631769 35.260016437440612 21 64 122
36.402899473859804 -102.932241351666946 35.255551612053175 22 65 123
36.469277768729910 -102.107582977326018 35.257855980712804 25 65 124
36.636343215485169 -101.281288979803890 35.263521842470993 25 66 125
37.004765464913362 -100.451214916403885 35.275952722467729 23 63 123
37.071014434556446 -99.623725210892573 35.278123465227083 13 51 113
37.439278544172794 -98.790040417167376 35.290462012656455 19 58 120
37.404768479573079 -97.962734196257514 35.289138824458334 13 54 116
37.571570013929602 -97.130565860775548 35.294578148558315 9 50 111
37.738321369403479 -96.297286326993316 35.299971665301996 24 63 122
38.810740375437774 -95.436187147887139 35.335939335834780 31 70 126
40.486647299649121 -94.549610957718585 35.392262411167366 48 84 135
41.759712019077995 -93.667787182260412 35.434918878947620 47 71 113
40.819252600654124 -92.862193669475346 35.402701561163042 33 70 122
39.677815463792967 -92.069645603165412 35.363648785236308 39 71 122
39.341251464425000 -91.248432091378902 35.351760382973573 23 62 117
38.803618708276019 -90.438082136465113 35.333032762537115 36 80 141
37.964430493144107 -89.645122433516008 35.304071114121484 53 99 159
37.225965583160360 -88.851393439282276 35.278472520343684 11 51 109
36.286592281015885 -88.072366274888580 35.246043790265574 30 61 124
36.151590322499430 -87.252654473658723 35.240755285333293 53 76 114
35.313040489127673 -86.475345152257447 35.211652347686552 2 3 3
30.320415790169363 -85.149200191994794 35.041323541835737 14 9 5
17.597538679254285 -82.088597812726789 34.606878345755810 72 47 49
16.460527330605203 -81.403307639322222 34.567440865014788 195 145 156
16.729461131823030 -80.605951082629218 34.575434199036913 128 76 88
30.985757822342578 -76.963819331508901 35.053028773880712 8 11 3
28.710142115767724 -75.556079095750036 34.973600412673704 7 10 0
29.545658750250311 -73.851766308415336 34.998982975645127 7 10 0
29.612158030885212 -73.033205318008697 34.999762625826179 4 9 3
26.870125017332214 -72.519287742143604 34.905804841904384 5 10 4
23.125784660120189 -72.131898053373575 34.778045882599343 5 10 4
28.407581966674002 -70.734886380276009 34.954532734942489 4 9 3
30.379270747448118 -69.695646817785445 35.019367882706788 3 8 2
28.540692604748358 -69.101171493723214 34.955751766719082 7 10 3
27.404253307549368 -68.430771004543075 34.915773676334268 6 9 2
27.972065551652861 -67.553354340538348 34.933177979471772 5 8 1
32.849365983451492 -66.121970158197755 35.095675355476075 2 5 0
34.418537045972528 -65.095622624498404 35.146683773132850 3 6 0
28.572471443653626 -65.048885328067044 34.947993018473738 4 7 0
22.827922711439214 -65.020275527884152 34.752756624613554 6 9 2
26.601597562636812 -63.702319333080425 34.877878936664935 6 9 3
32.678237643173361 -62.037734956068583 35.080404286643180 7 9 4
37.091024791071845 -44.727866383992776 35.181976612934534 174 174 174
32.859348192879793 -44.735416158310628 35.037640354336375 39 41 38
28.728549476357614 -44.745780227022408 34.896731467884855 19 21 18
35.518949480025299 -40.882875623666251 35.115946879394635 9 12 5
31.854904229665351 -40.010871399453215 34.987955917433119 8 11 4
33.418295052302710 -38.848636606879055 35.037459793508312 7 10 3
33.683464846848267 -37.964742308166748 35.043540552680682 6 9 2
34.148218408136245 -37.034674037679267 35.056265295928561 5 8 1
34.513049640763825 -36.124639497750465 35.065627695752184 5 7 0
34.877794023141689 -35.212570182115620 35.074964149862765 5 7 0
35.042872080062466 -34.344776937421237 35.077614576791653 5 7 0
36.006136075835286 -33.288622363594762 35.106878471287786 5 7 0
37.468011570790395 -32.108687286610326 35.152741367987204 5 7 0
38.331016301465013 -31.064565527398663 35.178593439895600 4 7 0
38.096634576829274 -30.282345193572915 35.167834189249376 4 7 0
39.657493486432259 -29.060133102518435 35.216896562660722 4 7 0
40.719385665443951 -27.953294680453798 35.249294127105657 5 8 0
40.385092011763675 -27.191387088445687 35.235158723012916 5 8 0
39.352981310816801 -26.608520163179577 35.197785652030454 7 10 0
50.318958445601766 -4.613947989765474 35.494204274287682 12 13 8
47.100737516992581 -4.760916060706256 35.384724018564285 10 14 7
44.678654233682096 -4.670706285948985 35.301641395276079 6 11 4
43.648922605357598 -4.144285822711501 35.264640251904517 2 8 0
42.619422780710011 -3.623349513494997 35.227682846546244 0 5 0
42.385288542858007 -2.846847637177667 35.217035704284136 0 6 0
42.449345578632006 -1.972796771900102 35.216258943461618 0 4 0
33.963909750303742 -1.462173359704444 34.924988078203988 33 34 28
28.367422741075302 -2.561798686708428 34.737720898273125 19 20 15
26.148829703294780 -2.517994639209231 34.661943858581878 21 25 18
23.698945334230075 -1.764923198245683 34.576067931843212 38 43 37
20.985241253208073 -1.928121890426734 34.484158014943205 41 46 38
19.165555929408129 -1.785516706103163 34.421766407969848 10 16 6
19.232140373872426 -0.971104281976944 34.421541421301292 6 10 3
18.107772956608073 -0.589859659549809 34.382141989863889 7 10 0
45.665338548031229 -140.841540630390909 34.688485313282627 146 177 219
42.897647509882120 -139.690231142807221 34.604208921728272 82 142 204
41.041382756464259 -138.654555678118669 34.548143065738991 69 136 208
40.197430552813387 -137.738127837898446 34.523429212882164 57 123 197
39.859551790689409 -136.879355516188440 34.514379832355523 45 113 187
39.319396016207293 -136.001262243173187 34.499028100261853 39 102 173
38.273558962170000 -135.075059563554987 34.467957638352772 49 111 181
37.329086775931160 -134.164047532831944 34.439997457972979 67 132 198
36.991619331562617 -133.315393878653765 34.430840337673807 30 94 160
36.856459221029468 -132.486901057395272 34.427932681259456 26 79 148
36.519090096951459 -131.640729507367723 34.418719495066426 74 109 171
36.282882275579084 -130.804853052678880 34.412616204155270 174 204 247
35.440175590295269 -129.918909836866447 34.387650674473228 155 181 218
34.496564644574676 -129.028977969210871 34.359516030205214 150 176 212
33.452083508114868 -128.135877768156888 34.328211870298155 35 59 99
33.620487317574884 -127.340383267507860 34.334543724188713 50 76 123
32.980485481373876 -126.484359667817557 34.315733261338835 9 35 85
32.542678044048785 -125.645787013123936 34.303169132821552 184 201 242
31.195761094199838 -124.747455151532151 34.262323008301493 176 191 218
31.061253182213250 -123.935284596295787 34.259111632109807 197 209 225
31.027759629501702 -123.129882546334983 34.259006397251923 211 211 217
31.297221258924651 -122.342536540121415 34.268284316239324 128 121 103
31.061727476679152 -121.524559282321604 34.261834502546620 158 167 127
31.028201552192115 -120.718590024580067 34.261628124507318 88 109 75
31.398482117935316 -119.933459775189320 34.273941496148254 76 99 93
32.172432931959008 -119.165894737308321 34.298773068817454 71 87 103
31.936888834827357 -118.346999197664985 34.292183597051647 156 169 190
31.499544869195233 -117.520279756806104 34.279282069504283 141 154 170
31.163193016439322 -116.699800665969889 34.269483364130743 158 171 187
31.634075040958464 -115.911821124853688 34.284752802939259 154 170 198
32.205721979808061 -115.124624533760837 34.303121515569686 36 57 105
32.676352158307111 -114.330750072080136 34.318313102274132 36 63 114
33.045999730434914 -113.531019320565576 34.330327527916083 68 97 139
33.415549915797158 -112.729029335498339 34.342302145834545 64 90 134
33.885842438710313 -111.927284412166031 34.357373572965756 58 84 130
34.255186631703737 -111.120509552349176 34.369266930027827 88 120 169
34.926884332344059 -110.317348830632540 34.390528994217036 25 63 117
35.295999991573296 -109.505251871772828 34.402338715318571 26 66 125
36.068195108579516 -108.696542822569000 34.426650846124296 28 67 126
35.933157321514614 -107.873182542831003 34.422695416790134 30 69 128
35.596593738727279 -107.048589162860821 34.412428641932109 28 66 128
35.360852723539608 -106.226172107330839 34.405257965674494 25 63 125
35.830391668413995 -105.407006306228453 34.419992154429409 23 63 123
36.199073931976272 -104.585017495403193 34.431547077954406 22 63 125
35.963304864849249 -103.762186072389426 34.424251849352316 23 64 126
35.929004809516300 -102.939397314644054 34.423184063854215 24 64 126
36.096105478202730 -102.115013511538280 34.428341416425226 23 63 125
35.860389079792469 -101.293707941234572 34.420922284930860 21 61 123
35.926753801875179 -100.469487940112771 34.422860775534545 25 65 127
35.791753261065594 -99.647889271061217 34.418491207789792 13 55 119
36.260714916811878 -98.815577384734183 34.432871651037971 16 59 122
36.427619940887041 -97.986944628798383 34.437810437181462 15 56 121
36.795743840943089 -97.152358894911430 34.448966675377520 20 61 123
36.861902598521851 -96.323646336997555 34.450684389038322 25 67 127
37.129257628789901 -95.488439825005884 34.458618262222103 24 65 129
36.994138742954931 -94.664540631659307 34.453987486990044 28 73 135
36.557271934903440 -93.851720734001944 34.439927127838168 31 74 131
36.221069969587347 -93.037297204343631 34.428956262257778 22 65 129
36.287196884483592 -92.208271128061043 34.430457562745680 27 66 128
36.856070408900905 -91.357029241991413 34.447551999756250 26 66 128
37.022630467287627 -90.520939545852826 34.452088697012343 23 63 129
36.485418877396285 -89.717930666824586 34.434695378563276 45 91 154
36.048838564259597 -88.912513027044696 34.420390484332287 41 85 145
35.109801769741637 -88.136437703115618 34.390421635419834 3 35 105
34.974947695878825 -87.319689445252735 34.385417060175939 48 72 129
34.036224877477764 -86.551308893578778 34.355379952560824 4 5 12
29.380142586064153 -86.019072837886540 34.209752864845527 6 1 0
16.225375153898881 -82.194891923874678 33.794952589833173 64 36 40
11.775747988809258 -81.782474265205366 33.655627342111430 190 140 151
10.037472107488384 -81.166382379543307 33.600502372600573 153 98 111
14.020774944921754 -80.063185142942743 33.723017512660888 38 3 8
18.103522117980503 -78.929183931918601 33.848547245762681 11 9 4
27.604171637442846 -77.272979639758077 34.142187965836342 7 10 3
33.691173312539149 -75.888905376739075 34.329748798017860 6 9 0
29.576195740516198 -73.844941934183367 34.197657584846326 6 9 0
32.551120250588497 -72.718010062673329 34.288398343900916 3 8 2
30.009941858053253 -72.174033271262374 34.207998531601675 4 9 3
26.667184104317698 -71.733143551850020 34.102732316800967 5 10 4
28.839339334001238 -70.681032019500805 34.168437114100058 3 8 2
25.798199973410703 -70.226183657305796 34.072487481291560 3 8 2
26.132259668519225 -68.581144541119116 34.079388802571117 4 5 0
39.217368796613130 -44.298676605163244 34.422575282233510 173 173 173
40.980620575505156 -43.106562137282289 34.474117834766304 33 34 32
36.450288217662660 -43.175230992097461 34.331993723653270 20 22 19
38.578030094403346 -41.066936004025749 34.391913540277926 12 15 9
36.945378965545956 -40.570520016899827 34.338931565687155 10 12 6
34.514328652512518 -40.252965769843257 34.261426795005789 10 13 6
34.080522832349288 -39.518096254079779 34.245297815470067 10 12 5
34.744867948848253 -38.545775514613823 34.262880222372786 7 10 3
34.909998481110620 -37.680130781457855 34.265106658863701 6 8 2
34.875486859303294 -36.858217747031176 34.261185603878310 4 6 0
35.240135667795812 -35.945997401186212 34.269494604491321 2 5 0
35.305364862607291 -35.100392351936733 34.268597380867718 2 5 0
35.769640610902854 -34.161765084020516 34.279918647108417 2 5 0
36.533071375956297 -33.150284245553912 34.300385820349952 3 6 0
37.396067830490210 -32.110902336754997 34.323875253033705 3 6 0
37.461007709912110 -31.258523770445397 34.322889339284970 3 6 0
37.127047072944947 -30.502700735255289 34.309675045247687 4 7 0
38.887053471050024 -29.233908244487580 34.360555876696310 3 6 0
40.646654643131910 -27.955489420152595 34.411379022481256 4 7 0
41.010240414823500 -27.018195719265513 34.419450788740434 4 7 0
39.280563777832811 -26.610688402693341 34.363490327643774 7 10 0
39.245561813541940 -25.777406361499381 34.359365857145924 7 12 2
49.186286550977741 -5.820062114005776 34.599903123545737 8 12 5
46.465704176843076 -5.804857804482834 34.514192469962850 5 9 2
44.541048573418777 -5.551946452504833 34.452706214719633 6 9 2
43.412047205921510 -5.054837231430195 34.415413519276491 5 8 2
42.780254906820176 -4.403309476253458 34.393239406355789 2 5 0
41.552326266308285 -3.949263904591108 34.353016912585979 0 2 0
41.517093220141476 -3.110220414182104 34.348989659575757 2 6 0
41.779935494335973 -2.172550573350673 34.354013974066220 25 28 16
44.029624978747790 -0.569927725330626 34.419242737412475 46 46 38
29.423615003938835 -2.993661751137221 33.968461882671747 19 20 14
25.814962669195836 -3.420412027648108 33.856550898201682 23 24 19
24.391485102152672 -3.107203000384162 33.810826597069301 21 26 19
24.656046560956611 -2.210161143509277 33.816197083595611 25 30 24
21.644759690547744 -2.468524473543676 33.722558796135047 44 49 43
20.619253459076674 -2.036514504718737 33.689013019143296 40 45 37
20.586412666346519 -1.253930123250141 33.685503306264131 12 18 8
43.467410814764150 -140.601038022665364 33.788626755160301 119 162 214
41.105349420586890 -139.501378636140572 33.723108711007342 84 144 208
39.856770441997696 -138.537661167522430 33.689089898260747 76 136 205
39.417797591502449 -137.668026967202877 33.677975144183193 53 115 186
38.776594816945760 -136.779065713217307 33.661102769960472 45 109 182
38.034375157663476 -135.882828135737412 33.641338121791833 46 107 178
37.191172585450317 -134.980132939889785 33.618680443891336 41 103 177
36.044776025155954 -134.052057099294814 33.587395722083791 44 108 175
35.909733186235201 -133.225836501552266 33.584750460438428 56 118 185
35.976905379421396 -132.418691211611559 33.587811895751216 22 66 134
36.044047534859317 -131.610880365840529 33.590846090855024 43 69 121
35.807927914985669 -130.776061541668128 33.585251732378332 84 110 153
34.763318885748390 -129.874145621797169 33.556693191900472 102 126 166
34.123147453791546 -129.010509493834604 33.539572928767456 17 42 77
33.179974934667598 -128.126140129146165 33.513822008560254 55 77 116
33.449382199150421 -127.338855765031710 33.522444900206494 182 201 247
32.607487805525693 -126.468225630184875 33.499500496472251 37 61 105
32.169804604733940 -125.630431853818394 33.487993277652585 146 166 201
30.924221790271758 -124.739732787420621 33.453519283351248 200 213 237
30.688769672880596 -123.921474094497867 33.447683508776358 201 208 223
30.352380685018488 -123.097877356347283 33.438948910602548 215 197 208
30.520872071135841 -122.306087690282652 33.444516159165701 131 100 93
30.184548569261381 -121.484202291560237 33.435716405865151 165 169 136
30.252050880356478 -120.685890974581739 33.438350353176183 80 101 75
30.319523620925111 -119.886939524459109 33.440950274776299 87 107 110
31.396151180094648 -119.136972173122587 33.472180486071096 89 102 118
31.564358380849114 -118.338705487797782 33.477576235925305 130 146 162
31.228034862959817 -117.517178003429819 33.468605082169304 134 147 166
31.093541567298644 -116.705489408258501 33.465331329680637 150 163 180
31.261683345723384 -115.905873452140852 33.470619763651762 159 175 199
31.530634730126906 -115.108680763216441 33.478737025400498 50 68 111
31.597810963487746 -114.303123395598320 33.481085330704033 34 57 111
31.866635778921193 -113.503044249751269 33.489127051492027 152 179 224
32.236213504641739 -112.704029267744488 33.499995399139365 77 102 143
32.605693961945349 -111.902757156965578 33.510824293949057 67 90 134
33.479100812893989 -111.110383239030227 33.535937213434643 106 135 180
33.848329991361197 -110.303237390663625 33.546684648985710 34 71 123
34.015898164334089 -109.490473450890335 33.551662631104008 34 75 137
34.082644285648087 -108.675144572727248 33.553736353202041 32 73 134
34.250120956539035 -107.860348035490205 33.558633822205110 32 73 134
34.417546306841132 -107.044402527684184 33.563490416228056 37 78 138
34.383447635385323 -106.226129736844698 33.562579502850063 36 77 138
35.054418385435554 -105.410026759314391 33.581668265087607 31 72 133
35.221656106567025 -104.589830440570310 33.586399409640336 27 71 133
35.187438450244599 -103.768955687663663 33.585364125941709 28 71 134
35.455287930705936 -102.946529936210297 33.592873335800476 30 71 135
36.025102039767887 -102.120094912542669 33.608923518114480 28 69 133
35.789430256671437 -101.298744121826061 33.602039376129227 26 65 130
35.654455726899812 -100.477131124272375 33.597975953628634 24 63 128
35.418853980140568 -99.657632832999326 33.591011487228563 16 57 121
35.686462032181907 -98.829848736539120 33.598306030358813 21 62 126
35.853374650051080 -98.002544356463446 33.602696735261397 21 64 127
35.617793300691744 -97.183796435706270 33.595608011332018 24 68 131
35.482852771787975 -96.363434091558048 33.591337535632775 35 79 142
35.549107081616114 -95.537675032725588 33.592741831370972 40 84 148
35.213027574879277 -94.724311104699055 33.582673127656946 22 66 130
34.877012566748647 -93.912580400114521 33.572565276201743 22 65 129
34.339954435037555 -93.110056861383725 33.556705520939573 17 58 123
34.707888899613522 -92.273736298025852 33.566511950784125 18 58 123
35.980507750263712 -91.396236124651466 33.601969827242158 15 55 121
36.549188824989244 -90.543870538320974 33.617387426401798 14 53 118
36.313663895974571 -89.727266646428305 33.609922248821775 49 91 152
35.173710479597787 -88.958145604155504 33.576734779866023 55 94 155
34.234975998645496 -88.184202666569249 33.549224368741442 33 71 129
33.999761665112032 -87.375298702616220 33.541649567504543 26 56 110
32.860427779572944 -86.621271873065297 33.508369960446259 40 39 55
28.506908524953246 -86.073195830617792 33.383828793235033 10 0 7
17.797352433011497 -82.848446248783944 33.074632274723619 25 0 0
14.853815785575193 -82.301163728984946 32.989989118546561 59 21 23
11.007601159634589 -81.843235167774097 32.879735593207641 177 129 135
9.570884770576754 -81.203692222261793 32.837790380248691 144 101 105
13.854333591166267 -80.075476993187891 32.957970588946445 34 8 9
22.451278035192956 -78.537586984547005 33.200329044202640 8 7 1
24.625434554587173 -77.545053684828957 33.260560733164652 7 10 3
22.284962401230075 -76.969327091348617 33.192820295189676 6 9 2
25.561952229068993 -75.857336784748554 33.284195038053369 5 8 1
30.308633277356421 -73.765701488615377 33.415549627922971 6 9 2
30.976591331938835 -72.880875859806594 33.432848390379718 5 8 1
30.040281740009448 -72.166612829477145 33.404690294799380 5 8 1
30.808347281030706 -71.267485985866742 33.424739607551167 7 10 3
28.869916420915274 -70.672976246220713 33.368162154248509 4 7 0
24.092460138663682 -69.623222214338298 33.229493044698444 4 7 0
44.667682201944217 -41.504025498049280 33.738777411569103 14 14 12
41.636347961294177 -41.268125205895927 33.650909849640009 17 17 15
38.406011896476741 -41.090097515691532 33.557498014993968 19 20 15
35.575745719135341 -40.845686695132628 33.475336069139928 36 37 32
34.842394458556157 -40.170337029973481 33.451947327060189 47 48 43
35.506561926798554 -39.197593045975637 33.467688127548691 31 32 26
35.671575638927891 -38.330163007795491 33.469424435984877 19 20 14
35.636971528058609 -37.505920637907224 33.465553462524902 13 14 8
35.502594943048337 -36.704156983611483 33.458874804958441 4 5 0
35.168714716576062 -35.948297559938268 33.446603145694198 0 5 0
35.533185692784230 -35.034031289826238 33.453844666866445 3 8 1
36.196797960584888 -34.048271375079175 33.469423618725052 1 6 0
37.259180259809398 -32.965150086435273 33.496115043857884 1 7 0
37.523557747549035 -32.065770023561974 33.500487235659513 0 6 0
36.890495554165398 -31.380612568161443 33.479788838910942 2 6 0
36.357271960806202 -30.674610831824527 33.461877123061967 3 6 0
37.718194832516360 -29.505761504224623 33.496803257467803 3 6 0
39.975872174934523 -28.106420933420139 33.556698200399872 5 8 0
40.439098599744455 -27.145695271848020 33.566516883800915 4 7 0
39.108489149843024 -26.638227328671451 33.526331468756950 4 7 0
38.575301731841080 -25.933184240443275 33.508377407185328 3 9 0
39.337406774872591 -24.894728195457702 33.526494602627196 0 6 0
41.394360388064570 -23.512288881144325 33.580632052998638 0 6 0
47.656178479935136 -7.143281204630886 33.700392459137532 5 10 3
45.532571125399386 -6.938681463524089 33.638511796803364 2 7 0
44.105255519653156 -6.526582752666284 33.595931908079763 0 6 0
43.075822996287854 -5.995950361644420 33.564387225157866 5 8 1
42.344758555900512 -5.375355915131705 33.541117969620792 3 6 0
42.210062116133031 -4.566096918493875 33.534344527663862 0 2 0
41.181188924595006 -4.048691788603133 33.502908135821677 0 3 0
41.145994253861090 -3.210476462271091 33.498926271725594 20 23 11
41.508137679799347 -2.240738818337665 33.505922242263630 68 72 58
43.260703160320304 -0.804540584064680 33.551267829465651 69 70 62
27.069769793255944 -3.777567408237742 33.096437072798537 22 25 18
24.852102178809048 -3.731029497571933 33.032616038100642 23 26 19
25.116570589833316 -2.833432154302361 33.037181617757263 22 27 20
23.098132808173830 -2.734415007383516 32.978948357301277 36 41 34
21.278637367104977 -2.576116105027292 32.926249032974944 46 51 45
21.543411719854532 -1.685652853931787 32.930922121399362 20 25 19
22.205001753942554 -0.651201800773194 32.946525113166544 10 16 7
41.675173436154125 -140.407518060799788 32.910457879599001 92 142 205
39.212674048435360 -139.300905583719043 32.848553833479592 88 143 211
37.964576513218333 -138.342038155496823 32.817754530964073 83 139 203
37.525896932930550 -137.477271630849486 32.807685673387120 56 108 176
37.390699254827098 -136.646624418522435 32.805376353350518 55 107 178
36.749908677100677 -135.764304919041905 32.790069611888931 55 108 179
36.513687718238316 -134.925708629866620 32.785116249534596 52 112 184
35.468712679240639 -134.009091253718111 32.759379053907395 40 99 169
35.030482688225788 -133.155402384079537 32.749184067546935 33 88 154
34.895564966005622 -132.331755638852371 32.746747177785956 91 127 185
34.962792598544922 -131.526644661278624 32.749473357155409 17 34 72
34.928936535637206 -130.712085864122542 32.749577300952240 119 138 175
33.985691792221814 -129.820812126704027 32.726298204323051 81 102 143
33.648829948614662 -128.983757594064656 32.718560615790238 88 109 147
32.705910599322920 -128.100431051285597 32.695223887720708 146 169 208
32.773271761436376 -127.298828320805839 32.697808251902096 158 188 232
32.032626805598113 -126.437208123899310 32.679602635660771 83 107 153
31.393119150525820 -125.586444631873533 32.663962082858440 125 145 180
30.551791812506906 -124.725098209239775 32.643101325491671 191 206 230
30.114490940858957 -123.894419040968359 32.632589872883067 194 196 214
30.081080447693353 -123.091135619271114 32.632426854040077 148 118 135
30.148603293982319 -122.293807491648622 32.634826755320816 118 78 88
29.913309682206375 -121.478485379484681 32.629410016594164 182 184 171
29.879889805001085 -120.675178716490947 32.629150140127692 180 196 190
30.149181811487040 -119.887489073536230 32.636640712328273 164 180 192
31.023768127972232 -119.127853953603676 32.659663597688649 142 153 171
30.889308120803548 -118.316302481607877 32.656707276812014 143 156 173
30.653992032474719 -117.500790853593458 32.651122575116055 128 139 157
30.519575588576288 -116.690430660569206 32.648097632006227 138 149 169
30.687723576264830 -115.892148613585519 32.652819406949916 151 165 186
30.956657655311687 -115.096291453895361 32.660098668303263 76 94 131
31.124690438466359 -114.295391006639278 32.664747434156752 28 50 99
31.393486681986928 -113.496373623819551 32.671952480209136 148 175 221
31.460600590224203 -112.690085004434252 32.673933464064540 87 111 153
31.628478090910676 -111.885684247194945 32.678469952820038 80 103 146
32.300209701466144 -111.091283743615108 32.695931552228615 94 124 168
32.467927106484751 -110.283195144026365 32.700390091972722 33 69 121
32.232559519511142 -109.467206449685392 32.694441046393663 35 75 137
31.997231629886699 -108.652250226357765 32.688454865393375 35 76 138
31.963414739025779 -107.840607466174674 32.687614584376362 35 76 138
32.533937428523416 -107.034103396717455 32.702283498859074 34 75 137
32.902892204318505 -106.223081371685865 32.711727828189247 35 76 138
33.573854592610871 -105.410778658539513 32.728902437655940 36 77 139
33.640511917716935 -104.594328406056448 32.730490877661985 32 76 139
33.707141155673810 -103.777287040802662 32.732038910174403 32 75 139
33.673075187545294 -102.960158975954968 32.730956686405690 33 74 138
34.544906495342104 -102.136017431498061 32.753137669654151 36 77 141
35.013949906397613 -101.311111627818590 32.764915952160656 30 69 134
35.180975366515383 -100.487404309892142 32.768884320601771 21 60 125
35.046085633325049 -99.667359980062457 32.765046186661586 20 61 123
34.911214065938282 -98.847836176626586 32.761168068746414 26 67 129
34.474564447061255 -98.035263727382798 32.749488381733514 34 77 138
33.635652240764557 -97.234523686090995 32.727424470243847 38 82 143
33.199222180957804 -96.427384382873882 32.715672031880253 37 81 142
33.366266523756224 -95.604639983790079 32.719397036816638 41 85 148
33.432708053984641 -94.784027049518386 32.720493785673170 25 69 132
33.599664552160561 -93.959348659084526 32.724133190933927 28 72 135
32.962329300800889 -93.163842170832822 32.707055574035095 34 78 141
32.827721770499465 -92.351329329356147 32.702861699431978 33 74 138
33.195670793188469 -91.517709861248164 32.711543511164500 42 83 147
33.965509143252802 -90.663488066974779 32.730509986884279 46 91 153
34.132253855341673 -89.834165502564645 32.733934159708014 44 88 150
33.595637499755185 -89.039820900850586 32.719245040558576 44 87 146
33.360517640016894 -88.231949803924294 32.712263188860049 34 75 132
33.225890938567488 -87.419490847130788 32.707822948292105 13 43 101
32.187334287474187 -86.661349235316692 32.680127311738453 61 50 70
16.823658391131005 -85.248620521018069 32.282415794929236 154 113 124
14.883862463434070 -84.609432420602204 32.231504334136716 132 90 100
15.052515681674095 -83.826533893165546 32.234680400949053 75 34 42
15.221121370276876 -83.042577185710456 32.237815780967836 78 36 40
13.482860868277669 -82.407413210908999 32.191991322887993 98 52 55
9.738038532447433 -81.944791319274316 32.094675546288570 144 95 99
8.602797310729215 -81.283173106382606 32.064281681223591 133 89 92
11.380465113787068 -80.288042093591372 32.134192811182089 37 12 11
23.486614289761746 -78.442470898334847 32.443186510251664 6 5 0
24.958013570212700 -77.511696305842634 32.479441587049543 6 9 2
25.426166087945717 -76.668049141684421 32.489934321750503 4 7 0
27.598943800400775 -75.655120132663015 32.544057774903393 5 8 1
31.441708015649795 -73.645111830551443 32.639243722619440 6 9 2
30.972663333569244 -72.061173771019270 32.623816276514560 4 7 0
32.241534317496132 -71.103452411486529 32.654525626186178 3 6 0
31.004852262945860 -70.424705402077620 32.621074558313424 1 4 0
29.768444815481473 -69.752594431869184 32.587608707912445 3 6 0
28.933061533181672 -69.039175796132923 32.564377556060691 1 4 0
45.792192729494786 -41.264646822070695 32.920754432866431 48 48 46
41.763100632833471 -41.229796209208786 32.815784345985733 42 42 40
36.636886730651042 -41.444627304427215 32.683093647174928 30 31 26
34.705770387015434 -41.015977416162741 32.631336540089315 49 50 45
35.070466221880054 -40.109010072978251 32.637673751325899 57 58 53
36.233374869040290 -39.027821078129463 32.664169619174331 51 52 46
36.597805424687294 -38.114610780420918 32.670440901541355 50 51 45
36.563090414759472 -37.287634395972582 32.666601765727876 40 41 34
36.029613490837676 -36.572490538137799 32.650148485990066 26 27 19
35.595996959916249 -35.837593437695219 32.636210721620515 11 13 8
35.162476194199144 -35.105009264820367 32.622268421090354 5 8 1
35.726241949193991 -34.143207829729143 32.633479899900841 6 9 2
36.389583288690915 -33.154864705977936 32.647177203226001 4 7 0
36.753680994061881 -32.233949459249345 32.653304440775379 2 5 0
36.320213268508098 -31.502740600468844 32.639314524778577 2 5 0
36.584555988876616 -30.604172800819825 32.642898108727550 1 4 0
37.347145775602371 -29.581567963244588 32.659010139293933 1 4 0
38.408510425423401 -28.480419524104661 32.682615864693517 3 6 0
39.170711574431607 -27.448599902997472 32.698664205685006 3 6 0
38.836828259949527 -26.691135627648404 32.687124730852865 4 7 0
38.702251463833022 -25.884246638151971 32.680594200118158 1 7 0
39.264938779470526 -24.896978684634718 32.691579296421125 0 5 0
41.420995378744010 -23.488412863000967 32.742566099432416 0 5 0
42.680314758170198 -22.305725004572800 32.770989451258075 0 6 0
47.816431084970020 -7.940561173197157 32.850995468890787 5 10 3
45.196053249472811 -7.883323355889972 32.782418428448032 2 8 0
43.868330841400109 -7.437148674071224 32.746131215975481 0 5 0
43.137175907943913 -6.810433639203421 32.724748637469510 0 5 0
42.406184871717130 -6.187595947444132 32.703397098049123 0 2 0
41.874068030459227 -5.504995835063516 32.687025327303708 0 3 0
41.938132623069691 -4.632655838268878 32.685517086256645 5 8 0
42.002179373465594 -3.759858824166622 32.684022171535176 40 43 32
42.165529387084121 -2.853972867568643 32.685011692609521 81 85 72
41.534360153513717 -2.210270280988246 32.666263419582506 89 92 80
40.108943714455108 -1.835229206350972 32.627808585451042 67 68 60
35.903809006432141 -2.404098788147735 32.520351719979935 18 19 11
29.416287095291750 -3.771013801237766 32.356323482360800 23 25 17
26.007441821422617 -4.119751108072837 32.268856655181693 23 26 19
24.683687437176161 -3.767679761414309 32.233210333341162 23 26 19
24.650375317788132 -2.973934105505496 32.229616633491283 24 29 22
23.327070699869921 -2.632484287375675 32.194064418227910 37 42 35
22.301721892423984 -2.192917121283797 32.165945160938350 49 54 48
22.764720842048689 -1.228856142881817 32.174741967847339 11 16 10
44.157541579477027 -165.564744891674025 32.099459463386573 143 24 64
44.934917726586264 -164.891386895268710 32.118637952231289 178 77 110
46.117990035132948 -164.291104990620653 32.147090565864247 112 14 44
46.184738752379360 -163.473978371368275 32.150054146441917 120 19 49
43.357667219559858 -141.449400756109014 32.120050735378840 139 170 206
40.389498988160483 -140.272787926473995 32.053043064685035 76 131 195
37.523122260440061 -139.123331951786042 31.988330380153833 85 137 201
36.174351589433968 -138.157534432618803 31.958428455281943 64 106 152
36.140436845493809 -137.341222093551096 31.958696042567571 28 56 103
35.904295965585106 -136.503396533739362 31.954295397641722 62 99 157
35.668192992598051 -135.666532336265817 31.949871032486335 48 93 158
35.432127932595449 -134.830630795679610 31.945422397585844 49 103 169
34.690723533308187 -133.946316879389173 31.929334433253608 53 107 174
34.050534411420983 -133.075295347307161 31.915543594516759 49 93 154
33.915737883266274 -132.254072675923680 31.913341591523171 133 158 203
33.881998182582265 -131.442331843494514 31.913436399104466 1 9 36
34.050311495680660 -130.648042178050076 31.918150615054635 47 63 95
33.511440442761796 -129.792954132998375 31.906576223391902 53 74 110
33.578720393348874 -128.989916797526831 31.908912417891589 71 93 127
32.938997356080336 -128.130446027945908 31.894958929472196 110 134 171
32.501372793850067 -127.289523865912187 31.885622955648678 47 84 128
31.659937879252823 -126.420983239432729 31.866965894797449 103 130 177
30.818677318463017 -125.556697155711589 31.848279747861117 100 118 157
30.179492778648694 -124.710421566426078 31.834210170478016 183 191 219
29.944195148887047 -123.893729821445234 31.829402393498199 201 201 222
30.011720222065492 -123.097019147444271 31.831532545557941 147 118 139
29.978298933166968 -122.293603462006431 31.831308578999305 143 102 124
29.743060002605205 -121.478518374550760 31.826407632938103 194 196 204
29.709647726951744 -120.675452317302060 31.826120123195444 154 168 179
29.877994017016249 -119.882769617051423 31.830445055062093 144 157 174
30.248030759083463 -119.098834266373188 31.839381311516405 163 174 192
30.113670224655380 -118.289158570683639 31.836672235411804 106 117 135
29.777628665974248 -117.471100683547760 31.829285631864650 147 155 174
29.643323192636956 -116.662889097970009 31.826509716176339 142 150 171
30.013163178788659 -115.874508624266028 31.835308461517016 134 150 166
30.886978111071301 -115.101864111793432 31.855678894629413 108 126 157
31.155763433465268 -114.304259177651687 31.862082603071428 31 53 99
30.920515661295894 -113.489667811905591 31.856843740179954 64 91 135
30.483746539186541 -112.670533629533153 31.846927961740484 26 50 91
30.550907111973515 -111.866051908498406 31.848581512587884 44 67 109
31.021069171667591 -111.069891771506704 31.859480185270812 63 90 133
30.785888154307088 -110.257205675999089 31.854097995636749 44 77 130
30.852951215204769 -109.450612083610977 31.855639805107224 39 79 141
30.617815509519460 -108.639168224576551 31.850184734279260 33 77 140
31.188415826469281 -107.837886440037963 31.863248659202064 33 77 140
31.154670111222629 -107.028063892055016 31.862356607948115 31 75 138
31.523675823302653 -106.220564750756552 31.870701776894443 28 72 135
31.993262806608129 -105.411148880343745 31.881324617143676 23 67 130
32.563396946710895 -104.598998592348664 31.894223756958038 22 66 129
32.529458883089035 -103.784880619485406 31.893173297693473 20 63 126
32.294228452586026 -102.971720985204172 31.887449073116414 18 59 123
32.562199785795485 -102.155750289699952 31.893272440012904 28 69 133
33.031339455247860 -101.336009474145044 31.903687515437966 29 68 133
33.198532033779827 -100.517462107101778 31.907110423323910 23 62 127
33.063880286492065 -99.702572804240134 31.903544607108046 31 71 133
32.728073607220722 -98.891938951749552 31.895309147431647 39 80 142
31.889455023305231 -98.093627799974229 31.875461831526760 49 90 152
31.151578506609667 -97.297258611679553 31.857896464144059 42 86 147
30.916619411358113 -96.491261590954437 31.851867911922888 25 69 130
31.284947600202202 -95.668574815887212 31.859682630854515 22 66 127
31.351591946487645 -94.853394067788344 31.860514437338445 13 57 118
31.518727762421520 -94.034149389096115 31.863617791881069 26 70 131
31.384294148569438 -93.225152542422549 31.859743099436628 30 74 135
31.350375090259490 -92.412645063578211 31.858140905907227 24 68 129
31.316452605213556 -91.600138818663581 31.856498693035757 42 86 147
31.382999248024078 -90.783033832188238 31.857126795349231 43 85 148
31.851363882302280 -89.945882599240122 31.866952736138384 35 76 141
31.716913768231677 -89.136907386256581 31.862877838225288 32 78 140
31.883798047788048 -88.312221632524427 31.865689796540146 37 74 134
31.448073497818257 -87.520642175820711 31.854611774377901 28 43 100
28.803301202281261 -86.862629618880518 31.792738455669529 95 68 91
13.576680724741550 -86.234621712758724 31.440681889937117 137 94 108
10.432910886030243 -85.680392430785389 31.367333742617042 159 112 124
10.903152575325635 -84.888812467215146 31.376957631197541 125 76 87
11.473636268160874 -84.087191557099473 31.388841871845614 82 37 44
13.649528496940547 -83.160533166526903 31.437532451332682 123 74 78
11.309828446515269 -82.576723617108428 31.382542723195456 132 82 85
8.569357466675910 -82.038169841701844 31.318343439545473 130 81 84
7.835750872828442 -81.345779446245857 31.300168562656125 117 73 74
9.910730626644181 -80.413502476567714 31.346375220184001 52 26 23
22.014183679182224 -78.571877097319884 31.622458937569903 4 5 0
22.181773343969610 -77.765194010725310 31.624775301489130 5 8 1
28.365316992730243 -76.385920321156760 31.764923053014932 3 6 0
27.329064617855977 -75.678356337882079 31.739546199233367 3 6 0
32.207424872994636 -74.382040673385816 31.849625235055456 4 7 0
31.872580766435590 -73.596992539670822 31.840225939023384 5 8 1
34.375390931106779 -70.861317106178717 31.892085031092112 2 5 0
33.238927559905221 -70.165069987253261 31.864194240359211 1 4 0
40.592228236517030 -41.457171936807910 31.950137622275278 74 74 72
37.662904352686098 -41.219375598892952 31.880981329609458 60 61 56
36.131260431545797 -40.703784047137219 31.843434123422327 33 34 29
36.395918556646620 -39.813974428639511 31.846457181773111 44 45 40
37.658151567560651 -38.707449495244617 31.871971454985680 52 53 47
38.321577408306780 -37.724766085941638 31.883933606729691 63 64 58
37.588472694547875 -37.047343883458240 31.864373150845633 58 59 53
36.955261825765376 -36.351529328828171 31.847062107102850 48 49 41
36.222474047055471 -35.681725066002741 31.827504193443801 39 41 36
35.689264277564178 -34.970102846219220 31.812440220785838 21 24 17
36.153128147205507 -34.029815252580846 31.819816539540987 14 17 10
36.517198690344685 -33.110377859374324 31.824924276556125 7 10 3
36.881182875686306 -32.188910294096786 31.830009531912800 3 6 0
36.547451563671643 -31.433177426593666 31.819390786643719 1 4 0
