ply
format ascii 1.0
element vertex 702
property double x
property double y
property double z
property uchar red
property uchar green
property uchar blue
end_header
53.450650546676741 -101.153053616012812 -179.257735657319387 2 5 0
52.365945884546591 -100.251012233233553 -178.591628841213605 2 8 0
51.471744850894652 -99.351917606911485 -178.046854844077274 1 7 0
50.767979535903919 -98.454137248713295 -177.623414120251908 0 3 0
50.825229577161565 -97.543627549005436 -177.685073341229383 0 5 0
50.882450278297711 -96.632586206516535 -177.746815835554571 3 9 0
51.034726869997428 -95.718399730848546 -177.869269730338061 4 9 0
50.426359910072392 -94.826207271141243 -177.506777543841594 2 6 0
50.198372579799297 -93.924661413526749 -177.386878971099151 5 9 0
49.495167483600824 -93.041347607650494 -176.963912592637570 4 8 0
50.027633236078941 -92.113752039283824 -177.329211563216603 0 3 0
50.369898830338798 -91.190841346375151 -177.573336652537648 3 6 0
50.236980541705577 -90.286974218840726 -177.514392273045189 7 9 0
49.249024935652358 -89.424285869875348 -176.909844712059908 8 10 0
48.071300131718601 -88.576607200278829 -176.184103605939100 7 9 0
48.413571607405686 -87.654515406457691 -176.428552760120425 4 6 0
48.660773246646613 -86.735577038286465 -176.612454946285055 1 2 0
49.382701892940247 -85.786993713057726 -177.099612144945752 0 3 0
49.060001127562657 -84.898669227832301 -176.919881965469045 1 4 0
49.306987649837197 -83.975095039195423 -177.104041706264326 2 5 0
49.743751276264959 -83.037047244667079 -177.409560462732713 0 2 0
50.560053786099672 -82.069514891072373 -177.957716531627142 0 2 0
50.806721938480109 -81.138846326607549 -178.142145782656456 0 2 0
50.673744809361835 -80.235466959404619 -178.084111770488875 0 2 0
50.540782450452923 -79.332618055935470 -178.026161566777375 0 2 0
49.838617407301740 -78.476958103807817 -177.604456850176604 0 3 0
49.326319797786653 -77.608990905295443 -177.304108116422810 0 5 0
48.908974479433311 -76.735404403821519 -177.064479255865592 3 9 0
49.060724339779142 -75.812420811011407 -177.188785587370660 1 7 0
49.212420138363541 -74.888329527892182 -177.313184081936299 0 5 0
49.174436417146524 -73.981400809610349 -177.316387048188346 0 5 0
48.946841352733884 -73.093264312216007 -177.198389607148101 0 6 0
48.245333526448121 -72.254588658093510 -176.777247565548606 0 5 0
48.017868515799307 -71.369935405723126 -176.659419973136835 0 4 0
48.548576521238203 -70.404554539074169 -177.026868687826891 0 5 0
48.889626973498309 -69.456871993192166 -177.273125410183781 0 5 0
48.756855228633356 -68.560819087270048 -177.216232958002621 0 5 0
48.718829416125175 -67.654237990118219 -177.220086531611912 0 3 0
49.249122479005223 -66.679755886356432 -177.587955924781909 0 3 0
49.968688607432966 -65.678808151679107 -178.077247306418144 0 3 0
50.403965866916280 -64.709035924482436 -178.384692573360894 0 3 0
50.555056748931293 -63.772884796695777 -178.510282330155832 0 3 0
50.422063795179554 -62.872800532194127 -178.454006685693457 0 3 0
50.951733381436952 -61.884520114366296 -178.822449263714219 0 3 0
51.291948773558829 -60.918815687663823 -179.069693279202568 0 2 0
51.348136760191494 -59.990532062415753 -179.135070275575544 0 3 0
51.877440670662168 -58.994219739842322 -179.503878192250738 0 2 0
53.068925993156881 -57.898277900185207 -180.297470935529702 0 2 0
53.503244066200864 -56.907456772034806 -180.605883688978423 0 2 0
53.086073428668612 -56.042586653318232 -180.368414570845346 0 2 0
53.898577762373407 -54.990356385011566 -180.919756500493520 0 2 0
53.954280156821028 -54.051945957217036 -180.985876489645705 0 3 0
53.631700816261628 -53.173405834397400 -180.809429723812514 0 3 0
53.025526930799401 -52.342607813486076 -180.451072734192564 0 3 0
53.270323176292550 -51.374033355961501 -180.638907598013645 0 3 0
53.420509602881452 -50.419691305129120 -180.766202266112828 0 3 0
53.287089234288942 -49.512812089652222 -180.711594072563997 0 2 0
53.248181282400026 -48.589921268311642 -180.717795695039030 0 3 0
53.870706478173929 -47.549683081109691 -181.148916179110643 0 3 0
54.493055671457171 -46.505552014020431 -181.580199556717105 0 3 0
55.870985254693323 -45.319146140356665 -182.497148334287999 0 3 0
57.248554083422846 -44.124483424092396 -183.414298220815795 0 3 0
57.870188779953025 -43.064296082864089 -183.846121943758590 0 3 0
57.736164910531386 -42.145117306390034 -183.792574048934938 0 3 0
57.507723393367598 -41.244773626695739 -183.678476576500714 0 3 0
57.468134660600356 -40.308101515716274 -183.685918887981842 0 3 0
58.466934251645512 -39.163077252977637 -184.361216742559805 0 3 0
59.654240200538709 -37.973543313499938 -185.158126791730524 0 2 0
61.690625256598025 -36.601522437034284 -186.501599138800941 0 3 0
60.801138880874703 -35.829625858446462 -185.963424834464774 0 4 0
59.628777464174732 -35.122584526700223 -185.243247924285555 0 2 0
78.151843372854444 -2.841738226451307 -198.264173358764424 182 179 174
75.852245185260983 -2.505873251704783 -196.820390765110574 136 133 128
75.151258323703701 -1.703121318533267 -196.410439245434702 151 145 139
75.390330015212953 -0.618965328076577 -196.608851601506871 140 133 126
-30.696145289355428 -0.836441342506117 -129.639000677511461 145 138 120
-72.902988444472044 -1.173635282898703 -103.355715396963674 147 140 122
-74.047577970912073 -1.167132614026158 -102.651104733556167 146 139 121
-81.095937966623950 -1.360235888608226 -98.303166811697139 147 138 121
-84.922620492544155 -1.123919701370382 -95.982775507108911 140 135 116
-86.277532114664183 -0.715849769713953 -95.194180454334884 147 141 125
-87.790651555339338 -0.998802196091024 -94.244622549962202 146 139 123
59.170162467588341 -158.628410351184641 -182.556377323096882 162 128 120
58.078150125139132 -157.525580440170273 -181.878303295341425 84 47 42
59.860510701597661 -156.889808025782116 -183.028985401964405 163 121 117
59.918154309534145 -155.972225463864362 -183.082732666542086 210 162 160
60.646240598139514 -155.157976910548172 -183.563300150614168 244 194 193
60.416426888830131 -154.194098905650350 -183.434598498767599 220 169 168
60.282407364594633 -153.245745158036613 -183.367044119355143 199 149 148
59.669656521578418 -152.228114081135288 -182.994987906653705 203 153 152
59.344242242456801 -151.255083020427890 -182.805958990460141 211 163 159
59.210337635721999 -150.310739920820026 -182.739000916898675 201 154 149
60.033596350996390 -149.498861399677821 -183.281577202003803 183 140 133
60.569531915611606 -148.643498695667517 -183.641505637199145 165 125 115
61.105323245008094 -147.784999547756286 -184.001593299814346 147 109 97
60.492792691861609 -146.775056036356460 -183.630679880682663 138 100 86
62.750494992018730 -146.131095484391523 -185.087808223996944 132 95 79
63.572763799980521 -145.296972018742508 -185.631133325618094 132 96 79
64.968708279374482 -144.527307080219458 -186.540154413753811 133 96 78
65.407940646410452 -143.636904969898410 -186.840059450404567 139 104 85
66.229553057927944 -142.787875446142863 -187.383806608663292 147 112 93
65.521127441183239 -141.762493255664992 -186.952947594208325 155 118 99
65.386467496097566 -140.803739194188267 -186.887786873019451 163 126 105
65.156229231419047 -139.835461530884317 -186.761865610891959 184 149 129
65.595090320573831 -138.937713824762454 -187.062528756538057 202 169 152
64.409152935597604 -137.873592510861130 -186.327744011073747 216 183 172
61.407874174361837 -136.638270531242114 -184.435730966594150 236 205 197
58.407283568961020 -135.419935556956659 -182.543925899058564 55 36 31
55.885059098842760 -134.262657802085755 -180.956892306994661 6 1 0
56.515712493480748 -133.401543126520579 -181.380174931433459 0 2 0
55.140426337480847 -132.363022847804899 -180.524425689334862 7 9 0
54.147454171206959 -131.364203058833596 -179.912478730694204 12 14 1
53.345680070256037 -130.386360998915904 -179.422499701409834 8 10 0
53.785308821775402 -129.509847934716021 -179.724487947912962 21 23 12
53.365604867780348 -128.566056088956799 -179.478413997664234 22 22 12
53.232353498971179 -127.645241483742865 -179.415194941917918 20 20 10
52.335552826028163 -126.671947259498623 -178.864838177314937 17 17 7
52.393289723224370 -125.767265798793289 -178.923683552196934 17 18 11
51.973881593221620 -124.831643306622425 -178.678113750895136 16 18 13
52.127026385331305 -123.933182423249832 -178.798100550529995 14 17 10
51.803116413115504 -123.005953383133715 -178.613673024278143 11 17 7
51.574655847812380 -122.085691750772668 -178.490266535844569 11 17 5
51.060099337131248 -121.151563596408806 -178.184259859214308 10 16 2
51.117848051354031 -120.248601407061599 -178.243791714980659 9 15 5
50.794145599659714 -119.327308805482460 -178.059816220288724 10 13 4
51.328600236607201 -118.445387681149498 -178.424079855341006 8 11 2
51.767579565324922 -117.556335017043324 -178.727541964834785 8 9 1
51.062580971384818 -116.620886293501158 -178.300272233639390 8 9 1
50.071802688352136 -115.679176253816991 -177.690401490591057 7 10 0
49.843634531654686 -114.767745611045186 -177.567854957675905 4 8 0
50.758956126613498 -113.891374529305367 -178.176234246320519 1 5 0
52.055150262404652 -113.019825508658457 -179.028316705002965 1 5 0
52.207840699386338 -112.113296264694782 -179.149671775238119 0 4 0
51.884210290326223 -111.195657429298763 -178.966615195365307 0 3 0
52.036852979109653 -110.288383372843612 -179.088163373454933 0 2 0
52.189443565698355 -109.380054621056274 -179.209806518547794 1 3 0
53.198960603076159 -108.481431899143416 -179.879657768154914 3 5 0
52.589676974354347 -107.561150747342580 -179.514276208724766 2 4 0
52.646902726822475 -106.648724812318733 -179.575298230674861 3 5 0
52.132983494460689 -105.733501477735302 -179.271002371734426 3 6 0
52.285392735854998 -104.821779688040323 -179.393108995508129 1 5 0
51.961933411069367 -103.909812699684082 -179.210797120557231 2 5 0
52.019143008109893 -102.997756972397582 -179.272182128750643 6 9 0
52.266604410309469 -102.083763414115651 -179.455460861827163 3 6 0
52.228603001219938 -101.171096065602754 -179.456122150425557 0 3 0
51.524768592080363 -100.267205133671098 -179.030553317818828 1 7 0
50.725979109995137 -99.368659878043445 -178.544165724749348 0 4 0
50.688126825635834 -98.460120106646485 -178.545085656044847 0 5 0
50.840435674195589 -97.547460511451575 -178.667898810387555 0 6 0
51.182837644648373 -96.629048627089801 -178.912606817643393 3 9 0
50.859712347963807 -95.726746171462082 -178.731074755323107 7 9 0
50.251497899348749 -94.834731273979244 -178.366912668221602 5 7 0
49.358296308211493 -93.955449098256494 -177.820116502811402 7 9 0
48.845401152399745 -93.067362948262314 -177.517018976126451 3 5 0
49.377788497132997 -92.141324731589179 -177.883965123351231 1 3 0
49.625018509576137 -91.223937597730526 -178.068282905813987 7 9 0
49.682186535447215 -90.313405238488400 -178.130874981020526 7 9 0
48.409576760365951 -89.465517029479045 -177.340851042561866 8 10 0
47.991990413751125 -88.581630307044861 -177.099068189598682 6 8 0
47.954324595063611 -87.679689126752663 -177.100999171150761 2 4 0
48.486338866874803 -86.745772528723222 -177.468469211995853 0 1 0
49.113145873068902 -85.802989353598562 -177.896941629901050 0 2 0
48.980384491206394 -84.903375024852792 -177.838226253122969 1 4 0
49.322207339029092 -83.973576114515737 -178.084150587301451 2 5 0
48.999614011644951 -83.086507546912614 -177.903784989435223 0 2 0
49.720883289069661 -82.127492567055540 -178.393538875426628 0 2 0
49.398285330546116 -81.240675543866757 -178.213346896643515 0 2 0
49.455220972584357 -80.326550543487940 -178.276894232003087 0 2 0
49.322411584390863 -79.426875244402638 -178.218702064130383 0 2 0
48.810234029262574 -78.558830171410435 -177.916934695222466 0 2 0
48.298161764951089 -77.693487137264029 -177.615248397806567 1 6 0
48.355131965643523 -76.780929861687014 -177.679148046363821 4 10 0
48.696505163013001 -75.842036250106645 -177.925895545158113 0 5 0
48.658577995534245 -74.936398168866859 -177.929065191490196 0 4 0
48.431064395864894 -74.049007080524788 -177.810486975179174 0 5 0
47.919255245380384 -73.190899492431114 -177.509234444634302 0 6 0
47.691848554993499 -72.306449448854650 -177.390833010984039 0 5 0
47.369723501681676 -71.433010280689729 -177.211599231867353 0 4 0
47.710859223943430 -70.489616779328870 -177.458926570272354 0 5 0
47.767698806348903 -69.575500394193014 -177.523583318193005 0 5 0
48.582268283238704 -68.574677556938198 -178.075754956527220 0 5 0
48.828368822741140 -67.635155138211402 -178.262479898048355 0 3 0
49.074390609336206 -66.693965172555465 -178.449313286748236 0 3 0
49.793763878246182 -65.693194907581812 -178.940908665019236 0 3 0
50.323594438081557 -64.711741779632376 -179.310765016134667 0 2 0
50.285297548552592 -63.799740231532354 -179.315144692526303 0 2 0
50.152337720464061 -62.900093485591270 -179.258697190738189 0 2 0
50.587231803544967 -61.924924388332158 -179.567969690383620 0 2 0
50.643484181295321 -60.998756567945449 -179.633617924702918 0 2 0
51.078172037064348 -60.019138236517342 -179.943134949566087 0 2 0
51.701945688945841 -59.009775178450163 -180.374660114433340 0 2 0
51.852573664639635 -58.065341507751214 -180.501614075637974 0 2 0
52.003143348756623 -57.119763624823783 -180.628691398382671 0 2 0
51.964510972850007 -56.201644506538400 -180.634004808870912 0 1 0
52.871468554662499 -55.137717393041214 -181.248901426789757 0 2 0
53.683634869768923 -54.083131555961600 -181.803005862950585 0 3 0
53.644744900052274 -53.159653337205533 -181.808719582656408 0 3 0
53.794892874465461 -52.205324858282609 -181.936463185573359 0 3 0
54.134009696181749 -51.218510398007581 -182.186249237631472 0 3 0
54.095008407142018 -50.293188303263982 -182.192361772698177 0 3 0
53.678026410083305 -49.432622821600233 -181.954781317640595 0 3 0
53.355601233566858 -48.557677362806714 -181.778280279975377 0 3 0
54.166851862632029 -47.483254401282373 -182.333431353747045 0 3 0
54.600051898931440 -46.471945957791007 -182.644908020293798 0 3 0
56.355358379758684 -45.215666369125913 -183.810049535938617 0 3 0
57.260305216909387 -44.107073854871444 -184.426715717378841 0 3 0
58.165005162846853 -42.992940638559652 -185.043572187608561 0 3 0
58.030936632410999 -42.072521982015274 -184.989945052125449 0 3 0
59.407265461189070 -40.858358218291997 -185.912034000282802 0 3 0
59.744963064698254 -39.841170946651737 -186.163620506781342 0 3 0
60.460055883004770 -38.745969721691260 -186.659294926420216 0 3 0
61.080580536760351 -37.665502688509925 -187.094189902621565 0 2 0
61.889631244922725 -36.542152212068686 -187.651248383301095 0 3 0
87.363276376162048 -2.188381489085966 -205.245953282860995 136 134 130
82.900213284304414 -2.443038275087506 -202.391112519494186 129 130 126
79.190251057103978 -2.501782310794328 -200.024808438984337 200 202 197
75.669154289848962 -2.525735224472998 -197.780633699292054 109 112 107
74.122481544585867 -1.976995346981205 -196.819292033211212 153 152 147
74.173615401968391 -0.952273313906066 -196.896689945405825 136 133 128
-73.050414365340515 -1.194079824933270 -103.905865001309522 147 140 122
-76.055170839992741 -2.183369906276529 -101.962101718673566 145 138 120
-84.482803739633596 -1.404818280152597 -96.836273806239731 142 139 120
58.743019893747828 -159.509939010277833 -183.269076501009948 199 165 156
57.459614225181156 -158.372916291191302 -182.464959550828610 169 135 126
58.283905655561796 -157.587266939878845 -183.008200401559549 74 39 33
59.395326681318352 -156.842978115278441 -183.735300310480227 150 110 106
59.453005457156053 -155.926282892310127 -183.789067400574709 201 153 151
59.510651037830598 -155.009215090895538 -183.843038213211116 232 184 182
59.472516501679308 -154.077223774583786 -183.835987258184900 206 156 155
59.625843016471606 -153.173944535862773 -183.951578135517991 189 139 138
58.630418425416906 -152.101730161041900 -183.332739609791076 192 142 141
58.018061056144859 -151.090043191537490 -182.958999463035241 193 145 141
58.458552705797558 -150.229780727841188 -183.258832773189084 187 142 139
59.760141939844914 -149.485566595393209 -184.109751032516783 172 128 125
60.965727679315421 -148.720945610887156 -184.899594701700778 159 118 111
60.927319371475960 -147.785111020364184 -184.893855332214770 141 103 92
59.932326380610107 -146.725790015443579 -184.276218510186084 133 96 82
61.615643167892699 -146.010567470641604 -185.372563930829898 131 94 78
62.629101292377754 -145.202936589480174 -186.040595780245837 130 95 76
64.024798459096360 -144.435607830428012 -186.953580085742885 133 98 78
63.699122232038917 -143.457338115356293 -186.765059196696058 138 103 83
64.138315066177427 -142.568814051553176 -187.066317515613036 145 110 90
63.430303959258822 -141.548969688344073 -186.633338166551823 150 109 91
63.582651332329078 -140.627135929743275 -186.751319383839245 166 128 109
63.734944553831326 -139.704322488499628 -186.869455032807167 191 155 136
63.504957646474281 -138.740893805409712 -186.742961193174949 209 175 163
61.364100953242371 -137.585947627228109 -185.392741057043793 224 191 182
58.650525282414833 -136.386914356965150 -183.675562047854925 122 98 90
56.701752503511784 -135.275962463395587 -182.448127468078042 9 0 0
56.090582608801810 -134.299457064839800 -182.077553755204434 3 2 0
55.002037403717338 -133.283582618409014 -181.401182847647760 91 95 81
53.913731105400814 -132.273788649861189 -180.724971736360146 4 7 0
52.921141712016208 -131.278072633391815 -180.110105234431984 8 11 0
52.692501767502222 -130.349714660410683 -179.984889675432044 16 17 9
53.418452060476625 -129.497088402754514 -180.471675756202842 21 22 14
52.712552922644477 -128.532421483859963 -180.040790791362696 20 21 14
52.579400309498396 -127.613111273184671 -179.977155083138541 17 18 12
51.396624982236119 -126.621382831583190 -179.240617461338871 16 17 11
51.645266672166201 -125.731766375219379 -179.421976767345200 15 17 7
51.321438704800016 -124.804013166969412 -179.236354921093493 14 18 4
51.665385046804886 -123.918717769907389 -179.479134919142126 13 17 3
50.769338897499210 -122.959148516325712 -178.926662017563899 12 16 2
50.350314184924002 -122.030931021103044 -178.680222841806398 12 16 2
50.312787964882261 -121.124974202966143 -178.678626590529632 12 16 3
50.656625016662701 -120.238010300978473 -178.921865949110213 10 13 6
50.523707301229365 -119.326612654315653 -178.859312585156772 7 10 3
50.676765134933191 -118.428381296045487 -178.980409752953761 7 10 3
50.925079318726375 -117.533029573392497 -179.162793853442707 6 9 2
50.696830586096553 -116.617863969811154 -179.039387751194795 3 6 0
50.468619680698851 -115.703832798641159 -178.916089077974817 2 5 0
50.049896650267954 -114.784730466619266 -178.670539094270481 0 3 0
50.869684923051125 -113.904634347552332 -179.220413958599494 0 3 0
51.594010310997419 -113.017124922414283 -179.709209560952843 0 2 0
51.841942174677456 -112.113873557425734 -179.892213785391334 0 2 0
51.327960457740119 -111.192917178861876 -179.585894365553912 0 2 0
51.194958657708639 -110.281683637874977 -179.524387008042538 3 4 0
52.204459021008745 -109.388666434338333 -180.197111637349025 3 5 0
53.023311733846469 -108.487302692991406 -180.747577504434474 1 3 0
52.699738389956678 -107.569963168171910 -180.564007497183951 1 5 0
52.471399040087931 -106.654938591940763 -180.441711527900225 1 5 0
52.338259779287228 -105.741411507087193 -180.380688668661804 2 5 0
52.490588065233794 -104.828784863753327 -180.503293933781322 4 6 0
52.072027698045531 -103.916065588244862 -180.258925772601344 5 9 0
51.653550703386941 -103.005544611168887 -180.014649906094064 5 9 0
50.949806872686281 -102.099337026714252 -179.586930628931668 1 5 0
50.816846894527089 -101.191091219192415 -179.526371304127963 0 6 0
50.493714202493265 -100.285906344302077 -179.343545466442691 0 3 0
50.075559504972148 -99.383891007027131 -179.099630010733563 0 3 0
50.037774019372876 -98.476893774326129 -179.100519242465026 3 6 0
50.285161680434840 -97.563715623607251 -179.285036531535894 4 7 0
51.007718056735541 -96.637234528914817 -179.775543965250648 6 9 0
50.399561443331606 -95.742937084448187 -179.409624502238216 7 9 0
49.791533514935395 -94.851911892346109 -179.043789704209331 6 8 0
49.373663834771094 -93.957852555982313 -178.800400679937894 5 7 0
49.525898130780490 -93.045429124303297 -178.924184632537077 2 4 0
49.583087517663046 -92.135620045000792 -178.986876918293490 6 8 0
49.450285204111026 -91.233207567223857 -178.927293957968573 8 10 0
48.557742742111259 -90.365260935716805 -178.378336259066089 4 9 0
48.045229186559538 -89.484162097280063 -178.074190457834590 4 9 0
47.247981347029508 -88.620132769105112 -177.586575709125412 2 7 0
47.780002441522925 -87.689674975588318 -177.955621841146524 0 4 0
47.837259483640992 -86.782588866353066 -178.018838257717903 0 3 0
48.463961801255550 -85.841359626592094 -178.449258613248901 0 5 0
48.615990703994328 -84.925674118997321 -178.573845397530732 0 5 0
48.862856017553895 -84.002751233047960 -178.759711367494191 0 4 0
48.255737993747289 -83.135921975620121 -178.394981587497909 0 3 0
48.217951247004066 -82.232225255526330 -178.397464202954893 0 2 0
48.275011973376195 -81.321558704272448 -178.461226705048034 0 2 0
48.237197062044743 -80.417566084511719 -178.463891840702388 0 4 0
48.294206657829363 -79.506056941872444 -178.527839594766533 0 4 0
48.351184822006076 -78.593988325258593 -178.591881373795815 0 5 0
48.218510809020643 -77.697450889229756 -178.533632603358228 1 7 0
48.180649564360749 -76.793120530695759 -178.536669299589477 3 9 0
48.237566808722136 -75.880180019145598 -178.600994950417828 0 5 0
48.484004392179259 -74.948950270230057 -178.787808742518223 0 3 0
47.403657673370276 -74.143937600786884 -178.117973922639379 0 5 0
47.460592529300015 -73.232014578631890 -178.182583667797672 1 7 0
47.706978928380408 -72.300165978451901 -178.369690361780329 0 5 0
47.574364906048515 -71.406455553425289 -178.312103683426471 0 5 0
47.536482933153025 -70.503037642942260 -178.315815374569269 0 4 0
47.593298635301267 -69.589094697161627 -178.380829864492483 0 4 0
48.502348393547777 -68.577685954167492 -178.996776580597157 0 4 0
48.558995057227548 -67.660138837292749 -179.062011944089392 0 3 0
48.994302323531713 -66.696773281632986 -179.372176715345148 0 3 0
49.713470867820263 -65.695904757356971 -179.866080712712233 0 3 0
50.716397647364488 -64.655083086545986 -180.543737480713588 0 2 0
50.678030027335524 -63.741613526035380 -180.548228747746691 0 3 0
50.734278724556759 -62.815701669389895 -180.614041777221786 0 2 0
50.790492840992158 -61.889198875335779 -180.679970015831941 0 2 0
50.846672150099550 -60.962103081806646 -180.746015083806611 0 2 0
50.808222905328819 -60.047625843517388 -180.750963505100657 0 2 0
51.431835761822867 -59.038695238933400 -181.184545704079056 0 2 0
50.920428253343403 -58.190994321446198 -180.883650018014777 0 2 0
50.976477396314692 -57.261777182557111 -180.950178024935383 0 2 0
50.937942793641753 -56.346258257007499 -180.955610286186612 0 2 0
51.844757397391277 -55.284934060429336 -181.573397215483055 0 2 0
52.278705132568007 -54.292334419070109 -181.885220397943954 0 3 0
52.901550913551432 -53.266708381693547 -182.319642173825628 0 3 0
53.240716294696711 -52.283374636556680 -182.570534562819745 0 3 0
53.674265712059309 -51.282127660799283 -182.882804268727682 0 3 0
53.918727685127749 -50.309954282830006 -183.072763749898456 0 3 0
53.690768512757757 -49.417108677914598 -182.956703140548939 0 3 0
54.218487245515803 -48.393431458426861 -183.330659993946142 0 3 0
54.651607854069084 -47.383155799255917 -183.643544635270672 0 3 0
55.273463241417971 -46.336021138854278 -184.079073058972710 0 3 0
56.083983995665449 -45.250389877365848 -184.637260557571153 0 3 0
56.799870865898015 -44.177332904579785 -185.134391563789677 0 3 0
57.609954742330729 -43.081979688274828 -185.692955200642871 0 3 0
59.269295741751876 -41.818592600467127 -186.802946772332319 0 3 0
61.211330024713106 -40.490132410501914 -188.096928090189806 0 3 0
62.775406306589559 -39.224758663566945 -189.146156182562493 0 3 0
62.735082318513207 -38.271855193223487 -189.154293937763356 0 3 0
63.449465072166959 -37.165200300362855 -189.652659463327240 1 5 1
65.295593968343439 -35.820337637525412 -190.886352915669988 41 46 42
77.314591528314565 -3.019423108600108 -199.891141525679217 168 168 164
74.640288698980157 -2.796805405246793 -198.189167099959263 148 150 146
73.469904175803890 -2.137641171521246 -197.469146513573065 131 131 126
73.427094540091389 -1.142760403452527 -197.485804123024508 137 136 132
-37.579153584221842 -0.939154273248841 -126.813109285094484 147 140 122
-38.263653396727364 -0.542740332202419 -126.407833472157833 146 139 121
-72.267817755247535 -0.718817578554654 -105.077339582414041 148 141 123
-74.062995996161533 -1.057921943624351 -103.932223740286275 144 137 119
-74.927927718978680 -0.906251797485477 -103.408215074016312 146 139 121
-77.029124038376835 -0.818823569297598 -102.112321280483684 148 143 124
-78.822923519680131 -1.191214626775547 -100.967264431726633 145 140 121
-82.103118607958379 -2.394038991130190 -98.827056633661215 148 143 124
-83.059609184889524 -2.327566945756225 -98.241350442192271 148 143 124
-83.392967914159073 -1.323153407332398 -98.128720282264567 143 140 123
58.527394481878275 -158.579171454383868 -184.148916957218660 113 80 71
59.159815040783144 -157.758771265311964 -184.571342721517567 84 51 44
59.504798545287201 -156.888616643100619 -184.809431735115197 150 112 106
58.509247070001265 -155.805092831420609 -184.186643060582497 185 138 134
59.045654279102394 -154.964398851668960 -184.548161717357914 215 167 163
60.251977222468042 -154.222453477916304 -185.340370270841447 192 143 139
60.500880759984796 -153.330796679767104 -185.517740636835725 177 128 124
59.218496689090273 -152.213595667818737 -184.711351022487520 184 136 132
58.606218708318806 -151.199775519005158 -184.335676954438611 187 139 137
58.855168561005655 -150.310511337444211 -184.513658964677745 181 135 133
60.730380589562344 -149.643906094957430 -185.737172393021041 165 121 118
61.361608484814042 -148.798671324254713 -186.161441140051778 148 106 101
61.897024687693772 -147.937120321242219 -186.524385200300344 134 96 87
60.997794518678461 -146.886942976586113 -185.965204226889341 129 92 80
62.298067604063988 -146.119959581516014 -186.820374315575265 128 92 76
62.068240257798607 -145.156343270524530 -186.691954761702902 131 94 76
62.794446148948964 -144.309424097023538 -187.178529961258050 133 97 75
62.373399371510402 -143.322969325594727 -186.927498198299190 137 101 79
62.621474404140031 -142.415834120786030 -187.106997157387923 142 106 84
62.391641541349088 -141.453535558880418 -186.979271452519015 149 111 91
61.588514187230487 -140.429703999204321 -186.482863278392358 179 140 122
61.263275664455477 -139.461267880782998 -186.294010147824679 207 170 154
60.460432544820605 -138.445019794425519 -185.797959206365078 219 189 175
59.275674658608409 -137.394683822831610 -185.056197311319522 191 166 154
57.327096689198356 -136.276061521816501 -183.822851886734242 14 0 0
55.856453168542714 -135.213908457052526 -182.897050291338019 10 4 0
55.341013739626305 -134.248239091590875 -182.586114309361847 53 55 48
54.443772516372746 -133.251191813066157 -182.029463855584964 189 193 179
53.355794732429842 -132.242585448957612 -181.350040874913105 1 3 0
52.172601862150771 -131.232055013394273 -180.609313283372529 16 17 9
52.421309700135396 -130.344119716306238 -180.790715689224470 21 22 14
52.192784806814302 -129.417335101391075 -180.664928966653520 20 21 13
52.059716710205180 -128.498905287383508 -180.600741942582630 17 18 10
51.545027411064552 -127.553437783550137 -180.290838743633287 19 20 14
51.412032917431702 -126.637335909124118 -180.226918442367946 18 19 13
51.374439175930036 -125.728219634534824 -180.224587718174661 14 16 8
51.336837383045747 -124.819172034151023 -180.222382487445287 13 16 5
50.822408481704031 -123.881063141834943 -179.913003225711691 12 15 4
49.926674076866334 -122.923527213176541 -179.357915983319032 13 16 5
48.840452056194238 -121.960390343938030 -178.680041988410039 12 15 4
48.803100385841844 -121.058399318002088 -178.678334439175103 11 14 3
49.051697221373729 -120.170675871166125 -178.861115416133316 9 12 3
49.300218722566001 -119.281374705116761 -179.044008476250724 8 11 2
48.881591575540426 -118.361146260731545 -178.796816528446016 7 10 1
49.987605630480459 -117.505872539304519 -179.533038623101760 6 9 0
50.331152316618159 -116.614931160228849 -179.777716303405015 5 8 0
50.865125856591931 -115.728613044528288 -180.145412188865322 2 5 0
50.255943739580573 -114.801825684859026 -179.775750217621152 0 2 0
50.313567949731009 -113.898171603282265 -179.836383673178659 0 2 0
51.132989910794208 -113.014495927673437 -180.388761071854816 0 3 0
51.476115219922747 -112.114523618839456 -180.633967100439520 0 3 0
51.152701503412970 -111.198301445945106 -180.449094881947616 0 3 0
51.019737309825985 -110.287236098987620 -180.387235272583013 2 4 0
52.028987754026048 -109.394413970212412 -181.062928865149985 2 4 0
52.847638164675345 -108.493241345224391 -181.615813907278863 0 3 0
52.524149498172960 -107.576068185570236 -181.431349160753257 1 5 0
52.200721238272536 -106.660556981907078 -181.246984390655541 1 5 0
52.257905666315366 -105.748242523013758 -181.308535231030305 2 5 0
52.410186805090575 -104.835523175468978 -181.431638638710098 5 7 0
51.991722625685156 -103.922699934179946 -181.186113977414237 6 10 0
51.668445659235886 -103.011644179484705 -181.002139740747538 3 7 0
50.584486715446985 -102.107871241122069 -180.326624135619511 1 5 0
50.261421254846312 -101.202296677619970 -180.142838296574951 2 8 0
50.318696941308019 -100.293382650475081 -180.204965761036732 0 4 0
50.185824847187405 -99.386981026901097 -180.144277421682489 3 7 0
49.862872902740776 -98.484721782102369 -179.960771386781261 5 9 0
49.920126154264779 -97.575855571974117 -180.023179868759883 6 9 0
50.262423761547552 -96.659453188192458 -180.270049998995432 7 11 0
49.844514992140262 -95.761743223206651 -180.025364389112951 6 10 0
49.046680567015187 -94.877734101448851 -179.534941299549473 6 10 0
48.723974112928033 -93.982329860265025 -179.351889819493692 2 6 0
48.686266524424241 -93.078296028392117 -179.353300351422945 3 7 0
48.458614889505725 -92.181657036642520 -179.231886473057017 5 9 0
48.231000851934652 -91.286109843472289 -179.110562274012636 6 10 0
48.193315298501375 -90.383176309892960 -179.112245615566451 4 10 0
47.775885383724415 -89.498285091910745 -178.868182287945132 2 8 0
46.978847269117068 -88.634697381373428 -178.378365638150569 0 5 0
46.751451257382030 -87.745134315088450 -178.257395406097970 0 4 0
47.188392951337903 -86.819374614837926 -178.566743543083874 0 3 0
47.720101580655012 -85.885293881755445 -178.937651881566268 0 4 0
47.967033619066228 -84.965553658423275 -179.124272591640704 0 6 0
47.929291215229398 -84.062599478426506 -179.126600194514765 0 4 0
47.227558169172312 -83.204530738830968 -178.698772491985125 0 4 0
47.758937699463218 -82.263348681765308 -179.070070469547403 0 3 0
47.816012841576253 -81.353678380999511 -179.134143678032700 0 3 0
47.873056467039021 -80.443451028277337 -179.198313048629160 0 4 0
47.835259353899858 -79.540166167779461 -179.201111965056555 0 4 0
48.081846404714781 -78.613546043376431 -179.388411055426161 0 5 0
48.043997019453457 -77.709411278212229 -179.391404860201249 2 8 0
47.721813521251988 -76.830207589226006 -179.210085980699603 3 9 0
48.157797474337883 -75.883904342413828 -179.520626718393032 0 4 0
47.646136279486768 -75.023466171007385 -179.216556879792194 0 3 0
47.418801690483690 -74.138325247116271 -179.096995327994250 0 5 0
47.096773509862999 -73.263650879596540 -178.916056017598379 0 5 0
47.816701549831407 -72.284138498333547 -179.411437206885779 0 4 0
47.589371286431685 -71.399730799968623 -179.292176637901207 0 5 0
47.172686032287061 -70.536821089117154 -179.050060355403616 0 4 0
47.513551682401840 -69.592114495687412 -179.299867079446386 0 4 0
47.948987772100850 -68.634432940434294 -179.611268635953081 0 4 0
48.384298907213122 -67.673994979410978 -179.922789370657256 0 3 0
48.346237308488412 -66.767341347245249 -179.927020012612445 0 3 0
48.970631118302322 -65.779583518322255 -180.361744787600998 0 3 0
50.257240187876675 -64.705006580011911 -181.226993066460011 0 3 0
51.354287145771480 -63.647017266542790 -181.969419848380625 0 3 0
52.072632644372788 -62.632039003650810 -182.466044356020177 0 3 0
50.425974032242209 -61.929380316001492 -181.425582108781526 0 3 0
50.482148570376523 -61.002985258850082 -181.492017285640088 0 3 0
50.632857157169440 -60.062780417836009 -181.620066664551274 0 2 0
50.878065206181589 -59.107947189181488 -181.809736610498504 0 2 0
50.745005230217714 -58.206453675242216 -181.753557998549383 0 2 0
50.801025133017220 -57.277386285048209 -181.820494087329081 0 2 0
51.235103233732332 -56.290506198781578 -182.133553319033581 0 2 0
51.385516337336639 -55.344562104897598 -182.262257119603021 0 3 0
52.008373140341178 -54.323232057993387 -182.698607154065485 0 3 0
52.536565742191499 -53.313140271754762 -183.073610416023996 0 3 0
53.159083760647661 -52.284319267408556 -183.510275144408922 0 3 0
52.931229442695212 -51.392578979919371 -183.393536801170512 0 3 0
53.364589466942562 -50.390304216096979 -183.707494056736266 0 3 0
54.081148992342321 -49.336603885902775 -184.206144963257884 0 3 0
55.364099661303158 -48.179583715866002 -185.074049380457325 0 3 0
56.080190169784885 -47.115365846023728 -185.573065642044469 0 3 0
56.324035901310083 -46.131824994728355 -185.764677905050121 0 3 0
56.850987530902842 -45.094666423905757 -186.141012179937718 0 3 0
57.094626281794035 -44.106852851413564 -186.332962074966701 0 3 0
58.565043792469453 -42.885358249955061 -187.324889096246494 0 2 0
60.412525443336790 -41.582583178006900 -188.563150865338002 0 2 0
64.335254194574020 -39.864281640452560 -191.155286599872710 0 2 0
65.143785425521116 -38.738749481128082 -191.717278687079840 3 8 3
71.234465246557932 -36.547979033413391 -195.725326581202268 1 6 1
69.683979803693944 -35.877261557789417 -194.749504309823863 3 8 3
70.019944099338602 -34.825591375197448 -195.004539125313244 0 2 0
73.561773220865462 -33.100095962730769 -197.352148773477381 1 4 1
77.668393377037319 -31.233601783254201 -200.069398729330601 31 36 30
77.506758154732040 -2.927819446678997 -201.104066970941659 159 160 157
74.739116773828414 -2.732098541825790 -199.332983051641577 160 160 160
73.662888330155852 -2.043881569543446 -198.671633893228602 111 112 107
73.338237908566612 -1.133379141523420 -198.503727743940345 144 143 139
-37.268341907265864 -0.749019883393846 -127.769692309261600 147 140 122
-68.517188528255417 -0.560481517318024 -108.084032650219257 147 144 125
-73.652559207521506 -0.778244411784335 -104.855612937677805 145 138 120
-75.818769019539758 -1.326286083338104 -103.455817226437887 148 141 123
-78.449144761074507 -2.138886823102129 -101.743623860507768 148 141 123
-80.920426732217493 -2.280895968559546 -100.191972819716128 144 141 122
-80.855053364084426 -1.644091943622642 -100.291095692559551 146 143 124
-83.417964533392393 -1.870166529710357 -98.678014693729381 146 143 124
-86.618529688081935 -0.718156769583872 -96.806989861698852 141 139 118
-87.945004021785422 -0.893477866167088 -95.970264641376133 143 136 118
57.699448866236594 -156.627049520529226 -184.649965012214864 201 162 156
57.470123862130208 -155.668999659468966 -184.518428190551305 184 139 134
58.580773173817022 -154.919821344499780 -185.252068680630032 195 147 143
59.882541007375835 -154.193368128800387 -186.109428244019597 178 129 125
60.035732246214650 -153.288052968913775 -186.225601719943654 175 126 122
58.849396189814343 -152.185693694813352 -185.477112241583654 178 130 126
58.524305801418791 -151.213672699480128 -185.284839727389766 176 131 128
59.634084373804683 -150.445381540655347 -186.019356159763788 168 122 122
61.795656653389358 -149.815769430832802 -187.433491716948055 150 107 106
62.044067638051501 -148.915428174786257 -187.612375144505734 139 99 94
62.674883316682383 -148.064168501642342 -188.038504836732727 130 92 83
61.010906019195374 -146.912352823786051 -186.982452535114760 128 92 81
62.215245334194321 -146.132867671629469 -187.779527341598225 129 93 77
61.889891078419453 -145.157237819029518 -187.588564589450215 131 94 76
62.807079263918354 -144.333544034474187 -188.200665662063074 133 97 75
62.481693539689843 -143.357903854583924 -188.010060055202018 136 98 75
62.825238732173034 -142.461065689608176 -188.251934065033311 142 104 81
62.595431325467530 -141.497770885246553 -188.123438880286585 161 118 99
61.505880445859020 -140.441545074172865 -187.439336608225858 192 149 133
59.843448322109850 -139.330309586150719 -186.384917493073374 221 183 170
57.990371162753036 -138.208626968445344 -185.207204664177453 205 177 165
57.474673009171283 -137.232402550426912 -184.894196405699120 19 4 3
56.672619656973836 -136.230900050491130 -184.396112035351848 19 10 3
56.061686406019135 -135.252054011736391 -184.021695731059765 6 6 0
55.069024485169109 -134.241278799916017 -183.400459855643589 0 3 0
53.694768857735255 -133.201841076041916 -182.532414159274424 9 11 3
52.893465651806082 -132.219801642390479 -182.035008963224783 9 9 1
51.996903621680588 -131.234203318653982 -181.476020366029843 16 16 9
51.577628381885631 -130.292267601849716 -181.225901420170715 20 22 11
51.635471369988124 -129.389905126493716 -181.284635418429104 18 19 10
50.930114276230370 -128.429559800220858 -180.849580858710738 17 18 10
50.415675968566632 -127.486940225477497 -180.538152045066028 17 18 11
49.805968171211873 -126.540474075254338 -180.165124930072437 16 17 11
50.150010768372113 -125.661076442435984 -180.409618712034046 13 16 8
50.112550603448483 -124.755168568251491 -180.407285823945813 13 16 7
50.170422064347292 -123.855156856457370 -180.466816744900711 12 15 6
49.274977040829128 -122.899106236667762 -179.909110323358448 14 17 8
48.379726705949679 -121.948019156003113 -179.351538173132383 12 15 6
48.342425563507334 -121.046996952746952 -179.349712692024838 11 14 5
48.305116447330192 -120.146033450033826 -179.348007039820629 8 11 2
48.267799401804325 -119.245126535492375 -179.346419695302018 9 12 3
48.039930026543345 -118.335884080649251 -179.221482060261877 6 9 0
49.336272995415300 -117.490548804017465 -180.084391919967345 6 9 0
50.537042624091725 -116.633993590486185 -180.885672465179766 3 6 0
50.880365676780173 -115.740004336425685 -181.131465321908991 1 4 0
50.080865535529028 -114.806606770490447 -180.636582421438504 0 2 0
50.233696256033113 -113.905952173616370 -180.759133613243876 0 2 0
51.148110178730349 -113.024751366184645 -181.375646448983787 1 4 0
51.395937979412622 -112.122118396510331 -181.560143876803835 1 4 0
51.167780656694333 -111.207801381310389 -181.436091925259859 1 4 0
51.034831435183776 -110.296356548567331 -181.373878507290669 2 6 0
51.758331068278096 -109.398759534029566 -181.867349875713330 1 5 0
52.101050079905633 -108.492035778355245 -182.114001183852935 0 3 0
51.777713909209069 -107.576657389364073 -181.928640342256472 1 5 0
51.644688708330591 -106.664258280025166 -181.866844666793497 1 5 0
51.511678433187967 -105.752432390339848 -181.805151463484293 3 5 0
51.568888678580663 -104.841406429664346 -181.867021622994059 7 9 0
51.340794157340326 -103.930335777353903 -181.743800027511156 6 10 0
51.207817358750845 -103.019947559439373 -181.682409374662143 1 5 0
50.504442396795923 -102.114336186280781 -181.250730992585630 1 5 0
50.276505829019698 -101.207684972831913 -181.127806072179595 0 4 0
50.048606821419014 -100.302141038061066 -181.004978664052743 0 3 0
50.200884882545154 -99.391632592401663 -181.129175117521726 5 9 0
49.687944999055901 -98.492579179390773 -180.821345810168793 7 11 0
49.460147273707378 -97.590075679961828 -180.698807476681480 7 11 0
49.422388828862495 -96.684006497311387 -180.699829522395419 8 12 0
49.384622522743143 -95.777949097033400 -180.700947658673869 6 11 0
48.587022561704089 -94.894919577262399 -180.208295368324940 3 9 0
48.454364238020617 -93.994205718589114 -180.147868188614922 0 4 0
48.226765080706230 -93.097464004332863 -180.025801347454234 2 8 0
47.999203269969314 -92.201815737077922 -179.903827859609464 4 10 0
47.676745915307663 -91.311224295483512 -179.720212474289013 4 10 0
47.734034511367554 -90.405320014375960 -179.783631175050232 4 10 0
47.886202355984608 -89.494364537586250 -179.908881965953611 1 7 0
46.994429785982788 -88.634907984680183 -179.355127071582331 0 4 0
46.861952782214360 -87.739924044112797 -179.295354601978261 0 4 0
46.729490093837626 -86.845480817548506 -179.235676077540887 0 3 0
47.261094665210521 -85.912402312285565 -179.608261175958376 0 4 0
46.749167419672460 -85.040605729433182 -179.301819051932256 0 5 0
46.047661195664830 -84.183801134565783 -178.871986197470335 0 4 0
46.294611556433551 -83.266673143766425 -179.059645703688005 0 4 0
47.300038808488409 -82.294430595088386 -179.741337604301265 0 3 0
48.210398998137634 -81.323149399605597 -180.361401991991187 0 3 0
47.982964637483406 -80.433150723233695 -180.240664630592136 0 4 0
47.850351680571009 -79.536724600032912 -180.181766579392956 0 4 0
47.812525876015854 -78.633053646313101 -180.184710931790960 0 5 0
47.964215294515327 -77.713276686453710 -180.311246688739942 1 7 0
47.831596700240652 -76.817338883062789 -180.252647101235851 1 7 0
47.509512030464691 -75.939098562968383 -180.070651920541536 0 3 0
46.808573186296940 -75.097905180912463 -179.641758587717277 0 3 0
46.581367761289869 -74.214836354865753 -179.521702069271811 0 5 0
47.111840770665026 -73.257599994263984 -179.895750823110347 0 4 0
47.547472690832876 -72.306746900644612 -180.208165639287245 0 3 0
46.941471934200933 -71.462567112819187 -179.841415115027502 0 5 0
46.619610913220924 -70.590960655060726 -179.660020017050869 0 4 0
47.244404946266854 -69.616036315465763 -180.096278883334833 0 4 0
48.058324834636778 -68.615740662268806 -180.656177074265514 0 4 0
48.020295919767648 -67.709832110054009 -180.660388071207763 0 3 0
47.887630161965490 -66.815191881396260 -180.602951884898857 0 3 0
48.133431892851945 -65.874735107075040 -180.792668039488234 0 3 0
49.419782085294401 -64.802231498628544 -181.661886859977272 0 3 0
50.516617789747670 -63.746311910208263 -182.407734486459617 0 3 0
50.951108540732037 -62.770586971790152 -182.721381948728578 0 3 0
50.156084432937519 -61.956778153100188 -182.232204350768086 0 3 0
50.306799317423440 -61.017867759312978 -182.360800493745131 0 3 0
50.741091714184392 -60.038177109653518 -182.674833194889402 0 2 0
51.080722460589982 -59.069193201839646 -182.927235509575183 0 2 0
51.042158128094570 -58.153000814476748 -182.932687685946036 0 2 0
51.854179463292269 -57.110485510990408 -183.494234509487910 0 2 0
52.287982192971015 -56.120212215541898 -183.808839027798030 0 2 0
51.871263056338023 -55.258312904891184 -183.567595954593088 0 3 0
51.927004344083855 -54.324294134458832 -183.635369271314943 0 3 0
52.360568512565635 -53.329187493534214 -183.950406610260302 0 3 0
53.266271149582394 -52.254332223449111 -184.574515280163070 0 3 0
53.416191218602023 -51.299256569497622 -184.704523804096084 0 3 0
54.132633766926460 -50.247401821478910 -185.205403559053735 0 3 0
55.604229920460853 -49.061447276783980 -186.200770124025382 0 3 0
57.075441680663744 -47.866691233317773 -187.196349245212843 0 3 0
57.413514252642699 -46.864157822507920 -187.450631246608566 0 3 0
57.562708237743379 -45.893403253610828 -187.581493959372523 0 3 0
57.900584981851182 -44.886869977082419 -187.836115792124531 0 3 0
59.370691371845112 -43.667221708532850 -188.832505896188337 0 3 0
60.840410697963932 -42.438751623865798 -189.829129565303248 0 2 0
64.007836781347919 -40.875386669609533 -191.938461383861210 0 2 0
68.023402589322529 -39.127889226586376 -194.604377135357169 1 5 1
72.320902521897722 -37.300852477397143 -197.456097519955051 14 19 13
73.693897227659932 -36.035530529912819 -198.392077259162960 20 25 19
72.803506866092562 -35.222837740063369 -197.844788727388192 3 8 2
72.290426495760812 -34.337014737210943 -197.544904961237961 0 3 0
73.851363882352246 -33.019266976898365 -198.605195876403997 0 2 0
75.977431768438123 -31.571967161370164 -200.036696899471224 6 11 5
77.631713706083701 -30.213461719304902 -201.159397618705100 0 2 0
79.850962427564809 -28.721571964028755 -202.653358963175208 2 5 0
78.262243339865790 -2.669732949035357 -202.691384615141089 112 114 112
74.931647767479660 -2.639049580198440 -200.541024586170408 98 100 101
73.761700234738328 -1.977958926047069 -199.815054309818606 30 30 28
72.779786842182261 -1.266144700063050 -199.213157154662156 153 153 151
-46.375899547186066 -0.709190335003994 -122.728963635275065 148 141 123
-72.284644363971410 -0.608102189235529 -106.373946362528258 147 140 122
-75.287239412250415 -1.594262702278439 -104.403815954799498 144 137 119
-76.244612098416724 -1.495371449084502 -103.812751140386780 146 139 121
-78.688440298498136 -2.208170779671476 -102.218258691272467 146 141 122
-79.301375007380130 -1.330570274271303 -101.915304791215348 144 143 123
-80.378628186763734 -0.714428452066639 -101.300225282113018 146 145 125
-82.940948947208256 -0.942382961633171 -99.681250162465886 145 142 125
-85.966151785596992 -1.462219821130406 -97.748175693832067 143 140 121
-87.292638285193249 -1.628759385317995 -96.907389619267633 142 140 120
-87.134402119598349 -0.948928341375784 -97.073379911868273 139 136 116
56.851971017872586 -156.519403493685047 -185.102144528040924 196 158 152
57.196981129699850 -155.653948291754688 -185.342175460507093 181 136 130
57.924634295728765 -154.845819846211924 -185.830654272146319 183 137 132
59.321820960848243 -154.135411378397407 -186.753729027438851 173 125 120
59.475034095848343 -153.231258203994145 -186.870206420741454 170 122 117
58.767319241865323 -152.200068337256738 -186.428390925007363 170 123 118
58.346673542278552 -151.214089336198242 -186.172971833830729 163 119 115
60.412488670130642 -150.580580285760192 -187.531096183760610 154 111 108
62.573419730418834 -149.948402433046795 -188.951382425251268 140 100 96
62.248024565269020 -148.967897113310755 -188.758558102106008 133 96 88
61.922685706053471 -147.989181895018703 -188.565942240103141 127 92 82
60.450379215399778 -146.863766717875961 -187.629012462438567 126 91 78
61.176603281710754 -146.025003500953659 -188.119280113858252 127 91 75
61.329260032324271 -145.111044831555461 -188.237468761000315 129 92 73
62.246275512434863 -144.288569454675326 -188.852139886238461 133 95 72
62.112110685908874 -143.336665887750712 -188.784559265099091 132 95 71
62.264546021680701 -142.418464330601239 -188.903265900119322 151 110 88
62.225890136900830 -141.477823885731965 -188.898076240132781 181 138 121
60.277086135647664 -140.328032712852661 -187.652421292773710 211 171 158
58.328720844969325 -139.189269383572110 -186.406993819418460 155 124 114
55.903372193606515 -138.011937658345403 -184.851642268781035 18 1 1
54.910673651855461 -136.993032590587035 -184.226938669599093 13 3 0
54.872810279088185 -136.073415483680833 -184.222687100996296 20 17 5
54.834937493337520 -135.153901462028699 -184.218593154129024 18 20 9
53.938099342395105 -134.155038423597745 -183.656436219494509 11 14 5
53.041454142858754 -133.161178441586515 -183.094452449266839 15 16 8
52.431253310670854 -132.197165675648364 -182.718704533996316 15 14 9
51.344149041959383 -131.196463260038371 -182.033011649306616 21 20 15
50.448072339219095 -130.217318456952569 -181.471525911210989 19 21 10
49.933722619309265 -129.273023433401363 -181.158276292302332 17 19 8
49.800965054850906 -128.360305840098079 -181.093248757220408 15 17 6
49.096056087223076 -127.406690250693117 -180.656257239615030 16 17 9
48.963393699340315 -126.496852784146313 -180.591512345811708 15 16 8
48.830745261154789 -125.587634284103913 -180.526903038768694 14 16 7
49.174746347102655 -124.709548860878712 -180.772502185581089 13 16 5
48.946753860343563 -123.794368322023416 -180.646140496006723 13 16 5
48.623493445780582 -122.874785381024651 -180.457896641657413 13 16 5
47.633239079876148 -121.919895702453672 -179.835692779791259 13 16 5
47.786586336657081 -121.030684023440756 -179.957774519347794 11 14 3
