ply
format ascii 1.0
element vertex 675
property double x
property double y
property double z
property uchar red
property uchar green
property uchar blue
end_header
-34.642344682767721 -0.725820873885698 41.061317789917013 130 127 112
-34.814136205433186 -0.774442562112232 42.456940198393397 128 125 110
-35.082613579131049 -1.209676461117719 44.659619636623034 121 118 103
-35.109477040193141 -0.702598139197241 44.845260469260410 130 127 112
-33.542811195011701 -0.598522747683157 26.885383974564263 127 124 109
-35.030602686086759 -0.548346655926902 39.241141401034469 131 128 113
-35.679505889271965 -0.658268191299627 44.625069190305339 128 125 110
-35.859526807073969 -0.775096441919183 46.122877536088879 132 129 114
-36.086821840285431 -1.092694027971163 48.024626136072669 128 125 110
-35.612729339198125 -1.120995053490955 39.034381297503558 134 131 114
-35.730882117240526 -0.971341020187823 40.027433375980934 134 131 116
-36.657117636057365 -1.689755995859770 47.923037543501437 130 127 112
-36.798564909005663 -1.674779877990564 49.119014498681565 129 126 111
-36.766879673459250 -0.938089486934235 48.800169071172547 129 126 111
-35.361135666779838 -0.870452122666313 31.523026066047862 131 128 112
-36.085092405137502 -0.615170655983025 37.801172834810870 131 128 112
-36.324804816981029 -0.974927167749247 39.905691378401940 129 125 113
-37.117467967699923 -1.213203602772429 46.795163207958325 131 127 115
-37.391145620294438 -1.774321501411085 49.204252475476039 129 125 113
-34.736794213873836 -0.524281226913360 20.307416119576544 130 127 112
-35.944078943784234 -0.739683797131965 31.093726358523583 132 129 112
-36.089899947317072 -0.692834661823227 32.390098970807202 124 121 104
-36.819559565575325 -0.559147532059146 38.874441830382978 131 129 114
-37.539112463236705 -0.544750168823029 45.261819689522724 130 128 113
-37.707359953620610 -0.667708539108073 46.762201286077016 129 126 112
-36.660282204910352 -0.515908381444591 31.860070563839116 126 123 106
-36.867286431634099 -0.747529694718155 33.763764057728565 121 118 101
-38.261535539940958 -0.574180424385622 46.441878250941954 128 126 111
-38.404392450279261 -0.607231815175932 47.740919666059057 127 125 110
-36.506736696305140 -0.520657396785591 24.539416424859098 134 131 116
-37.177780501858038 -0.747701028372889 30.840857440404079 125 122 105
-37.432207839950038 -1.198041503254751 33.251038498744350 123 120 103
-37.560729953486742 -1.115247818490938 34.447917736034952 124 121 104
-37.678801893266716 -0.992848862609704 35.543804269229270 128 125 108
-38.001818237247406 -0.519500368139163 38.528781401374147 130 128 113
-38.890167197374197 -0.818278805950433 46.829794017400957 126 124 109
-39.071533270411095 -1.046688321022288 48.534434123791101 123 121 106
-37.917412657015696 -1.290921126668814 31.928522357782555 114 111 94
-38.114341931199903 -1.518370062599269 33.834174967418079 114 111 94
-38.280617048494044 -1.619355525143074 35.436509370448164 121 118 101
-38.232179566256448 -0.767693450294526 34.913905275757202 124 121 104
-38.471336953573910 -1.025171554871865 31.195349324268790 119 116 99
-38.772846014931119 -1.748205237748444 34.215594974825393 114 111 94
-38.835293322490912 -1.395602378126692 34.806380154787462 116 113 96
-38.788241721377233 -0.542503930856979 34.283454720655897 124 121 104
-20.438622120313816 -0.864741534754870 -160.353369265040897 143 140 123
-38.999383913720891 -0.624587143107124 30.157662278838814 113 110 92
-39.244485136039856 -1.118980565546553 32.673007568371133 117 114 96
-39.402348772467903 -1.217300644915169 34.276998718243703 118 115 98
-40.049990302343772 -0.521402932031553 40.763666066898480 126 124 109
-40.188774239118153 -0.574786276904324 42.166182306002156 131 129 114
-40.337282201206150 -0.683084744969443 43.670235073509389 133 131 116
-18.692544403393619 -0.728532843274664 -191.041635796488208 137 134 117
-39.184785449002717 -0.548682917329925 25.522500805185871 130 127 110
-39.501264807333975 -0.727997844150813 28.831996899896581 121 118 101
-39.607691734658033 -0.583463116791743 29.929701318730849 114 111 92
-40.523709565646200 -0.572089039413022 39.442417779554830 127 126 108
-40.897506818768363 -1.194008014149384 43.364260939962691 132 131 113
-40.976139815432546 -0.972006265940948 44.159324116067580 131 130 112
-41.083080062454599 -0.897801298801039 45.258737152310772 131 128 113
-40.655771140912961 -0.781830766324078 34.417105801216735 122 119 102
-40.805311011183733 -0.893351447259468 36.023144913759978 127 124 109
-40.863304545080908 -0.550166262462904 36.615086616707430 125 122 107
-41.022092514526491 -0.722205882630738 38.322904418297043 125 124 106
-41.229922367876036 -0.527386112355887 40.521774706413936 129 128 110
-41.397984615207491 -0.770192360650311 42.331630131215178 131 130 112
-41.566077292267288 -1.022435589156295 44.141722708670216 129 128 110
-41.587805014695036 -0.516784111377163 44.328453863010708 129 125 110
-41.728537510438549 -0.638777788489835 45.834454874282159 132 126 112
-41.116439208062388 -0.682163559414191 32.686197242173279 119 116 99
-41.297313608771120 -0.968248202580809 34.698770501266097 126 123 106
-41.344814018048268 -0.574444025442381 35.189444249308764 130 127 112
-41.472414643756551 -0.599673031056417 36.593528434294115 128 125 110
-41.600060732117612 -0.632143973523777 37.997790074459516 122 121 103
-41.983268044023824 -0.772979804464003 42.211639752910571 130 129 111
-42.048898574430467 -0.500623898613323 42.905956559083023 126 125 107
-41.522276166680776 -0.909114648005337 30.260156048804077 127 124 105
-41.646006686207954 -0.907432804175680 31.664340055050758 122 119 101
-41.778415053246249 -0.958485350579659 33.170218953058509 130 127 110
-41.867724911611759 -0.788575703512422 34.168665306706401 132 129 112
-42.196374766587681 -0.635180850749334 37.875543363234925 123 122 104
-42.649655835275155 -0.598606842994401 42.989477036388138 127 126 108
-42.816953829882650 -0.905539155578352 44.903258070234415 129 123 109
-42.880899131350745 -0.643672913013969 45.598191121540793 130 124 110
-40.789924376434996 -0.570943566594190 14.267507931102898 134 131 115
-41.943200906591571 -0.519872481004689 27.815127206503178 125 122 105
-42.171981423409910 -1.092428788173064 30.540066234013352 126 123 105
-42.275302624004894 -1.001332749014970 31.741900936201461 124 121 103
-42.303404283515789 -0.507104642641240 32.029734118106546 136 133 116
-43.424773986570273 -1.697765280649500 45.207465183787747 129 128 110
-43.545289903471279 -1.771162935413556 46.614245039150319 130 122 109
-27.785850362255935 -0.520400373753940 -154.312921922906412 140 137 120
-42.762883488579263 -0.961189583261114 30.109121753639300 125 122 106
-42.952155264444258 -1.366377807372797 32.429389046707456 125 122 107
-42.922820868909440 -0.555925418450400 32.006044018960011 134 131 116
-44.009793664878089 -1.747896491079036 45.190864901484588 131 130 113
-44.029643629038617 -1.246017621442432 45.378078551882140 129 123 109
-44.009171771268790 -0.503583021606173 45.056784712794780 129 123 109
-43.428962823912173 -0.601354604223141 30.575894189982279 112 109 93
-44.309120903476142 -0.688648636524586 41.528120435831966 134 131 116
-44.422304121748439 -0.749074054390162 42.936069911459498 133 130 115
-44.543353280779002 -0.864679854278785 44.445943915608126 129 126 111
-27.912618019542393 -0.800506393483252 -182.413304988141533 143 140 123
-29.396665425604333 -0.842700001546755 -162.702122932788029 147 144 127
-29.676662817336016 -0.621159340494723 -158.987022130101252 146 143 126
-42.299750981589106 -0.812472123571914 7.837123475071223 136 133 116
-43.716492669761955 -0.638571334881842 26.229044928593879 130 127 108
-44.887570518078491 -0.643692411894442 41.306185608232255 133 130 115
-30.076152177532144 -0.513266019205071 -169.079016363357539 147 144 127
-30.463436449672027 -0.658732386620812 -163.742619466971576 147 144 127
-30.821458492194363 -0.733430955361703 -158.810504749482334 151 148 131
-31.098926294008319 -0.558076686344773 -154.991578897775526 145 142 127
-45.087399474443799 -0.710176591258064 36.059047468694359 133 130 113
-45.185758013490478 -0.695969666902490 37.365998201186756 132 129 114
-45.762515889606320 -0.654599225693279 45.007351712904324 130 127 112
-32.196030921909326 -0.545589489606179 -155.319070730355747 146 143 128
-43.482901878190994 -0.572561333381295 5.239586664394096 134 131 114
-45.469183737386629 -0.578671406691137 32.913890730608074 121 118 99
-45.592154568106366 -0.733942868160113 34.628623412700108 124 121 102
-46.292787567185670 -0.966995386009753 44.293941971876990 133 130 115
-33.381905823631158 -0.859998276802925 -154.328847347715509 146 143 128
-46.076741724976948 -0.581593275222240 32.789334521827868 126 123 104
-46.208776588298868 -0.828780222400014 34.708808338583083 126 123 104
-46.707429821782888 -1.077142614333712 41.863081942785897 130 127 112
-46.805971908897732 -1.139315901918923 43.274079911090467 129 126 111
-46.904567467121353 -1.208718393518002 44.685253363357901 129 126 111
-46.915480215832389 -0.658416789221866 44.770936532021636 130 127 112
-34.118428699336675 -0.597883880751697 -160.205130019689875 151 148 131
-34.417659774857043 -0.621326127282414 -155.568621943701771 149 146 131
-46.677840991679275 -0.538706068913441 32.562806815157614 129 126 109
-47.131747626688579 -0.553262908846238 39.311769625263622 131 128 113
-47.297966160553457 -1.126670547492486 41.845334439390882 127 124 109
-47.392852354075025 -1.189000555808314 43.257086402473647 124 120 108
-47.481309019144099 -1.210612011099881 44.566992171995423 124 121 104
-47.524448124346200 -0.901324619823621 45.162855320595582 129 126 109
-37.318398401930295 -0.576060464859490 -126.755736314285173 152 149 134
-47.800918304376800 -0.512599666095802 40.398829388077729 131 128 113
-47.935712632817555 -0.904909353771563 42.525709929102050 127 123 111
-48.082971242834368 -1.404211321696460 44.857022948543488 126 123 107
-48.137016593710442 -1.192363663430412 45.657391808144382 129 126 110
-48.166287231093293 -0.790413513629463 46.049480107804925 133 130 114
-36.338102785939981 -0.574114300017785 -160.865306345597162 153 150 132
-36.684744411011494 -0.898269947995404 -155.005388926985688 151 148 129
-36.917495654065192 -0.771197414531592 -151.073929948976343 148 146 131
-38.327069563140284 -0.506712601754366 -127.270783691630186 152 149 134
-48.016716291567114 -0.836757544826289 34.338141897374157 132 129 110
-48.547304882328007 -1.145112033271309 42.917020602603401 129 125 113
-48.652798112808469 -1.357988959099969 44.636824294213483 128 125 110
-48.788079622418259 -1.820869445921582 46.867539951114651 129 126 111
-48.822289458620773 -1.470905425324910 47.362070772371510 132 129 114
-37.437123677269994 -0.512581507792468 -161.398686075504656 152 149 131
-37.710989464121248 -0.584424858422750 -156.551496502662644 151 148 129
-38.030761809132116 -0.885483453682498 -150.890892796741866 149 147 132
-38.253156050586462 -0.780491158539709 -146.956739747689937 146 144 129
-49.038231382351015 -1.037801708034396 41.281822763396036 131 128 113
-49.053932695254389 -0.527183896118961 41.469662057120757 131 127 115
-49.234580671098406 -1.407573675268290 44.620873964417314 130 127 112
-49.420898373975092 -2.352824628692130 47.874710604286150 127 124 109
-49.459518479520312 -2.054290316074350 48.471778098231113 131 128 113
-38.402316370377278 -0.971757695815780 -164.444055996172153 154 151 134
-38.636006494454485 -0.898518150477329 -160.102941497603013 154 151 133
-38.864284353864591 -0.823477128197409 -155.862878135424410 153 150 131
-39.098081013069148 -0.796609303537329 -151.520589489873259 150 148 133
-39.321000909256497 -0.741717638007660 -147.381022255998914 146 144 129
-48.908385624705907 -0.858676737196856 28.539473817638680 131 128 113
-49.009852646864793 -1.035812288817932 30.361296518912212 129 126 110
-49.057029592131649 -0.767776202890047 31.161625140993834 134 131 114
-49.681357901291399 -0.910219363819057 42.167753478982263 132 128 116
-49.712955287853262 -0.546119208355075 42.662455612183180 131 127 115
-49.907107985103153 -1.630911318910938 46.224628768046017 126 122 110
-39.769621276990939 -1.011013159902065 -159.924124759976621 154 151 133
-40.007494942789506 -1.037385256217046 -155.274954549991037 151 148 129
-40.183030571267977 -0.783973877218738 -151.845591712094460 149 147 132
-49.439234603523126 -0.783269622277444 26.794794385425121 135 132 115
-49.499724276844731 -0.636988532846925 27.901877113527320 131 128 111
-49.570627963429914 -0.586687876521531 29.213528889169567 130 127 110
-50.370489488513854 -0.619600311512681 43.959076232155240 128 124 112
-40.812211524189316 -0.676217721011433 -161.576240574248686 157 154 138
-41.057551330819990 -0.799114867432182 -156.517652718079660 153 150 133
-41.253615099061534 -0.695206136238038 -152.475955493835727 150 147 132
-50.335741281074462 -0.645816090464534 32.019434850778651 135 132 115
-50.481821895863568 -1.352474358347969 34.969027088841585 137 134 117
-50.529995226839794 -1.148921790913979 35.872929370255065 138 135 118
-42.521023885502949 -0.574346215504205 -148.858695951114839 153 150 135
-49.424944658869848 -0.518176887991537 0.241009454165180 139 136 121
-50.966559146019051 -0.876826690321867 32.406564594088167 135 132 115
-51.040143627835093 -0.940583904578797 33.924838019119790 136 133 116
-51.113790865682674 -1.012135354862873 35.443299596531574 137 134 117
-51.404417772383553 -0.676414418094216 41.297688333121897 136 133 116
-51.473846808820909 -0.742041106339022 42.714747483521393 132 129 114
-43.532940510963414 -1.279351230870066 -150.681931241003099 154 151 134
-43.646112580224788 -0.843596045890582 -148.061397735299295 154 151 136
-43.781349128697670 -0.551575292702351 -144.931108691947998 152 149 134
-51.542367342262978 -0.558950170046070 31.565443043617506 134 131 114
-51.922204423304748 -0.619476990497358 39.760394647378007 137 134 117
-51.996631005011125 -0.773074256383890 41.382927366885468 137 134 117
-44.458237086265250 -1.415724220228128 -154.850706790804281 159 156 141
-44.593372882375249 -1.139886783951800 -151.515749846370227 156 153 136
-44.749247220832558 -1.010204511622218 -147.670702933312327 155 152 137
-44.855538414763771 -0.590065375819206 -145.048355154459159 154 151 136
-51.619433621230726 -0.963837777749283 19.204171443143565 134 131 114
-51.655771169943350 -0.654230513006770 20.005651420288984 132 129 112
-52.521683211003293 -0.763011983353906 39.947467164795086 133 130 113
-52.604183841563952 -1.060296827075553 41.878394304636402 137 134 117
-45.464768187351879 -0.851252841215439 -157.420383591458858 159 156 141
-45.583361256541686 -0.518308704874011 -154.287735863308569 154 151 134
-52.163562564207751 -0.593077933794702 16.632230843082851 135 132 115
-52.236252153015926 -0.707579951880552 18.458341391413313 136 133 117
-52.493051554838935 -0.861006387616242 24.842859836646625 137 134 119
-52.817030212338999 -0.578643675945150 32.734081542332234 134 131 114
-53.119626530524776 -0.906449289034295 40.134852141373727 138 135 118
-53.121690174351976 -0.908053258596325 24.817232221239834 142 138 126
-53.179257764724454 -0.933634274238035 26.337806650106245 137 133 121
-53.233323219173279 -0.922117492924532 27.756027759080609 128 125 108
-53.262468737866321 -0.601596191275117 28.456586664926419 130 127 110
-53.313124323357286 -0.557204212463518 29.772544434416716 134 131 114
-53.425358572684409 -0.626522810758789 32.712641742730938 136 133 116
-53.723375838784470 -0.600183793795992 23.971060387508800 141 138 123
-53.790267452488912 -0.802219656146299 25.902732863066063 138 135 120
-53.857216474799870 -1.014259599710501 27.834651583402746 137 134 117
-53.871359759337302 -0.513440694100345 28.125178132960286 134 131 114
-53.948356000080139 -0.877446821907872 30.365300025512340 130 127 110
-53.982494492319539 -0.658621959654146 31.271687450289477 136 133 116
-54.026620054215137 -0.582301201988601 32.486046343698007 139 136 119
-54.077418543212566 -0.604679983261236 33.905811843448788 140 137 120
-54.278042147083923 -0.719161006158452 39.483930103130064 137 134 117
-54.348907420255657 -1.063407063371978 41.520570189898621 139 136 119
-54.390270919277263 -0.986740097747741 42.633371830793294 136 134 118
-54.412037519731413 -0.626325605497197 43.130185664071263 136 134 118
-48.328303563784139 -0.728656659929401 -172.817620994644244 163 160 145
-48.474164120505073 -0.748252579194578 -167.945520580168647 164 161 146
-48.598584797453569 -0.620076172608218 -163.787637813985612 162 159 144
-54.161050268424390 -0.717091469035463 18.063742738269838 139 136 120
-54.396851387377112 -0.581473187517504 25.262033102721773 138 135 120
-54.640605028890569 -0.722007766570654 32.670044389304309 139 136 119
-54.731950498817426 -0.728818640963090 35.408584708887304 139 136 119
-54.820572927902610 -0.716357231644552 38.045071637295365 137 134 117
-54.927607362256438 -1.016581086129632 41.298535787401391 135 132 115
-54.978200018631057 -1.131256110817946 42.822838898669090 136 135 117
-54.998727751234846 -0.771533447943641 43.319924710821027 136 135 117
-49.340747055383559 -0.797023826688328 -177.720831867738809 165 162 147
-49.527085218098350 -1.252345500969660 -170.905613295892294 166 163 148
-49.842366911345358 -0.652805961608507 -159.344650924424286 160 157 142
-50.043047578779984 -1.356584432513301 -152.015391807803724 159 156 141
-50.075338637511528 -0.561219361904234 -150.817150547208939 157 154 139
-54.405002115488102 -0.525613450467162 4.427476759066622 132 129 114
-54.802749971361607 -0.720113384155780 17.932185440044918 137 134 118
-54.878869180710979 -1.191742400667144 20.583722688688596 139 136 120
-54.891096874324425 -0.669742640461388 20.874095905265904 142 139 123
-55.361720474675138 -0.579920233996567 36.296705547004677 136 133 116
-55.531623166679324 -0.700385900376337 41.779165182872674 135 134 116
-55.578402412280631 -0.820197849832037 43.304383048701311 135 134 116
-51.071822582301749 -0.811553725644435 -154.487015291380999 160 157 142
-55.436953940986918 -0.593295870255752 17.492472254555793 136 133 116
-55.511259144761596 -1.151002614449586 20.350831541953056 139 136 119
-55.540361223698852 -0.935215152914640 21.360445371896787 142 139 122
-55.998959875156963 -0.671196929926324 37.700063242827582 136 133 116
-56.140272969740899 -0.531231302069685 42.568981153787291 135 134 114
-52.141789319742024 -0.596335613376610 -155.631088299302519 162 159 144
-52.240526976043562 -0.612558683042701 -151.157867986403517 157 154 139
-52.512126236247639 -0.513332252734250 -138.860236491226601 158 155 140
-56.389999763096334 -0.884787384269369 29.864622111354151 127 124 107
-56.446594299367504 -0.588511095234240 31.989784450046500 134 131 114
-56.564432512650960 -0.862945968928256 36.669976101447048 131 128 111
-56.634215478465009 -1.614175740424646 39.636369248516417 134 131 114
-56.626322681537303 -0.722473240431449 39.002300382507826 134 131 114
-56.747451421816592 -1.158283751773778 43.788094087205735 135 134 114
-52.963803264029778 -0.581566074981051 -169.789837283421321 168 165 150
-53.054647678530117 -0.574363597433498 -165.111372131227654 166 163 148
-53.155616795821651 -0.717516518176987 -159.920531406841576 165 162 147
-53.264706244711931 -0.989714705941916 -154.319568485285572 164 161 146
-53.327622291753549 -0.702299629696197 -151.072210249194768 157 154 139
-56.785911459988696 -0.502267505944046 20.072623482639585 142 139 124
-56.821833561002450 -0.552972569827593 21.700401073966134 143 140 125
-56.853877348868139 -0.523337927086940 23.122672314617205 139 136 121
-56.905748908908215 -0.947203790066140 25.573721883328545 137 133 121
-56.924127299394328 -0.620535199853746 26.276330958429412 136 133 116
-56.968232377243872 -0.884536401309743 28.316390861335776 134 131 114
-57.055694989873196 -0.681825637839480 32.071472990128115 129 126 109
-57.105948676402342 -1.120530895637662 34.421122253803560 134 131 114
-57.122924651166656 -0.780025009474954 35.021547208002630 134 131 114
-57.190903527113086 -1.659931966698318 38.297973987903845 130 127 110
-57.210000952393848 -1.379345554230512 39.001624096928424 132 129 112
-57.231160455544384 -1.149499680521441 39.808274800739753 131 128 111
-57.242676906387807 -0.685247465775420 40.100283320161225 129 126 109
-57.267954752212518 -0.557693109786997 41.112957308564063 132 129 110
-54.096368374431620 -0.644261353398912 -169.816319475511193 169 166 151
-54.265894889186235 -0.831067351014516 -159.736900259930223 166 163 148
-54.344666142706238 -0.875958058312499 -155.054614909829922 166 163 148
-54.411294939150366 -0.766403900983279 -151.088626532768899 160 157 142
-54.476249690890882 -0.652080160343136 -147.224532685065697 155 152 137
-57.454803383552942 -0.599304481533451 21.673866536131754 138 135 120
-57.493461874208819 -0.835887314303296 23.714336562413138 138 135 120
-57.539011609401093 -1.261520648240687 26.166728546249033 136 133 118
-57.570955571518276 -1.340722717044439 27.796057177639000 135 132 115
-57.592748762651745 -1.157235872766402 28.808003402970229 133 130 113
-57.699541010002889 -0.982753128657613 33.989457264494575 132 129 112
-57.709947304867882 -0.501609567280499 34.281257861119542 133 130 113
-57.775036679569844 -0.767552696429066 37.542442267209992 132 129 112
-57.821163305110659 -1.292106329172424 39.997267223744728 131 128 111
-57.853853154183767 -1.448139860330499 41.628424454129657 128 125 108
-55.295652627105383 -0.725264434989604 -165.056614700477155 171 167 155
-55.365084705932595 -0.794123670117353 -160.167565530002946 166 162 150
-55.415360413510143 -0.559443471476035 -156.609909438151988 164 161 146
-55.490863380869783 -0.779259274847480 -151.309752529840694 160 157 142
-57.927452562989792 -0.592588298347336 12.182163683286461 139 136 121
-58.149874608161255 -0.995637638484378 25.421871935421962 134 131 115
-58.180536235737399 -1.162832847672640 27.257962942654871 136 133 116
-58.192580681444134 -0.752230371066778 27.755476704060015 135 132 115
-58.211920499634047 -0.571161426349003 28.767988564208792 134 131 114
-58.428083577925584 -2.050596844764446 41.526167876743841 133 130 113
-58.426845307964356 -1.210020361112555 40.994167474347449 131 128 111
-58.438499595148308 -0.797578625568390 41.389598913831634 133 130 111
-56.459181659056775 -0.631816149828095 -161.110994007516297 168 164 152
-56.626054999113705 -0.910432848316153 -146.739835957300102 159 156 141
-56.681838829731362 -1.054187531603976 -141.948170295773139 156 153 138
-56.706105067049002 -0.536276669261463 -139.822092594249284 155 152 137
-58.583763450007737 -0.638000109965264 12.150817339161961 139 136 121
-58.785290366308324 -0.715468203361235 26.101219094510896 134 131 114
-58.801972323438193 -0.527828033960785 27.114106693261078 135 132 115
-58.958496295938588 -0.862648163528760 37.506355470040774 135 132 115
-58.985112308540067 -1.103140432852544 39.345166824379106 131 128 111
-59.011784434130455 -1.353080052173921 41.184210330282042 132 129 112
-59.017895847632602 -0.749558757416239 41.167390881136811 134 131 112
-57.479545019412548 -0.636044574668073 -170.714770074707644 173 169 157
-57.601871635739045 -0.585575686857846 -157.057766004195514 168 165 150
-57.662094609954359 -1.137937024551299 -150.418403790661728 164 161 146
-57.696783835314228 -1.026621096097276 -146.548023839897269 159 156 141
-57.739143838327152 -1.145104286457293 -141.856371190055825 159 156 141
-57.767338182938786 -0.892121424623573 -138.703117166041352 159 156 141
-59.457952265507217 -0.717409946179110 30.252109128219473 138 135 118
-59.472346096086653 -0.548039370232972 31.265937304548828 135 132 115
-59.569709074625372 -1.055870509210656 39.121911325223778 135 132 115
-59.595287532499839 -0.557601024797794 40.635536908175538 135 132 113
-58.543532143783864 -0.548844420976421 -181.146772362056026 179 175 164
-58.604840687172562 -0.527024566034603 -171.458994298851280 175 171 160
-58.706615254176612 -1.029411112958112 -155.536987014816702 167 164 149
-58.740024591248833 -1.227573783403399 -150.330868607324419 160 157 142
-58.759845777583358 -0.935737667526089 -147.176899041045658 160 157 142
-58.787945750983909 -0.974492402505794 -142.790722240329899 162 159 144
-58.810651849579237 -0.825149069742894 -139.225209674730081 161 158 143
-59.937161444304188 -0.654837545107118 16.673023176550657 132 129 114
-60.036639711703046 -0.620792434294237 27.067460412629771 135 132 115
-60.051459535841559 -0.665675030825643 28.597301734573904 138 135 118
-60.087005110252548 -1.192821163870152 32.586087898869692 137 134 117
-60.098905769023901 -1.032192115576410 33.600652970683797 136 133 116
-59.751907334221080 -0.506179347741996 -167.099664361589817 175 171 160
-59.808766617402142 -0.856263751851317 -152.091405763384671 165 162 147
-59.821614967448632 -0.637855638725293 -148.627767237202875 162 159 144
-59.867316732303735 -0.520050713279897 -136.590620128040314 159 156 142
-60.656994881227078 -1.118825724294444 28.076312885945470 132 129 112
-60.666789566951621 -1.030243349674783 29.297398005937879 136 133 116
-60.675584357939812 -0.810633243536958 30.208964064873555 137 134 117
-60.685576253198420 -0.733500480361664 31.430304034089517 137 134 117
-60.697822530904503 -0.940155205123403 33.271190403219208 136 133 116
-60.865394759234810 -0.676905826827605 -171.408273379238153 180 176 165
-60.870580273938621 -0.643585470480238 -166.815025107742656 178 174 162
-60.877816115296184 -0.960462841005050 -160.885671312385625 174 170 158
-60.881343203672223 -0.675406285051427 -157.523954556776687 170 167 152
-60.885857009343944 -0.561849327392588 -153.545327443300891 166 163 148
-61.271255830381577 -1.481229201607158 28.776572628981711 131 128 111
-61.276832034866977 -0.894783913041420 28.862418307435945 135 132 115
-61.290439085473785 -0.688063458015527 31.202938523552632 138 135 118
-61.297715370272158 -0.755453145822722 32.734907785437514 137 134 117
-61.305341817165178 -0.970289048168921 34.576952850481774 139 136 119
-61.999749448846728 -0.942399436431455 -175.412374053091185 185 181 170
-61.992807620095299 -0.911186670798065 -170.714468757888937 182 178 167
-61.977457713610598 -1.299425025180851 -159.775010246981310 175 171 159
-61.973943262300423 -0.637775235829761 -157.953285763407280 172 169 154
-61.966531306712731 -0.881907668397252 -152.533377995806234 167 164 149
-61.961464536478957 -0.637307783440875 -149.168854894268861 163 160 145
-61.886096393879974 -0.533580894499915 26.481592461951351 129 126 109
-61.889067618364535 -0.622876313850004 28.117124747246066 133 130 113
-61.896445947192078 -0.504514896013227 30.665431454725592 139 136 119
-61.897225925572307 -1.264767693723898 33.748327185949904 138 135 118
-61.900130502946979 -1.482486264688366 35.591415221596350 138 135 118
-61.904536407935417 -1.335021169922653 36.607857251196663 137 134 117
-63.185211430686330 -0.548552072159275 -187.408927837414694 196 192 183
-63.135258555845873 -1.125880448285750 -174.925770306034508 187 183 172
-63.123341227597358 -0.630561889137125 -172.178997868945373 184 180 169
-63.063743183827661 -0.853412631508474 -157.354361166004310 173 170 155
-63.044173312132024 -0.971500391462936 -152.445784874215235 169 166 151
-63.030741919225271 -0.701684768570153 -149.182311167694309 164 161 146
-62.503418804331787 -0.716192672027613 22.377185846453983 128 125 106
-62.503672850119656 -0.604278898788801 23.599626333930360 115 112 93
-62.499581819558493 -0.858178338541094 29.938139047264855 135 132 115
-62.498542932910837 -0.964831575961068 31.574941633750910 139 136 119
-62.496697517046556 -1.172380666660907 33.418741773300638 139 136 119
-62.495805322238390 -1.296276748552827 35.055958988747648 138 135 118
-62.499459652551160 -0.960220515241014 35.659231445692114 138 135 118
-62.501444773420644 -0.815386441556912 36.676237921738874 139 136 119
-64.353798519686279 -0.562757732091670 -187.648279872193484 200 196 187
-64.310013006974984 -0.930547846347228 -180.992342238239587 195 191 182
-64.190628785599372 -0.624172057195668 -163.105643290900787 180 176 164
-64.156958866030692 -0.765097470565637 -157.989355722824882 175 172 157
-64.124664493161404 -0.881898190867206 -153.078202381940457 171 168 153
-63.137754600636526 -0.571218744859072 20.405253539332563 124 121 106
-63.119623841938534 -1.426869067378745 23.902948663879215 127 122 106
-63.114667538470854 -1.453054200513287 25.436364529403164 119 113 97
-63.120930468150334 -0.768747282785462 25.315315488332914 134 131 116
-63.106694212224298 -0.689048492205922 30.830385953413725 139 136 121
-63.098765804417667 -0.585293227986400 34.709703285292306 138 135 117
-63.096073720179049 -0.579393308384875 36.037597315099845 137 134 117
-63.082663986844423 -1.290939451283590 38.917917794291412 140 137 120
-63.078660875930964 -1.397875664775259 40.453220826360109 139 136 118
-63.076188520753128 -1.416712346541503 41.781707778635024 139 136 117
-63.078916938625355 -1.104678518882208 42.385789749265797 138 135 116
-65.477684747476204 -0.513046028302124 -183.080709486976730 198 193 185
-65.425864179374827 -0.668531051052476 -177.449748466357505 193 189 178
-65.298242917709430 -0.562206738226386 -163.640796953087147 183 179 167
-65.173196691108686 -0.623453151641295 -150.032281591875346 169 166 151
-65.133806106285590 -0.630875377480914 -145.735183133095802 164 161 146
-63.734085674869711 -1.827025545810957 24.706255828806604 127 121 106
-63.725215245543126 -1.855525993297066 26.240534335246508 121 115 99
-63.721245488144206 -1.667367135079815 27.257644951101071 135 132 117
-63.669820123986916 -0.920321505968805 39.298487132009342 137 134 118
-63.657071452048953 -1.271798100080294 41.352465874670628 136 133 114
-66.452354274136866 -0.710527886819909 -167.958317241078817 189 185 174
-66.210690969191006 -1.360065876652524 -147.366892077607531 171 167 155
-66.176625847484146 -1.009066755119566 -144.509739197397607 164 160 148
-64.366650355362040 -0.963979637623722 24.043660568036245 121 115 99
-64.358945556485878 -0.815031477008795 25.164663599181466 131 128 113
-64.352581606183321 -0.626506092577421 26.182255895131192 137 134 119
-64.283828672992101 -1.202425266719862 34.482521925996366 136 133 116
-67.623339356583742 -0.954363608832736 -171.970490691930706 193 189 180
-67.580021587629872 -0.525670746704227 -169.011328693980317 190 186 176
-67.506518457820960 -0.638620464553515 -163.887591467870152 184 180 169
-67.342496891590969 -1.252728961299177 -152.401235004510852 176 172 160
-67.269266130497684 -1.450102375593785 -147.275376228215066 171 167 155
-67.243634253498612 -0.812386385119060 -145.550612309344388 165 161 149
-64.891872905350581 -0.829496030922694 33.531252810097527 136 133 116
-68.679442965927961 -0.811478718038543 -168.106223225641713 193 189 178
-68.596114346663910 -0.877107075603339 -163.185920778482796 187 183 172
-68.468519687485042 -1.626810773833091 -155.583906491102539 181 177 166
-68.390493140914586 -1.674684404229815 -150.971494368193419 177 173 161
-68.346660293960042 -1.229868455986095 -148.421102228858615 172 168 156
-68.294378716252339 -0.929192602093501 -145.354684753792242 168 164 152
-68.248996790306251 -0.539172615886931 -142.700446648178570 166 163 148
-65.867964598665139 -0.523754373042430 5.343648402101735 130 127 112
-65.515238514770118 -0.616025283270760 31.559804232240225 139 136 121
-65.500750248978164 -0.549536341140127 32.786440466993184 135 132 115
-69.682845755561900 -1.090470637459385 -162.586425366753417 189 185 174
-69.555360308003401 -1.588965576083949 -156.012061757107517 184 180 169
-69.500900229239875 -1.175685324424842 -153.254446402035683 179 175 163
-69.430752081885331 -0.983810023652063 -149.670983123846895 175 171 159
-69.380391318128829 -0.549677192421301 -147.118976343840586 170 166 154
-69.288736195493669 -0.683245552215332 -142.399443395029436 166 163 148
-69.212930881372799 -0.628404946433927 -138.504940528484212 161 158 145
-66.537289545683848 -0.526086229705788 5.206406394411374 132 126 110
-66.040362175662125 -0.575016891517372 36.761001006115634 137 134 117
-66.002010812448191 -0.594825092775867 39.424367022029315 135 132 113
-65.943657130966827 -1.530967404286921 42.728159464541676 128 125 106
-71.249987558421168 -0.654587372298082 -183.954817012972967 211 206 199
-70.683468502467292 -1.095611288135087 -158.298499323798012 185 181 170
-70.626344097474757 -0.625626672841882 -155.746029757503891 180 176 164
-70.165342180771759 -0.605802804812630 -134.820529667147923 162 158 147
-66.774471264362475 -0.538132211464420 28.338149528973474 138 135 120
-66.723651705008947 -0.568409303428377 31.208573060597445 138 135 118
-66.668265581436785 -1.199598884962338 33.993316933274883 139 136 119
-66.656967351327140 -0.955436627785391 34.806256620277708 141 138 121
-66.650446888164481 -0.620949919084939 35.411656766731198 137 134 117
-66.538407933371346 -1.551921363003375 41.381316500588326 136 133 114
-66.506615263527436 -1.770117702172511 43.129419567874578 133 130 111
-71.824641836830949 -0.577044740393848 -160.690382195810741 188 184 173
-71.660847785970944 -1.124130503537561 -154.005202256128655 183 179 167
-71.577198744659995 -0.879412428301512 -150.624562207949111 179 175 163
-71.496134573002948 -0.626430881255251 -147.346780455641863 174 170 158
-71.200941720966327 -0.536688783653343 -135.341094973478448 163 159 148
-67.306505101723047 -0.937747334383846 31.915454453476599 139 136 119
-67.236252178442271 -1.710648233261751 35.013247752595163 138 135 118
-67.246205938572274 -1.047870069966274 34.891996853170440 140 137 120
-67.118858975017858 -1.502034674589001 41.158843945149272 136 133 114
-67.054000059038614 -2.250254120823860 44.050664329375110 134 131 112
-72.997501422850576 -1.004239681732564 -163.779176767150659 195 191 180
-72.849617485510691 -1.222313200686489 -158.331125343625104 189 185 174
-72.687992410465341 -1.596908819375468 -152.365643573278874 184 180 168
-72.562431350639784 -1.666964337330143 -147.742908338944630 180 176 164
-72.500589356159381 -1.160828067763461 -145.496748197122201 173 169 157
-72.402866069313333 -1.009529994322889 -141.906581733590258 173 170 155
-72.330124086638094 -0.637292687789270 -139.246272471657448 165 161 150
-72.213212739458811 -0.709839737877301 -134.931592097061468 166 162 151
-72.121283420901108 -0.560354542183427 -131.546797263226381 162 158 147
-72.018380350881159 -0.538537057262916 -127.747998891829297 161 157 146
-68.166534757383545 -0.501051151108564 20.699357613913236 133 130 115
-67.963363355218206 -0.548117156545993 29.524132239802697 139 136 119
-67.876657201868909 -1.445783235789135 32.934863330106083 140 137 120
-67.829851337907854 -1.709462113124580 34.891449040093590 138 135 118
-67.845926774352108 -0.952829951718006 34.562291884245212 139 136 119
-67.699983681768302 -1.451995191233976 40.936229256414293 132 129 112
-67.647888900208329 -1.862185089902086 43.101908503778759 133 130 113
-74.515499238951378 -1.092647966401760 -177.975920545483916 213 208 202
-74.239768690478641 -1.001269730671888 -168.731372500069938 202 198 189
-74.095969884461368 -1.042174991488386 -163.901418053253224 199 195 184
-73.906772884303365 -1.487951234641299 -157.519984767209735 191 187 176
-73.741933215270166 -1.762741701574612 -151.964877384318584 187 183 171
-73.616604814448635 -1.730867607030619 -147.753278483845577 182 178 166
-73.555033051700462 -1.172920992630017 -145.712739887525402 175 171 159
-73.457162139988625 -0.942312223639467 -142.430933450302518 174 171 156
-73.356346233341384 -0.755645240007595 -139.045274641849630 168 164 152
-73.252586773695910 -0.613725670264404 -135.555742979506249 166 162 150
-73.142853949730025 -0.544547913874212 -131.858880001885097 164 160 148
-69.124707194454729 -0.547215193647631 8.045973092503317 137 134 119
-69.050199619344454 -0.969556955081912 10.727138009007319 138 135 120
-69.003462768774170 -1.021582173299591 12.474020834878957 138 135 120
-68.845213911041171 -0.924762697619142 18.528766391938348 140 137 122
-68.774199310501757 -1.371396872802542 21.107726396761876 138 135 120
-68.572799910308689 -1.039109152568710 29.105434023163184 136 133 118
-68.561391281906324 -0.685137970776156 29.711334368856143 139 136 119
-68.494032566832246 -1.166963709554416 32.188337149795274 138 135 118
-68.467262242074668 -1.056353517103052 33.314239990357748 140 137 120
-68.269233405057804 -1.593592801535161 41.129452852748074 135 132 115
-68.230501094762246 -1.715081107401635 42.672255390131937 134 131 114
-76.578161797441226 -0.550694237003409 -206.800970922669990 234 230 227
-75.725488266847236 -0.573487342919281 -180.484050184908142 215 210 204
-75.416057258519416 -0.544061807303876 -170.924646367932780 202 198 189
-75.223547909691746 -0.854862343711176 -164.954474521466636 201 197 188
-75.037731346278690 -1.146462376294416 -159.190400652619132 196 192 181
-74.835522833039605 -1.596174300784574 -152.908311658614082 188 184 172
-74.689467994381033 -1.639712730034036 -148.384171265564589 184 180 168
-74.619337932508188 -1.106655826105456 -146.239120194961117 180 176 164
-74.503132243387412 -0.954188170932447 -142.645192504340514 174 171 156
-74.403498593519956 -0.687411622685339 -139.568187131934906 169 165 152
-74.264393254331054 -0.759823206708509 -135.248957480805984 166 162 150
-69.775923567582424 -0.675035435983945 8.222027098016042 136 133 118
-69.704624023182490 -0.970782463256829 10.592924093679983 135 132 117
-69.656818096856824 -0.979942122118290 12.236805733370062 138 135 120
-69.503469580028849 -0.618576431457842 17.671033467756502 139 136 119
-69.436002520262292 -0.930907008083032 19.939457082269541 138 135 118
-69.170359776307592 -1.713256262196222 29.102355677600144 135 132 117
-69.180961137123688 -1.038172215319935 28.980654543951431 135 132 117
-69.157946459293896 -0.822016991211335 29.898834953637362 137 134 117
-69.128293534834839 -0.702878231987748 31.025109151628271 138 135 118
-68.896724087247534 -1.382330303321736 39.259329951047079 136 133 118
-68.891519955215102 -0.967852450880327 39.658167132093240 135 132 117
-76.506163613603604 -0.755138804165796 -170.325902250862555 205 201 193
-76.337513921587288 -0.792648842759457 -165.490937579204115 203 199 190
-76.122634645059165 -1.184355856341806 -159.309860324312410 196 192 181
-75.907853627961472 -1.608522391715011 -153.127966042736944 189 185 173
-75.782237474958180 -1.419382050638788 -149.533053781540730 186 182 170
-75.678083230717476 -1.092561345969230 -146.558784630718776 182 178 166
-75.549078783328213 -0.966013832390365 -142.859448021634762 175 172 157
-75.430849880377778 -0.778995478794931 -139.470226255975433 169 165 153
-75.312709963428929 -0.609803381353924 -136.080562976729311 166 162 150
-70.603980008203791 -0.606572048325957 2.842536833037968 142 138 126
-70.551656020158447 -0.579307950236474 4.486405859369256 139 135 123
-70.377220511096823 -0.759826624753191 9.938935346875866 136 133 118
-70.099649564810264 -0.534346972193217 18.874057472777451 139 136 121
-69.880239405420028 -0.986306324020163 25.874537534043952 139 136 119
-69.796456134743536 -1.485130551858047 28.457462908605208 136 133 117
-69.519656694368194 -0.855570732135689 37.994694413978863 136 133 118
-77.372633779087423 -1.255740584627741 -163.853264730173748 202 198 189
-77.149548773195349 -1.601490608476023 -157.875919334841740 197 193 182
-76.941873577362557 -1.876389728539840 -152.312022072493676 190 186 174
-76.807025068523913 -1.689775528918807 -148.715150776299538 188 184 172
-76.706714111788997 -1.287203834162138 -146.049968518134847 182 178 166
-76.545246731845154 -1.320575133615034 -141.727158535452588 176 173 158
-76.479556958214047 -0.710674126158635 -139.993459936313116 172 169 154
-76.302960299104797 -0.890313425359254 -135.255314239492122 167 164 149
-76.195346455913381 -0.605567649063596 -132.381365142753054 166 163 148
-75.777373418489887 -0.541748079156477 -121.166743889224904 162 159 144
-73.477949212962812 -0.554570505948606 -58.915193735147568 152 149 134
-71.225292226838235 -0.539242853861472 4.245071055077744 139 136 121
-70.566990814861754 -0.724604810498025 23.684612504977707 137 134 117
-70.457078838810276 -1.437148628847259 26.788984568407045 136 133 116
-70.390175611035716 -1.665880057898020 28.748791605660557 136 133 116
-70.163049251289863 -1.175582220162831 35.930782046184561 138 136 121
-70.159694512333360 -0.703888342675267 36.225649238634048 137 135 120
-80.218829142827317 -0.548619669941960 -207.752083527293905 233 229 226
-78.467769600537508 -1.293451339587884 -163.974828165884048 202 198 189
-78.270288355137396 -1.386390862589506 -159.030404590788578 195 191 180
-78.040151933369700 -1.709727497566014 -153.256420618170239 189 185 174
-77.879697344120046 -1.624337863146188 -149.243226188905680 188 184 173
-77.723425553049822 -1.533939221672115 -145.333133909135256 180 176 164
-77.608173006490503 -1.200426020336641 -142.458875635114225 176 173 158
-77.488915366377498 -0.908672469197318 -139.480603807020600 175 171 159
-77.365654116082752 -0.659484570096684 -136.398297941065096 169 165 153
-77.217927766959903 -0.589553195727861 -132.693660588630223 166 162 149
-71.171559661724885 -0.903358133914611 23.973664128778410 138 135 118
-71.133065812096618 -0.758588886635208 25.101090860873342 133 130 113
-71.002781908424794 -1.619247286487381 28.519806797072391 127 124 107
-70.943551702766896 -1.720357442996323 30.168403510220685 134 131 114
-70.972284544505456 -0.863761014149357 29.629841795804253 135 132 115
-70.799830436846989 -0.654988404814365 34.663464702054171 138 136 121
-70.686588618145876 -1.412282321158370 37.667559090725007 138 136 121
-81.184287968694292 -0.621705023781663 -202.229812684128035 250 246 243
-80.864464861852241 -1.108249825527903 -194.697267773309420 246 241 237
-79.982941369864633 -1.223033705231098 -173.988376887824018 217 212 206
-79.829271057275093 -0.942468353891478 -170.390067726915049 211 206 200
-79.623376146899517 -0.980964019656314 -165.547437326632178 205 200 194
-79.395778620621982 -1.171290891633983 -160.185864385265234 195 191 182
-79.255450902709313 -0.878729134921576 -156.896946426849468 189 185 174
-79.010604896444761 -1.223183456174796 -151.119400340706591 187 183 172
-78.800722577212369 -1.389184537507335 -146.170548493212721 181 177 165
-78.625799969499397 -1.370234572520769 -142.050557657704587 177 174 159
-78.481475821096069 -1.186468579187595 -138.655898953377573 176 172 160
-78.345958166165573 -0.966717530938512 -135.468204723239296 171 167 155
-78.219247202506693 -0.709352792073767 -132.487517012993351 167 163 151
-78.044691115852828 -0.769525823896226 -128.365560654815624 165 161 149
-72.294431445919912 -0.641353969277796 10.870086131617569 136 133 118
-71.614993366109786 -1.032948266290637 28.481213964927178 136 133 116
-71.582935350397747 -0.816032182006755 29.401229858316270 137 134 117
-71.165345301845065 -2.547110222444442 40.049376318617760 138 136 121
-71.098069843829222 -2.754431760602538 41.804477678469510 132 130 115
-80.971790372505382 -0.806887972237643 -171.240625082934741 213 208 202
-80.697991802620223 -1.143628027753840 -165.150994009030796 208 203 197
-80.512150989397583 -1.032019400648821 -161.031153280142235 202 198 189
-80.294032053073408 -1.120880918930951 -156.184716284900333 191 187 178
-80.168483448040519 -0.718791238834756 -153.412229543393096 188 184 173
-79.913558512734937 -1.061782167241425 -147.734768576478928 181 177 165
-79.677223957135112 -1.329070129755809 -142.471533332012598 177 173 161
-79.496465567076172 -1.304363124486596 -138.452608774810471 177 173 161
-79.352786228647744 -1.085518455766836 -135.263216918586693 175 171 159
-79.218444821602915 -0.829064391430592 -132.280940447561306 169 165 153
-79.093441827931628 -0.533372135491620 -129.505821469869829 166 162 150
-72.956823194249864 -0.556371930074806 10.527784562472334 134 131 116
-72.213157566459202 -0.584126684378611 28.755393243646182 136 133 116
-71.777838165805704 -1.702561173678157 39.391375558927905 132 130 117
-71.777550867785706 -1.193114425255880 39.582524884189525 132 130 117
-83.774131464914177 -0.957263844920892 -206.837023104255479 225 221 218
-83.002108850177464 -0.975594735366727 -190.646138856698769 244 239 233
-81.744957421720372 -1.431214492472161 -164.235082144458147 207 202 196
-81.485006539077432 -1.650953062043371 -158.763998894143242 201 197 190
-81.347383000872199 -1.260737322554940 -155.886613990289618 194 190 181
-81.195178951949657 -0.963102730409537 -152.697505533891160 187 183 173
-80.911060854857396 -1.386542868891235 -146.705636346521885 186 182 170
-80.739483607487713 -1.235139674766572 -143.100322542497736 180 176 164
-80.587552829984361 -0.996134448029588 -139.909757998282032 178 174 162
-80.362382665815034 -1.177331869007448 -135.161607976193636 176 172 160
-80.215524859607726 -0.948685262763602 -132.073931831593427 171 167 155
-80.054093670013785 -0.818540567655592 -128.674380890515238 166 162 150
-73.067795460051784 -0.585734342130888 22.861682831228592 135 132 115
-72.515422944123813 -0.740194903861309 35.845457588015222 135 133 118
-72.354294085257479 -1.747047622096499 39.376386418091528 131 129 116
-72.248276826719405 -2.244776213318592 41.759614669900031 132 130 117
-72.348157127105623 -0.777030202860967 39.863201617468292 130 128 115
-84.742400467983856 -0.802703549346527 -202.342349271687112 244 240 237
-84.380143943758370 -1.219879396365132 -195.109233666496323 251 246 242
-84.203606841918003 -0.823635810851934 -191.611332167779494 248 243 239
-83.007734716285313 -0.643638120766679 -167.782112589355791 208 203 199
-82.635843833603218 -1.334639305891383 -160.335728403085398 202 197 191
-82.449618939003926 -1.145079911679119 -156.626279039953147 198 194 185
-82.155241206828805 -1.517044931332078 -150.735747785302692 190 186 176
-82.000125807610488 -1.215588041765514 -147.648255611228876 188 184 173
-81.803866832970130 -1.141164914234775 -143.729548515839781 183 179 167
-81.695320381797160 -0.634657981073513 -141.575932122704273 180 176 164
-81.463167108688751 -0.784950803222744 -136.929261617669283 178 174 162
-81.246569926492413 -0.878054213242249 -132.593601981432982 174 170 158
-81.097068789599504 -0.637166583142832 -129.607814231896157 169 165 153
-73.973960246616400 -0.529428940097979 16.547449086231666 138 135 118
-73.648501929990019 -0.943467243405388 23.568705319581397 134 132 117
-73.583092994297871 -0.933722071127366 25.011480531813476 133 131 116
-73.429550637977769 -0.579864612275953 28.505758203554564 134 132 117
-72.951508870683710 -1.600646647695396 38.943755929811459 132 130 115
-72.850069789942324 -2.001436583050753 41.119314992899206 130 128 114
-72.775113625716102 -2.172175212704296 42.772933484779173 131 129 115
-85.637655595453140 -0.882970400360563 -196.907606871700580 250 247 246
-85.419633760012815 -0.624368220806669 -192.784955879921199 248 243 240
-84.777861075936599 -1.091220117076350 -180.591704280181204 227 222 218
-83.874870991283203 -0.639310505250453 -163.467047965463564 204 199 192
-83.456947101519802 -1.489085524618856 -155.496551155361658 198 194 185
-83.299270773713943 -1.141650816083542 -152.511834406014088 193 189 179
-83.060389963288159 -1.201085350727435 -147.968242146629279 188 184 173
-82.913734402674237 -0.836336454524371 -145.190462545466005 185 181 170
-82.745492329201994 -0.592646804295210 -141.996672798037480 179 175 163
-82.485212783623709 -0.822854941323047 -137.035826699183474 178 174 162
-82.246704998232474 -0.970342453853281 -132.490039932780974 174 170 158
-82.100421126235489 -0.675223671433747 -129.710540705683911 172 168 156
-75.058317626651913 -0.723748059373160 7.241793092214976 131 128 111
-74.944405147580284 -0.975860034718719 9.518191165734549 133 130 113
-74.907356548922664 -0.642053396597914 10.334101088953901 137 134 117
-74.584725051097791 -0.747560804729319 16.938360256153260 137 134 117
-74.241610290075954 -1.166362330317224 23.963361300040049 133 131 116
-74.249789270766101 -0.525376113952724 23.945151439501132 132 130 115
-73.515827957995953 -1.230332448871388 39.329017785895246 130 128 113
-73.375669287302955 -1.927046911732541 42.132841489288694 130 128 113
