ply
format ascii 1.0
element vertex 735
property double x
property double y
property double z
property uchar red
property uchar green
property uchar blue
end_header
36.170878253376799 -16.287390529966416 28.118805936083902 12 12 0
36.314290272115187 -15.776080257920057 28.211457414881863 9 9 0
37.170476842365247 -15.591693174533665 28.710452100858120 8 9 0
37.403216869895118 -15.125132240698420 28.853949021854120 6 8 0
36.923051554170854 -14.329355042509487 28.591061695208140 3 5 0
36.353568986020207 -13.488916899532587 28.277320467201264 0 3 0
38.101902759471983 -13.733200081408386 29.284536809313011 0 2 0
38.245780846217144 -13.229645072115643 29.377285399715433 0 2 0
37.676207566615147 -12.387559039391508 29.063508914524306 0 3 0
36.749609573071268 -11.371089015681971 28.546390731529314 2 5 0
37.071735407388445 -10.950090894831673 28.740727624172720 3 7 0
37.572437739354967 -10.617325873292840 29.036745637698445 5 9 0
37.716305904679359 -10.113425391297765 29.129470854227776 6 10 0
37.503146679752717 -9.435092274044095 29.018853329707412 2 5 0
37.647032442294403 -8.931417279887118 29.111574260406144 0 4 0
36.362169119079056 -7.719209210090012 28.390771957001917 1 4 0
35.523407196387836 -6.721836026350047 27.924090666302959 0 3 0
35.756307984197718 -6.257515883716716 28.067569793983509 0 3 0
37.061450999754015 -6.336138828020692 28.821359267415730 0 3 0
32.336294733511806 -35.830808804031442 26.229024072440566 152 149 137
33.453330662974054 -35.629973982562731 26.875291441018035 148 146 133
33.595582829310558 -35.094757764143694 26.967157160389391 147 145 132
34.003903831099564 -34.654458580909377 27.210278669531476 113 114 102
34.146323154552476 -34.122082945803712 27.302186202494198 58 58 46
34.554905549945431 -33.686229276446454 27.545373514243067 26 26 14
34.697490798823935 -33.156671849495616 27.637322382080853 20 20 8
35.195066209453387 -32.757618320661528 27.931004804922310 25 25 13
35.071585944131897 -32.133186575360305 27.871697092856607 27 29 18
35.391891300748682 -31.672701754640542 28.064568633681162 18 20 9
35.712317718471581 -31.214273649486394 28.257470394135837 15 17 6
36.032864872461033 -30.757896393676035 28.450402252086946 15 17 6
35.820660721180417 -30.101215554888284 28.340664104585557 11 13 2
35.786042258468171 -29.511325909076035 28.331815340948069 9 11 0
35.751416858682802 -28.921310561914101 28.322963918786314 9 11 0
35.983362490454823 -28.434764983330901 28.465496113429140 9 11 0
36.304270743349974 -27.984503369615947 28.658515854781697 7 9 0
36.358624260346801 -27.431033249404315 28.700154206096784 7 9 0
35.790652154325159 -26.630541788651371 28.388477393718674 9 11 0
35.756017946973827 -26.040333396898060 28.379618645175910 8 12 0
36.166067859670449 -25.629378498890510 28.623168387076390 7 11 0
35.686721206249047 -24.859404451726562 28.361890423974160 7 10 0
35.385146605423699 -24.159393864068981 28.201549087781089 9 12 1
34.905493659103428 -23.384178702154621 27.940190239446309 14 17 6
36.472720429797704 -23.456276173894484 28.840255435380456 17 20 11
36.349164768979364 -22.830413509466268 28.780911182682075 15 18 7
36.492667230987763 -22.316317454652815 28.873074688915040 7 10 0
36.458121325706969 -21.727526251044615 28.864228180858149 0 2 0
36.957956868218758 -21.366799424695195 29.158466417461156 1 4 0
36.745317161661575 -20.702525395905624 29.048596688033882 7 10 0
36.621697657343333 -20.075511604134832 28.989228645311243 12 14 3
36.408918721217418 -19.408837400288988 28.879320051130918 17 19 8
36.374320130283650 -18.819081458263874 28.870452163570349 13 15 4
36.785432759780576 -18.426079886269662 29.114255225161244 14 16 5
36.840044200239589 -17.876803953580428 29.155935790082182 14 16 5
36.627139886522656 -17.207934019853965 29.045988140574067 12 14 3
36.235768871724076 -16.457234800208198 28.834922857693172 8 8 0
36.557925534404632 -16.027993356148336 29.028231888429787 3 3 0
36.969417193797341 -15.641375362229475 29.272122975048532 2 4 0
37.113327278660648 -15.134039857832832 29.364368792960150 2 4 0
36.275455516310558 -14.173045973752696 28.900420480080754 0 3 0
37.401282368577142 -14.121617700405633 29.548888991381460 0 3 0
38.081060333826798 -13.867646888937424 29.944596177892336 0 3 0
38.314549023293580 -13.407034642238283 30.087480271243081 0 3 0
36.940334378169382 -12.184452915108549 29.319933910452534 5 8 0
35.744291405947280 -11.038635103110549 28.653425263163768 8 12 0
36.066811861769111 -10.615435549821203 28.846808731803378 10 14 0
36.210699447493766 -10.107569251953644 28.939031386359076 8 11 0
37.516635598714601 -10.165831132287060 29.689022205411518 7 10 0
37.124405230555482 -9.400243005776993 29.477708237240321 1 4 0
35.659012977235790 -8.103479821380439 28.659089889493259 0 2 0
35.534582476928080 -7.462270982327013 28.599470150309301 0 3 0
35.141744845514381 -6.686262062449730 28.387992316159455 0 3 0
34.927682841897251 -5.997312241679174 28.277707037783458 0 3 0
34.803010606086218 -5.351913748554564 28.218017176471989 0 3 0
30.865227276422303 -36.622003710977694 26.072042690593307 145 143 131
32.604583166294645 -36.621960643248507 27.066174580021936 151 149 137
34.078298943891099 -36.541183320049889 27.909972622111582 152 152 140
34.398510389548562 -36.069677992254100 28.101707443429959 110 110 98
34.186117021738852 -35.414119376989554 27.992434325919135 57 57 45
34.240068164421189 -34.851311386805477 28.033676712883761 25 25 17
34.471686107620172 -34.352107621587336 28.175289519696165 26 26 16
34.969900722772479 -33.949952480446996 28.467482431161542 26 26 16
35.024044436433513 -33.390438342170761 28.508775516425288 21 21 11
35.433682786147131 -32.960873128753718 28.750850187465247 21 21 11
35.310177106122921 -32.338062059116552 28.691778564394909 16 18 7
35.453330004564208 -31.813354116797349 28.783302826357684 13 15 4
35.685454584675853 -31.322806277857723 28.925047846261364 9 11 0
35.739807204658604 -30.766868340420256 28.966396277619751 8 10 0
35.527346524991515 -30.110195566548953 28.857109831077082 9 11 0
35.670663014173044 -29.588286561766758 28.948677253985380 10 12 1
35.725057592522433 -29.033070880683738 28.990037272119594 10 12 1
36.046456605514379 -28.581852505791410 29.182081682809482 9 11 0
36.724011568710580 -28.271853757666477 29.575076962284982 8 10 0
36.422533804390156 -27.580259898488475 29.415559649366003 9 11 0
35.853828734348355 -26.780873390119723 29.105301250543803 12 14 3
35.017753278777377 -25.871255280578431 28.644265086063228 9 12 1
35.695619634379199 -25.566569821774046 29.037340815570204 7 10 0
35.839197559844564 -25.049129628028513 29.128976717929390 7 10 0
35.002678793550331 -24.131958260407206 28.667827315406925 9 12 3
35.324427803977841 -23.686715440349513 28.859962569024134 13 16 7
35.468019627098300 -23.169514020624181 28.951602255437408 14 17 8
36.235727536267916 -22.913815778933216 29.395121647016708 12 15 4
35.666188946019616 -22.100227748147290 29.084650364401355 5 8 0
36.255837058127668 -21.774230503312339 29.427699093384405 1 4 0
37.202493269677120 -21.603975563630392 29.971916776331099 1 4 0
37.168112947249142 -21.017968811426464 29.963108217773268 3 6 0
37.044486660856393 -20.393129167838154 29.904008900108593 10 12 1
36.653071173538933 -19.650917252575987 29.694024272215870 12 14 3
35.993722658841051 -18.788881388150244 29.333117463157521 7 9 0
35.959090661946448 -18.198581594129251 29.324244034256623 10 12 1
35.835146887238693 -17.568326432486451 29.265062902581747 9 11 0
36.336332847712640 -17.216850266399199 29.558020986377329 5 7 0
36.569711131664576 -16.747686068453923 29.700088926305398 2 4 0
37.517912338962816 -16.603755817957861 30.244701329321671 3 5 0
37.483496005442333 -16.017124115716214 30.235882227704053 2 4 0
36.376559452347749 -14.937764675235229 29.623172629159541 0 4 0
36.341912649400001 -14.347200239031480 29.614293956837457 2 6 0
35.591988897897238 -13.423658692678831 29.202753978560011 2 6 0
35.914865303215009 -12.997611827337586 29.395175683475330 0 3 0
37.311117661840115 -13.078874184031616 30.191706618181655 3 6 0
37.813309457432410 -12.744522492901412 30.484920065923632 7 10 0
35.542064767596031 -11.090260378203673 29.217376181159992 9 13 0
35.865124101686717 -10.667319561335201 29.409843343626676 9 13 0
35.830274843485768 -10.073283647368516 29.400910359764538 6 9 0
35.884920419572154 -9.522318521431821 29.442331418846365 4 7 0
37.103533681612106 -9.540433592211722 30.138497228062008 1 4 0
36.710644228980328 -8.773051463104002 29.928129437358535 0 3 0
35.601058542173718 -7.648497575095377 29.314736332480337 2 5 0
36.103566630908944 -7.319508047737799 29.608027392125649 0 3 0
35.351842044530713 -6.365227421389218 29.196020807575238 0 3 0
33.703670380017655 -4.954650304024344 28.280084733651179 0 3 0
31.185932285879630 -36.840879132027816 26.952013583630944 40 41 31
32.839226291808785 -36.812422565461539 27.891490666513334 32 32 21
34.582007624372380 -36.824638704965984 28.881051725056153 11 13 1
34.991821469586057 -36.386291223792739 29.121780678668173 17 19 6
34.779334349554290 -35.733432232133659 29.012991170877640 24 26 15
34.566780005740810 -35.079438519646843 28.904185750507793 22 23 15
34.621019328974995 -34.518985477270725 28.945199936913752 21 22 14
35.120133210295904 -34.118151052652713 29.235968741410957 23 24 16
35.263490216562502 -33.592077642401009 29.326973075965569 16 18 7
35.406904994162659 -33.067001160201244 29.417993656136261 12 14 3
34.927258589995944 -32.314448760655644 29.159300215401117 11 14 5
34.803578980626355 -31.690738733861512 29.100428021228026 10 13 4
34.947006899117611 -31.165921713529528 29.191456158797521 8 11 2
35.179555524449285 -30.675523992735755 29.332473816830557 9 12 3
35.412191751453463 -30.186631826615063 29.473515383791408 10 13 4
35.466723209169686 -29.631266555919247 29.514617220581258 11 14 5
35.610390084131211 -29.110571375269465 29.605712353174439 11 14 3
35.843239465520242 -28.625349165086536 29.746812876178609 11 14 3
36.878466348067064 -28.454769415727434 30.337882613013122 9 12 1
37.022470803483429 -27.939865473091302 30.429068635203194 9 12 1
36.185602231693053 -27.037195564034480 29.970246776884451 10 13 2
35.348438429621211 -26.129504222532347 29.511350543763172 9 12 1
35.581461069859415 -25.647295552259813 29.652502588409732 7 10 0
35.814567835752257 -25.166533058452792 29.793677636031788 7 10 0
35.869281195637740 -24.614376376989785 29.834838846239748 8 11 2
34.852961255487088 -23.622323832910475 29.275737328235252 11 14 5
35.264604657813436 -23.215445402334431 29.516968643417513 12 15 6
35.587107793089956 -22.773837984259991 29.708208227523443 7 10 0
35.909724689282939 -22.334181895546713 29.899478410375281 4 7 0
35.875183152170962 -21.745390414286344 29.890624194173625 0 3 0
36.465964295844941 -21.422654969562025 30.232067343759354 1 4 0
36.610204636854178 -20.911916030664294 30.323330855334689 17 20 10
36.665127800206164 -20.363432418327495 30.364557277241630 86 88 77
36.362540868602281 -19.659819279552316 30.205569186836001 66 68 57
35.523457285082685 -18.719559896167851 29.746199314382494 8 10 1
35.131137355057376 -17.971127141277258 29.537069091550137 5 7 0
34.559813884870010 -17.140900677745726 29.227768722482097 4 6 0
35.508851439322171 -16.986113285981389 29.769629137687261 1 3 0
36.189837752792499 -16.716367988902373 30.161349858154509 0 2 0
37.318446716003422 -16.653089428525512 30.803530153172957 3 5 0
36.568094294123455 -15.740673627515193 30.394057557414897 2 4 0
35.727957094372641 -14.782544377002200 29.934428232659229 2 6 0
36.140864015144757 -14.397398695544032 30.176006458837392 10 14 1
35.031709705154185 -13.307864000934435 29.565991810049553 4 8 0
35.981964799163961 -13.173913591926068 30.108174119140358 0 3 0
38.813587433501198 -13.930128846974846 31.702627678399452 2 5 0
38.062643333462432 -13.007705328689909 31.293012624086245 3 6 0
36.773787573258090 -11.824522785960145 30.582653933975294 7 11 0
36.649535852497024 -11.191512965306453 30.523688519511367 7 11 0
35.987402819031217 -10.298261597624389 30.163987269368803 3 6 0
35.414672824456716 -9.444244066625700 29.854348139823202 3 6 0
33.855358272645134 -8.105118840279484 28.993239002751110 0 3 0
34.986039897808467 -8.077324181229942 29.635968727797788 0 2 0
35.937709209818792 -7.967586473677812 30.178526081834804 1 4 0
34.915910736964264 -6.882532346323721 29.618065688784682 0 2 0
35.598675665131566 -6.643311657718233 30.010266725638516 0 2 0
34.486665002057549 -5.505277418211131 29.399542282738111 0 2 0
-163.858448458193180 -0.666830275919981 -81.767977218348648 138 136 123
33.822340212801635 -37.838190199610004 29.120477404687222 0 2 0
33.965569939789702 -37.304969663020309 29.210861171377630 0 2 0
34.999107067755489 -37.077575825891273 29.798189167854247 22 25 15
35.053572917620471 -36.518365996595151 29.838952169365029 19 23 13
35.019009833588171 -35.928625331724390 29.830023696830324 22 25 16
34.984442255049601 -35.338827302666147 29.821096345832402 12 14 7
35.217133575615861 -34.843635075929335 29.961296950525664 12 15 8
35.360810733429048 -34.318164541864519 30.051809955047204 13 16 8
35.682784499547154 -33.857887096801235 30.241774413512516 14 16 9
35.380931700756491 -33.173132940053513 30.083723975865638 13 16 8
34.900675688961428 -32.421407289043401 29.826199336898085 10 11 5
34.866089454734180 -31.831411139879293 29.817281364229657 10 11 5
35.366592304388291 -31.440354211072176 30.106764508004446 9 10 2
35.778078905916061 -31.018984166675843 30.346559604318713 10 11 3
35.743644278535612 -30.431636779447345 30.337688111010692 9 11 1
35.976891819075092 -29.946117371044728 30.478053920227552 8 11 0
36.299471609520225 -29.496343471576644 30.668194196213037 8 10 0
36.175860188574944 -28.875987799940468 30.609598400629380 8 10 0
36.766428401165086 -28.533287252719397 30.949057435356337 8 11 0
36.553567679275233 -27.878666111737715 30.840716243436731 9 12 1
36.519251898042512 -27.293476072872046 30.831890748327794 8 11 0
35.502349437460623 -26.316506691950615 30.275594390401992 9 11 2
35.914542269775779 -25.907378316116127 30.515594535912541 6 9 0
36.148168418775640 -25.428493069897371 30.656078709410153 6 9 0
35.666896498036351 -24.659746601882624 30.398328651280238 8 10 2
35.453618984836822 -23.998155276115753 30.289896495854137 11 13 5
34.793243126483247 -23.150515749638071 29.932495322660756 12 14 6
35.384515048671631 -22.820021075964338 30.272159608516873 4 7 0
35.618250765063664 -22.343121949189978 30.412685858609578 5 7 0
36.209875421393122 -22.018688975905352 30.752446354129816 3 5 0
35.817560614612347 -21.279414534235961 30.544388900017253 0 3 0
36.140973717900209 -20.844196519553339 30.734784281085837 7 10 4
36.195998984735326 -20.295164175454126 30.775766480394608 61 63 51
35.892977098514592 -19.591018503178560 30.617479750338958 8 10 2
35.231716465570400 -18.728494314555206 30.259875061109625 4 6 0
35.286595250407942 -18.177041670824210 30.300828761878535 5 7 0
34.983234065938632 -17.467190391844419 30.142464275261602 5 7 0
35.306814246323370 -17.034973369604170 30.332920557890844 1 3 0
35.809693550304104 -16.685047747347319 30.623086401245956 0 2 0
34.968575026861373 -15.730867185834136 30.165647784394181 3 5 0
33.768639496895020 -14.608456501494963 29.508743611946358 1 4 0
35.257565606013429 -14.709391818190145 30.347279159194557 2 6 0
35.222806323161564 -14.117189473730466 30.338404658236513 11 15 1
35.815751879836313 -13.815631598724483 30.678546171643049 9 13 0
39.244930204662438 -14.275801039880983 32.605691815811326 3 6 0
37.685519544349830 -12.974087843054253 31.749170623446901 0 3 0
36.215278554756395 -11.705361185326048 30.942383680440159 4 7 0
35.462542487230280 -10.770977253589242 30.534504556240037 6 10 0
34.709523545318206 -9.831804575959195 30.126556831285413 3 6 0
34.943884689408350 -9.366153468248060 30.267312741523270 3 6 0
33.651651861002023 -8.157822165642179 29.559917381951280 0 3 0
32.987678929066760 -7.249593312022510 29.201679908290870 0 2 0
34.749022463114983 -7.533356791343785 30.190700056197102 2 4 0
34.264679525998076 -6.713089614478982 29.932260533891281 0 2 0
32.432121390360578 -5.216738515355438 28.925142564329263 0 2 0
34.913337768767946 -5.875232214076849 30.313680363871597 0 2 0
26.824642908737587 -36.800294161098364 25.902174589479145 4 2 0
30.442259643467509 -37.402615235360926 27.920041703073736 0 2 0
31.387342801882227 -37.128886259110907 28.454801161908165 0 2 0
32.778485254229992 -37.012072324198975 29.236914185056321 0 2 0
30.157974443286463 -35.532460935100950 27.793623541558446 0 2 0
34.492174978424316 -36.435232410413768 30.208013657523352 7 12 5
34.992724204209054 -36.030761516171232 30.495830869169311 9 14 7
34.958220000424944 -35.441768157897421 30.486887208729613 10 13 6
35.191376746908475 -34.947368215239209 30.626363593155460 11 14 7
35.513860393774678 -34.486337231843962 30.815343128369122 11 14 7
35.657957009946841 -33.963205056541376 30.905395303433068 12 15 8
35.355763226202498 -33.279268327149978 30.748040567223796 11 14 7
34.785612270859559 -32.495738617749893 30.442195735760833 10 11 5
34.929672795964706 -31.972076902829308 30.532248778072443 9 10 4
35.252422584941570 -31.515732065626374 30.721314195497982 9 10 2
35.307292976583739 -30.961122772539809 30.761909783754135 8 9 1
35.183489789584115 -30.339524318263607 30.703504145786752 8 10 0
35.953288553528921 -30.057047791918087 31.140186653342624 8 10 0
36.365842602589197 -29.642310997902300 31.378889640897142 8 10 0
36.420961820834520 -29.092070589265546 31.419564061958994 8 10 0
36.386691036878233 -28.507444303408711 31.410726091673155 9 11 0
35.994699814962615 -27.782442876976660 31.203785977996290 9 11 0
35.692014449357515 -27.090456445826685 31.046344181963789 8 10 0
35.299763580331103 -26.361091920128054 30.839344931632780 8 9 1
36.070549504132572 -26.095681016489959 31.276308666036570 8 9 1
36.483644954346516 -25.690407475276686 31.515178142724650 9 10 2
36.180832468105535 -24.996387542994491 31.357719516382147 7 8 0
35.519821362207352 -24.153839960696892 31.002035997737622 9 10 2
35.306266772414034 -23.492055283061639 30.894067857560628 9 10 1
35.540406167858890 -23.015083177108366 31.033876179325347 5 7 0
35.774626182933474 -22.539521624846095 31.173709456806748 3 5 0
35.919340285112355 -22.027601678390809 31.264001018928695 5 7 0
35.526490421602944 -21.288339905039738 31.056885214183268 0 2 0
35.491968761527374 -20.699886797469645 31.048036040224545 1 3 0
35.636698005660321 -20.188336743859221 31.138344687656371 0 2 0
35.333225137381305 -19.483385702539582 30.980755252850201 5 7 0
35.029638976936667 -18.776542425792606 30.823141375768373 8 10 0
35.533073039467837 -18.422298789115800 31.111822408322467 7 9 0
35.767586974626880 -17.952050387500417 31.251766820228283 1 3 0
36.091890676512122 -17.523074554781747 31.441334642783090 0 2 0
34.711443049398611 -16.332089456932408 30.688472473117756 1 3 0
33.599732025778195 -15.254063434578928 30.084309641764094 2 4 0
33.744275512365220 -14.739666977147923 30.174608471074436 0 3 0
33.439974209467834 -14.020922755157718 30.016845449462082 2 6 0
34.662041567012949 -14.002194915186568 30.702590188495350 11 16 2
33.010634092272113 -12.660626993332750 29.800491083184610 5 9 0
35.400768994229395 -13.191642184104994 31.131492587371255 7 11 0
35.905075205245510 -12.852670845445401 31.420445108567762 15 19 5
37.757411216838847 -13.152381363401780 32.453983946745296 4 8 0
36.015455109057910 -11.756832912697437 31.502093790073062 2 4 0
34.722310634443602 -10.565156658390888 30.798267569951321 4 6 0
32.799349538842733 -9.062963747357008 29.746788682761462 7 9 0
33.393494541303426 -8.766285518452415 30.085399018100489 12 14 2
37.495413625050304 -10.179423224984934 32.360660682819869 1 3 0
34.042651252516322 -7.918952444816391 30.464823727622175 1 3 0
34.097468534616127 -7.364988800189929 30.505588898485456 3 5 0
32.712507406766861 -6.097859295750061 29.751663340298634 0 2 0
32.767069298026200 -5.539646511684092 29.792375356597873 0 2 0
33.631798987097056 -5.387642053192929 30.280183854871566 1 4 0
29.873868087567075 -37.322984140227113 28.301805448893518 0 2 0
31.445230357029743 -37.257923501806161 29.178403143579686 0 2 0
29.981723998893358 -36.175667355445981 28.381808429700527 0 2 0
29.321347400235084 -35.358990565930625 28.028065844896631 1 3 0
33.572736896959270 -36.229197871907658 30.381598791292362 0 2 0
34.877919619435858 -36.101896605017643 31.110994932995567 6 11 4
35.290165271970977 -35.669830860016162 31.348192928464144 7 9 4
35.345137916204493 -35.114203670776590 31.388488614893092 10 12 7
35.400136008006541 -34.559046598996787 31.428795116975195 9 11 6
35.723322578178056 -34.100614165032411 31.616846477382566 10 12 7
35.420803468442841 -33.417763371191548 31.460191644026168 9 11 6
35.297021146281821 -32.798460697142190 31.402020519532456 9 10 4
35.173199604394114 -32.178526301586714 31.343843690059941 9 10 4
35.496593157711658 -31.723777831251830 31.531966504624492 8 9 1
35.104370681709042 -31.003605426703800 31.326003128833520 7 8 0
34.622530404233743 -30.247459776180079 31.070740131432643 7 9 0
35.125004581886344 -29.862210594818016 31.357445442355271 8 10 0
35.985715323120161 -29.617047888319107 31.841311910783148 8 10 0
36.220022400141005 -29.135555789144696 31.980291700651051 8 10 0
35.827593340163133 -28.412061124218702 31.774298893343271 10 12 1
34.987218674350459 -27.510994678669498 31.321827023925607 10 12 1
34.952744566702279 -26.922825725753043 31.312927859232460 11 13 2
35.097445034149246 -26.405683554739952 31.402626535110997 13 15 3
36.496723958451497 -26.391547012698204 32.182571041277313 12 14 3
36.910622539196368 -25.988410141897795 32.420281711451508 15 17 6
36.428258293822466 -25.223751748973957 32.164933866127853 14 16 5
35.945721738329979 -24.456200427056274 31.909547078579806 13 15 4
35.642357341604310 -23.759637867941670 31.752757886577598 10 12 1
35.697636532211391 -23.210110680413777 31.793235463727029 2 4 0
35.573523608589454 -22.585938226464549 31.735070028496224 3 5 0
35.718523586923567 -22.074275682762220 31.824889679206834 4 6 0
35.504626557512609 -21.411353153154248 31.717388840827340 3 5 0
35.559904938456953 -20.862007508335950 31.757889284286264 0 2 0
34.897054778175942 -20.004391627181636 31.403657332240371 3 5 0
34.413531395940311 -19.220406972300676 31.148063417961268 4 6 0
35.007426732719438 -18.902805340581182 31.484640991656605 2 4 0
35.332079052969590 -18.470576215112359 31.673211978048585 3 5 0
36.375491974354247 -18.357491581362204 32.256689217979769 0 2 0
35.981706871613596 -17.611784129353516 32.050455373381695 0 2 0
34.509411321555774 -16.381198288864134 31.251783672348495 0 2 0
32.766944912999122 -15.020180454065494 30.304868891660306 0 3 0
34.439876628287408 -15.196796475449730 31.234063347973347 1 4 0
35.394101582974855 -15.055293789636629 31.768378111704564 7 10 0
32.481774638024774 -13.143994618223402 30.179293464073183 11 17 5
31.457211889743576 -12.087703742606303 29.627087690870894 2 5 0
32.681259265286457 -12.070925932833742 30.309583658064355 7 10 0
34.985436582183098 -12.566716026894740 31.584942512054852 15 17 4
35.670573874567680 -12.313464714822166 31.971317763127558 9 11 0
36.895987646086979 -12.320127099807731 32.654181556056216 5 7 0
34.756054133600799 -10.151928078265335 31.500241392024051 6 8 0
33.730518018847278 -9.079495301998795 30.947839264621692 7 9 0
31.803878051627180 -7.563096972785623 29.901146626075246 1 3 0
33.209792309737765 -7.663637690217355 30.682977690888521 2 4 0
33.534940601655933 -7.240913521795662 30.871799917036313 4 6 0
34.671270669947177 -7.221082502360785 31.505545368942990 0 3 0
34.455939733498241 -6.535187480397283 31.397850573663916 0 3 0
33.158677692486293 -5.306212562276952 30.696853685602278 2 5 0
29.250680453085749 -37.818649759710169 28.645286607895528 4 4 0
32.164836249999553 -38.192500393265355 30.252074620130571 3 5 0
32.934526798444381 -37.865813821870589 30.683725227710738 5 7 0
33.972731309217068 -37.634529313315269 31.262392561584235 5 8 0
33.491043903132294 -36.891733907574768 31.008437870078069 5 8 0
33.724738827920532 -36.392086058056826 31.146348739034977 1 6 0
36.731748282815914 -36.855160927826773 32.803040574087163 0 4 0
35.534515272307289 -35.866592774933721 32.157197126611877 5 7 2
35.142279951387081 -35.154853371792250 31.952252418452389 7 9 4
35.018430476063401 -34.536329948321729 31.894291333686510 7 9 4
35.252630315758836 -34.045523548877938 32.032359355371497 8 10 5
35.307841995615661 -33.491549229769944 32.072430265523820 8 10 5
35.004863462947327 -32.807541244389739 31.916446002032203 11 12 5
35.149628531890670 -32.286278765988698 32.005544479442321 12 13 5
35.025692948539302 -31.666513602302835 31.947588022752441 8 9 1
34.812115934904483 -31.012673557976214 31.840597695868269 9 10 2
34.329616349550975 -30.256543040833321 31.586494961819483 10 11 3
34.832905957446854 -29.871263179571677 31.871763849036597 10 11 3
35.426023151690032 -29.523334701394027 32.206126527150360 9 11 0
35.750358716565444 -29.075524093275853 32.393413618082434 10 12 1
35.178010789930852 -28.281941803337538 32.090241703885681 11 13 2
34.067287217647873 -27.274679077189834 31.492702302827070 13 15 4
34.212133163087117 -26.755252258008333 31.581875497653016 13 15 4
34.626211878432031 -26.343513272668545 31.818253578513051 15 17 4
36.117354209229376 -26.364623550035915 32.643466128693277 14 16 3
36.531913177064183 -25.961189509136961 32.879981325327066 13 15 2
36.048867821259108 -25.196275136520299 32.625800029211959 14 16 3
35.565649505016381 -24.428467650015058 32.371580911714489 8 10 0
35.261870835465913 -23.731640486303000 32.215488387393648 3 5 0
35.856206226037983 -23.405103466629885 32.550237299496516 0 2 0
35.282849276051877 -22.594869017215160 32.246871412859733 4 6 0
35.338264879513446 -22.045438101744551 32.287120669313069 6 8 0
35.663305586263419 -21.610392750245403 32.474676568478827 4 6 0
34.640165402557813 -20.602845576735035 31.925728751698756 0 2 0
33.796460972307301 -19.666220062184760 31.474907439624047 0 2 0
34.031465563209593 -19.190510996147378 31.613344707670691 2 4 0
33.996744936089840 -18.598836674882250 31.604464653950330 1 3 0
34.591652402566723 -18.282554480990154 31.939419656115561 0 2 0
34.826899883888927 -17.811182165060352 32.077942391812513 0 2 0
34.252387414107972 -16.981829968603073 31.774348710213218 0 2 0
32.867683428097365 -15.787147549372865 31.028528703197807 2 4 0
32.472627083749586 -15.029144459073594 30.823076220154164 0 2 0
34.598247179433571 -15.409378483612731 31.993492720485165 3 6 0
34.113290522892186 -14.612977447557215 31.738950614846075 12 15 4
32.547411023759565 -13.318086067604199 30.894601663649368 4 7 0
28.278634853165443 -10.766826948209276 28.575573579792291 28 29 20
31.237991360723669 -7.440751422131225 30.273463662180646 2 3 0
31.924206787101156 -7.188232014751511 30.658030966153859 11 12 0
32.971602380347150 -7.116823504858827 31.239432959642102 5 6 0
34.470626357309953 -7.274386592966176 32.066914268185513 1 4 0
34.616105096025990 -6.768145431137652 32.156533052933241 1 4 0
33.136448805936084 -5.450354103762177 31.360494349428706 1 4 0
29.789782239458731 -38.695037493721586 29.624212743043969 5 5 0
31.813026553590788 -38.768454008946996 30.735754929374721 13 13 3
32.762818820674539 -38.498371948791323 31.262670741034114 13 15 4
38.726636961209095 -39.909918978055380 34.519078534548356 11 13 3
35.111157719721263 -38.126844350655453 32.560504924848544 8 11 2
33.464768078160432 -36.992361532451667 31.674049625453762 6 9 0
34.953011920230722 -36.923745941685752 32.493756806278043 1 6 0
35.814633965898452 -36.647227816111346 32.972318342662732 0 5 0
35.422041371533027 -35.938255318623646 32.768328227027197 3 6 0
34.760442363513107 -35.132446532177653 32.418017266402643 6 9 1
35.174299766191325 -34.704505706378384 32.652870472515261 7 10 2
35.319339063268416 -34.182949193077960 32.741452370092247 8 11 4
35.464433607684697 -33.662390055564728 32.830055001104697 8 11 4
35.071457132611556 -32.947118334611218 32.625995347728903 12 13 5
35.037159497056422 -32.361145369245875 32.617045490189454 14 15 7
35.002852780684947 -31.775073442495099 32.608099899414256 11 12 4
34.968536552815578 -31.188896175417327 32.599158578683301 9 10 2
34.575207267235555 -30.467823938965537 32.395033700724937 11 12 4
34.361274378979260 -29.812406444576414 32.288482357516642 11 12 4
34.685961655839378 -29.361196343261948 32.474749907407897 14 16 5
34.831167687764122 -28.843002468632122 32.563436025206428 14 16 5
34.617169246904609 -28.186648966823299 32.456889304805415 14 16 5
34.043776111833552 -27.388889389615926 32.155060518764387 14 16 5
33.829562887671756 -26.728996581394419 32.048473136696941 15 17 6
34.783471948538107 -26.530470899680751 32.576607460932436 14 16 3
35.198451909897017 -26.122588656265066 32.811857508809879 11 13 0
35.433789855388113 -25.644982873436248 32.949484998210806 8 10 0
34.949936484528592 -24.877648248061064 32.696437594786246 5 7 0
35.005458384125177 -24.327419117880645 32.736405793018164 3 5 0
35.960403167582371 -24.146904801764322 33.264847724290291 2 4 0
36.106071883052095 -23.637269171637204 33.353731747964403 0 2 0
35.532008023330604 -22.828675928512819 33.051801836441356 3 5 0
35.677642895374390 -22.318607238881338 33.140694174147484 7 9 0
35.283298343587575 -21.581271329304400 32.936432180746664 5 7 0
34.168647436569728 -20.535198658411311 32.341209342984257 2 4 0
32.513379712546907 -19.250996332368995 31.452669083396472 0 2 0
32.748609997670428 -18.772282206020400 31.590354827368543 2 4 0
34.334933493321387 -18.881508459204177 32.461250610461065 3 5 0
31.417619839270259 -17.031394312737547 30.888155268406777 5 7 0
30.030959988256740 -15.837634970838508 30.145880962380815 4 6 0
29.905419079535164 -15.194309606848918 30.087962330010697 4 6 0
29.869954924766091 -14.590325322909234 30.078934694913741 5 4 0
31.122996123946734 -7.537105337773911 30.891941545016437 26 24 12
32.804219626262267 -7.769273195124493 31.813128155077663 22 23 9
32.136335645692782 -6.859845331028277 31.461621194284547 10 10 0
32.281690917216963 -6.347193262566964 31.550699674453043 0 3 0
32.246266515642617 -5.745476515994341 31.541870027910591 2 5 0
32.572491742275304 -5.323729576293889 31.728915391651256 4 7 0
30.151774589924628 -39.508848502468048 30.501910475207495 19 19 9
31.550558010552407 -39.374090922987882 31.268477998765320 14 14 4
33.129106247088487 -39.306689144831779 32.132172632881904 14 14 4
34.708216331635100 -39.248952971206180 32.996021730359999 12 14 3
36.198223733117970 -39.170958323199500 33.811522300170935 11 14 3
34.370600340073736 -37.985093170025579 32.832407740055771 8 11 2
33.798082476601650 -37.214831208155253 32.532288997287793 6 9 0
34.122484770972449 -36.748565721484553 32.717278965383244 2 7 0
33.729188728573945 -36.036428855335203 32.514151112554998 0 6 0
33.425502973496208 -35.353345890310095 32.359518778411243 1 4 0
34.737372971014310 -35.236220615569565 33.078366626934411 3 6 0
35.151963072103570 -34.809059837094701 33.312024540479968 5 8 0
35.027961303810514 -34.192073384178066 33.254512596490656 7 10 1
34.993725723275048 -33.606811238271810 33.245537662802448 9 12 3
34.690016051827826 -32.923623067804364 33.090934925564980 14 15 7
35.015065489415747 -32.468903849554479 33.276151626188096 17 18 10
34.890964859893074 -31.850480767577807 33.218643698964939 15 16 8
35.036429969576602 -31.331678873281888 33.306802770223385 12 13 5
34.642638360059721 -30.611694250759349 33.103618713691375 14 15 7
34.788113611509715 -30.093201482271379 33.191796478392391 13 14 6
34.843724150454165 -29.541431544086755 33.231426928923739 12 14 3
35.259083537294657 -29.128073442120375 33.465363481921642 12 14 3
34.955003965106499 -28.439108425655668 33.310728345323753 11 13 2
34.650816734428417 -27.748378069770620 33.156073856297610 9 11 0
34.526480732753839 -27.126496594889488 33.098571001684093 8 10 0
34.852076969989298 -26.681820252392761 33.284013170183073 8 10 0
34.817740062266211 -26.095732752931273 33.275118789470667 7 9 0
34.423279532099485 -25.364984113449744 33.071838664496340 5 7 0
34.208763038780035 -24.704674202623867 32.965734891654549 3 5 0
35.435109733735857 -24.629691391940760 33.637315587367041 1 3 0
36.121435511501062 -24.340487839758111 34.017355897344473 1 3 0
36.357545181362212 -23.869391584553053 34.154396281809881 0 2 0
35.692667737880015 -23.024963793165497 33.805284251343082 1 3 0
36.018896373275254 -22.591722095621723 33.990965876190131 7 9 0
35.894542295294087 -21.970338327337288 33.933553572224355 6 8 0
33.967053799297901 -20.582430425972078 32.903529052355623 4 6 0
30.686326148608714 -18.604511124265862 31.143820524280514 4 6 0
30.651128400822302 -18.004673255854414 31.134814553538988 4 6 0
30.976717157902812 -17.560970799482270 31.320384899942894 8 10 0
31.933936717385848 -17.394771402034294 31.846520665676152 14 16 3
24.680206313542186 -13.626622737329070 27.945526224847029 15 17 4
26.990376979081447 -14.045806677478408 29.201305469488517 14 14 1
33.200095852893526 -7.532903976064711 32.709760726604458 11 11 0
30.811297618156345 -5.776621246834585 31.434201917403129 5 8 1
31.681032576395324 -5.619684951736858 31.912633068512406 6 9 0
30.377725596064892 -4.385065447354641 31.221591064887008 7 10 1
-138.857794611334015 -139.107068540971227 -62.157561164666248 51 93 153
32.578943869739419 -40.975965155094258 32.485966142975471 45 45 34
32.364877679393516 -40.325822301565275 32.380272061384829 14 14 4
31.612236563423039 -39.499940260559377 31.985042232013868 15 15 6
30.949106429474284 -38.699107331468220 31.638009369857642 15 15 7
33.069016931962580 -38.813511429569232 32.787058682179847 12 15 4
31.867132879325851 -37.833936895135992 32.150449939965256 10 13 2
32.910189728384381 -37.601942341859576 32.720507316750059 8 11 0
33.504468343468261 -37.224098836953836 33.049295718735820 7 10 0
32.571584192328316 -36.327684272751263 32.557403830960311 5 8 0
32.267408465985511 -35.642778906574030 32.403417169534720 4 7 0
33.221411368295520 -35.393864983260670 32.925434795307069 1 4 0
34.805003363766247 -35.371531323922234 33.785590396385231 2 5 0
35.490067704632054 -35.040820689383175 34.162944413352889 4 7 0
35.276131615739359 -34.393646290168832 34.057372360188310 7 10 1
35.062123730742627 -33.745313732427853 33.951789660075349 9 12 3
34.758087667729171 -33.063207778822964 33.797888258775188 11 14 5
34.813834114508836 -32.510905880349469 33.837217069806485 18 21 12
34.869601981352076 -31.959044092877832 33.876560228923395 17 19 8
34.925390830593500 -31.407616191208458 33.915917769837421 14 16 5
34.801162194031491 -30.789241025571329 33.858640424766477 12 12 0
34.676890509004437 -30.170208040927911 33.801361019616692 13 14 2
34.552575287737312 -29.550510388710180 33.744079602515797 8 13 1
35.238813483096806 -29.240612535017242 34.121829414083052 8 11 0
34.844305357563542 -28.517693610503372 33.919557757475118 8 11 0
34.990245352563619 -28.002689878963061 34.007331038660340 7 10 0
34.505438057423788 -27.241466019370026 33.756681581738732 5 7 0
36.003309991547098 -27.260073904453009 34.569773905211022 3 6 0
35.157923275046187 -26.355675348434055 34.125715169645517 2 5 0
34.943365236800275 -25.699060152005512 34.020120811745997 1 4 0
34.007310836884756 -24.750078907519061 33.527590272832867 1 4 0
35.145361603019268 -24.638639820683196 34.147491617549107 0 2 0
34.660048434798085 -23.869317352883868 33.896774435255949 0 2 0
33.182087290194488 -22.687888639026738 33.113864192183868 0 2 0
34.771779844334020 -22.771571767848485 33.975823043894593 1 3 0
35.278947779558422 -22.411888926105497 34.257300781627606 7 9 0
35.696014824555050 -22.017215954954402 34.490443862102310 6 8 0
32.050249494658800 -19.902274176778473 32.545886394489287 5 7 0
29.577145229156258 -18.266598999585007 31.230189771131435 5 7 0
28.096680984921107 -17.043097238445139 30.446708120609500 10 12 1
30.229125600401261 -17.374522303840138 31.599367930178062 12 12 1
30.158581868146229 -16.172896479030626 31.581386114257654 18 16 3
30.575193754868280 -15.771203289960795 31.814499736301713 15 13 0
33.507639181177410 -7.255773122776217 33.554270362022734 14 13 2
30.117579516631082 -5.000711524364949 31.751415584898055 9 11 0
29.446970467024641 -4.078035649859681 31.403132025688990 10 12 1
33.250828613362046 -42.450562941360189 33.504756866181538 92 91 81
33.485933050354902 -41.945686820937738 33.639573510403750 14 16 6
34.799377519406335 -41.785201192539681 34.350533159105737 6 7 0
33.327324157541312 -40.738916120573137 33.573205329887799 10 11 3
33.113161276135287 -40.091450429771911 33.467997368819937 11 12 4
30.381695319589113 -38.620451234423996 32.018165530952885 9 10 2
30.436707509359678 -38.052173209387973 32.056897427461848 9 12 3
31.660870489591076 -37.873247268166445 32.720037489130860 7 10 1
32.795519140415479 -37.671643114165327 33.335266513545832 7 10 1
32.311215591745082 -36.928904223466255 33.085915345244899 6 9 0
32.186667417751551 -36.306301341204119 33.028700088604495 5 8 0
32.332067323944415 -35.776072024222870 33.115623933739030 3 6 0
33.377635824257197 -35.559437610269192 33.683082389807950 2 5 0
33.883411502606947 -35.160042353185773 33.962315683765297 2 5 0
34.839581663767973 -34.922792156965365 34.481902907291882 3 6 0
34.895503752404181 -34.370736712676461 34.520952207357027 5 8 0
34.591150824703305 -33.689798666927388 34.367745523964260 7 10 0
34.376783712403636 -33.039761691967882 34.262592701320372 11 14 5
34.162343378945565 -32.388553609827738 34.157430206222003 18 20 11
34.308315681708336 -31.868743393986513 34.244578982016932 20 22 11
34.724752000481999 -31.450146572130343 34.476004455847445 14 16 5
34.780721960855345 -30.899401710488664 34.515124444766613 10 11 0
34.746542537771234 -30.315124950247355 34.506167229086188 8 9 0
34.712350604153528 -29.730723142593369 34.497217225301412 5 11 0
35.219348592394880 -29.353145349454561 34.776879844607166 5 8 0
34.824359813397223 -28.631042317495982 34.575549120945965 4 8 0
34.248766462140082 -27.836568858997225 34.277974507649091 3 6 0
33.672968884565762 -27.038701911057004 33.980357906667265 2 4 0
34.811977091662499 -26.913315833093435 34.596929518568800 0 2 0
34.958306157367275 -26.400514352295865 34.684279287774089 1 3 0
34.653205618922726 -25.708053039726323 34.531025121175659 1 3 0
33.715814947290767 -24.759101702735606 34.040846089976995 0 2 0
34.042669080178172 -24.317709436626032 34.224465910519811 0 2 0
33.104831390691118 -23.361337032401014 33.734195769364746 1 3 0
31.263070239808428 -22.027391573564152 32.762431692968221 1 3 0
31.589647029284606 -21.581588339964323 32.946017817039007 1 3 0
32.729846049598024 -21.477359863466756 33.562996155082828 6 8 0
30.887025662431995 -20.125680244531218 32.590998531007358 5 7 0
29.043548486773432 -18.762917387809740 31.618845814921173 6 8 0
32.173516891293758 -19.509319183385990 33.295470409643528 9 11 0
28.858729687496322 -5.125754291796580 31.750415703168699 15 12 5
29.549245293077746 -4.874922957176624 32.127626516993985 14 14 6
29.331743508785991 -4.176952280944812 32.022319773783565 13 14 6
26.875580067579364 -124.503296471690589 29.488945014301137 48 88 148
26.750712013038452 -123.879223686909995 29.432118199233429 45 86 148
26.889319323380192 -123.229441703223145 29.516855934035945 49 91 151
27.203694941865564 -122.564516402093858 29.695998365607863 38 77 136
29.698178828677840 -42.622617747805052 32.274279221668436 96 94 86
30.382744444880103 -42.244911759164296 32.646958507903761 27 25 17
31.877170567149648 -42.123717811009818 33.449592245387706 10 10 2
33.462099254682926 -42.039965835024219 34.300144462525793 6 7 0
32.617902793395984 -41.194755183015225 33.860985534961429 14 15 8
33.033476324641668 -40.748308474351973 34.090637419690665 7 8 2
32.278944881105929 -39.926247759794016 33.699180473180675 8 9 3
32.064369820230326 -39.276069450603245 33.594376344594579 7 8 2
32.750238196789354 -38.921164708089350 33.967459799310902 6 9 0
31.995281442553846 -38.092026432561966 33.575914175623666 6 9 0
33.311967003899355 -37.952594726784774 34.283665740188923 6 9 0
33.187543870448479 -37.334072995523258 34.226712835168300 5 8 0
33.153196112178819 -36.745680468889731 34.217565252539544 4 7 0
32.397802489102332 -35.909363626551873 33.825939329879901 3 6 0
31.912585654621012 -35.162439333404834 33.577698528744165 2 5 0
32.779621461912910 -34.885597790612152 34.046709294089567 1 4 0
34.819263547432683 -35.027371461545755 35.137513087614892 3 7 0
35.596922316707207 -34.732602206572835 35.558932704159261 4 8 0
35.472770194682596 -34.119292801917808 35.502119277337684 6 10 0
34.897455399363849 -33.342355487590453 35.206126562742753 7 10 1
34.412180876992664 -32.594961057723282 34.957931593437749 11 13 4
34.197504770183855 -31.944190572153602 34.853235066288221 12 14 3
34.253568401560983 -31.392463783215291 34.892074480770233 11 13 2
34.309651446143079 -30.841164195788672 34.930930244751181 10 10 0
33.643329264960130 -30.018695321392684 34.586950541276465 6 8 0
33.247729455926105 -29.294979447875555 34.386502956761277 1 7 0
33.303662656619025 -28.741414260597736 34.425354402396067 2 6 0
33.901715577536152 -28.396799519518208 34.751435886026385 1 5 0
33.867411729222397 -27.810619450118558 34.742472482059298 1 5 0
33.290800761744208 -27.012495278249233 34.446254712771349 2 4 0
33.165973366678827 -26.388811815695579 34.389402440925878 2 4 0
33.221925319863175 -25.836097219768774 34.428321407390698 2 4 0
33.639609958693796 -25.428183914492799 34.658815373121314 3 5 0
32.972092019037717 -24.586236681605381 34.314635983363601 4 6 0
32.485256637862364 -23.813612111025058 34.066203454079712 2 4 0
31.455382191289090 -22.816559224293307 33.530328045933089 2 4 0
30.606125346680869 -21.887726701095815 33.090183431508038 3 5 0
29.032493080223702 -20.654107635961729 32.266694362303753 3 5 0
28.273021918658372 -19.750649254460221 31.874302427647990 6 8 0
27.875437286911193 -18.994634747775805 31.673527310682488 6 8 0
21.741940447429670 -1.793221679457583 28.672848963190162 43 41 30
25.433368535216829 -3.000937334581421 30.632530087180029 20 19 9
30.854290433998642 -5.087611553467790 33.504979899834581 13 15 6
-137.140516114432472 -158.393628106245643 -57.631410167632509 76 137 200
31.089175158119474 -127.790624504817032 32.396913484599125 49 92 148
30.701463810883467 -127.212752891790643 32.199831991310788 43 86 142
31.016621269656611 -126.552482866303862 32.378150520783336 47 91 146
30.980345714151525 -125.933336778313745 32.368757708064194 51 94 148
30.328725494419899 -125.380456846935502 32.030788632615085 50 93 149
29.237269605992850 -124.869704853175335 31.458041162937292 47 90 151
28.673062362961588 -124.298791181931477 31.166866575291891 48 92 153
28.196619264993359 -123.715904778972998 30.922585354591291 41 85 146
28.071900346308411 -123.096729818030994 30.866075017631914 39 83 144
28.035138099795006 -122.468868749347223 30.856507969244760 34 74 134
28.086380738888153 -121.833144809453387 30.893896733046418 35 72 124
28.748651387221827 -43.616235381933990 32.439917614491108 83 80 73
28.353411491926948 -42.905479999177601 32.240368502538345 39 36 29
29.849300434340307 -42.769658529788359 33.038704117357639 11 11 5
31.165568092377782 -42.587498560614797 33.742142963754745 9 8 3
32.752576283697067 -42.497471187683715 34.588300022431994 9 8 3
32.988541138851957 -41.992822256197890 34.721631653481083 9 10 4
31.962878973539233 -41.089990399617641 34.189484102046322 10 11 5
31.027005060611287 -40.210050732361935 33.704791550029711 7 8 2
33.516664285814841 -40.430317875510326 35.026731463954818 7 8 1
32.670917806006969 -39.579166592685361 34.589594386513056 7 8 0
32.365995153482714 -38.900943426542383 34.437709450609773 7 10 1
32.060971851837621 -38.221073603583804 34.285806864723611 7 10 1
33.018882827755704 -37.961957456786401 34.799752502695313 7 10 1
33.074806906134029 -37.404312294737657 34.838138054682744 5 8 0
33.401499436520140 -36.939289818429586 35.019250651587512 4 7 0
32.645142200016608 -36.104612735074312 34.629511589456172 3 6 0
32.159363929737538 -35.359315282591098 34.382449453014175 3 6 0
32.937554937810972 -35.052518130746300 34.801513144793930 2 5 0
34.167575205283129 -34.909439463407857 35.458595558506545 1 5 0
34.675411268880879 -34.517371356032626 35.735074006595426 3 7 0
34.822055531896524 -33.999148948104164 35.821229625262930 3 7 0
34.788035377223594 -33.416725236335594 35.812211437858892 6 9 0
34.392507708860762 -32.702745340191676 35.612787098252511 6 9 0
34.177622035641548 -32.052780314510393 35.508553942248781 7 9 0
33.781849974200270 -31.334820835849758 35.309088963606470 5 7 0
33.838045939601784 -30.782965391741563 35.347680656161842 4 4 0
32.899451807591532 -29.858140448544923 34.862466021595353 2 4 0
32.684151724241872 -29.201508381827139 34.758173525130786 0 5 0
32.378305551729682 -28.509179495843984 34.606245160965997 1 5 0
33.701070546783058 -28.440666156241836 35.311691304441652 0 4 0
33.847790465595239 -27.924791233617327 35.397991270249022 0 4 0
33.089396969493293 -27.056900401546418 35.007906963346443 1 3 0
32.149670380865018 -26.113397675492813 34.522475977432237 2 4 0
31.933992230536660 -25.450999126771521 34.418166654761620 3 5 0
31.899360317292604 -24.859552520584881 34.409157618569012 4 6 0
31.140075214564121 -23.976918353800727 34.018898493717572 6 8 0
32.645398590903994 -24.005910718926337 34.820124425364412 7 9 0
30.526798377736725 -22.567244228296289 33.714870983492247 11 13 1
28.044940908908615 -20.967171110540242 32.418759972286523 15 13 0
18.558270598862663 -1.015135693257044 27.694397386568625 125 119 105
31.212565174139314 -132.106694725446005 33.094951171465581 60 115 175
31.527834288776319 -131.439801671693289 33.272291203923984 53 108 172
31.579538665076626 -130.810834420159210 33.309666738406037 44 96 163
31.895016231498460 -130.147354753254291 33.487043684203798 41 92 158
32.034762966562198 -129.508776894623708 33.571102745634136 41 92 157
32.350465721256370 -128.848995070300731 33.748520796565771 44 94 159
32.402412192934293 -128.223871918995656 33.785925004362142 47 97 162
32.454391597439468 -127.599238467139813 33.823329188401232 48 96 160
32.330416588828626 -126.995692392810867 33.767357788840414 45 91 153
32.646459699929807 -126.341427369077593 33.944829435443779 47 93 153
32.786580791435881 -125.708801898354920 34.028933801916864 45 91 150
32.574600286799836 -125.115133576989763 33.926245658561555 44 87 146
31.922268314330609 -124.566348605693719 33.590010902858225 44 89 148
31.357787926761034 -124.004764666117680 33.300418278536512 44 89 148
30.793117500339264 -123.439861641849063 33.010767526222082 48 92 151
30.140151348489354 -122.880025798398691 32.674341774830097 52 94 154
29.398841628661955 -122.324439308377663 32.291128487979890 52 92 151
29.009830051006020 -121.733100061811299 32.094740857840819 45 84 140
28.797001115610243 -121.124419107087220 31.991770222544886 34 72 120
28.407771355555298 -120.529199631447781 31.795307633878451 43 73 113
-137.428300840430836 -0.544806575319498 -54.101180713499474 15 16 8
28.303108120718434 -44.174572966754695 32.883698492179818 105 102 95
27.997549337355480 -43.491286187523869 32.732333198578758 12 9 4
28.954392222505732 -43.187287709104375 33.242854132236062 15 12 7
28.468470103097729 -42.449615701128010 32.996945464290391 13 12 7
32.763508329586671 -43.179724590988812 35.257234549289947 10 9 4
33.631478247558846 -42.871152497531504 35.720855999362286 7 8 2
32.153486567861705 -41.832603702229150 34.954876243183008 9 12 5
30.765245171126423 -40.813986247222580 34.236068470304019 7 10 3
32.445794655782890 -40.767208853665927 35.125490668178500 6 9 0
32.772611055497748 -40.294285649820033 35.305452387116944 6 9 0
33.099546952694510 -39.823494833804773 35.485456011476174 6 9 0
32.342766611429255 -38.999283068716153 35.097696543483934 5 8 1
32.669752035529143 -38.529511451351539 35.277733530403083 5 8 1
32.545100749318777 -37.911019531749311 35.221185035974898 5 8 1
32.691510503337383 -37.383257561750369 35.306625908961067 4 7 0
32.205298068625950 -36.641582690979966 35.060754542491551 4 7 0
31.990114355946758 -35.990088079255273 34.956864401130858 3 6 0
32.407755618211439 -35.556170952055012 35.184363038718800 3 6 0
33.820269658347655 -35.471538945925680 35.932725149750283 3 6 0
