ply
format ascii 1.0
element vertex 721
property double x
property double y
property double z
property uchar red
property uchar green
property uchar blue
end_header
31.430287897580200 -41.984201950916962 72.323996526811897 6 8 2
29.533490797036848 -42.720556950447346 76.242714958732790 7 10 3
30.072949525917977 -41.800508737271670 75.104268410802433 5 9 2
29.755325858958408 -41.469815760252466 75.745387931581604 3 8 1
29.979122805186627 -40.763195146993958 75.262497098968197 3 8 1
29.616549485038334 -40.468571508496694 75.997441066630586 1 6 0
29.795381105873979 -39.792046492468259 75.608217393604178 0 5 0
29.252541451801861 -39.632452261766453 76.718124683318024 0 2 0
29.205988616744435 -39.119329924315089 76.797455726400784 0 3 0
29.700808041707134 -38.210729258909893 75.752262253436896 0 2 0
29.383771806585258 -37.894796784658411 76.393882974255462 0 2 0
29.111934712321158 -37.549009354188577 76.941890705802138 0 2 0
29.020613186874385 -37.071127225617978 77.115061933035861 4 6 0
28.929381189846929 -36.594201698390037 77.288276197989319 11 13 0
28.748030701503197 -36.186928344183244 77.649030263219800 9 11 0
28.611878791343017 -35.747066313246101 77.916100716715022 9 11 0
28.566029557021885 -35.238901615241801 77.995703958598199 7 11 0
28.610482426143705 -34.660797959627182 77.887797668891778 8 12 0
28.564823926848696 -34.152868721514579 77.967446110143470 10 14 0
28.609469969750585 -33.573901162249832 77.859557165729967 9 13 0
28.473803404614365 -33.138147767161698 78.126833148917115 10 14 0
28.428444776199356 -32.631344473502892 78.206572144175453 10 14 0
28.202778487865523 -32.271010112026950 78.661561027758410 11 14 3
28.247833875719778 -31.692420102240739 78.553765792036870 13 16 5
28.112584935986781 -31.261376874515413 78.821248927696672 14 17 6
28.202958344734888 -30.645050436828438 78.619661813388120 13 16 5
28.158133719698135 -30.140276760574970 78.699562698660714 11 14 3
28.158524292863461 -29.597946500879097 78.685655251263313 14 17 7
28.113925721528226 -29.093558893075894 78.765612465446651 16 19 10
28.069442775025877 -28.589490863213712 78.845601640788630 18 21 12
28.115285490223762 -28.008318966287433 78.737901322657166 17 20 11
28.116144602753366 -27.465341820825685 78.724073304984245 16 19 10
28.026915767360641 -27.000627034858990 78.898013423642226 16 19 9
27.937808871486695 -26.536751240710807 79.072000195341104 10 14 2
27.939038015052297 -25.994103341646493 79.058256575875532 6 10 0
27.985502055028874 -25.411109864678401 78.950636731894377 6 10 0
27.986989985036686 -24.867641200151411 78.936925029795589 6 10 0
27.672850781630004 -24.608255289680095 79.580598460606751 6 10 0
27.719708363009737 -24.025229599759822 79.473058515021648 5 11 0
27.811814083688489 -23.400182477855253 79.271601838538231 4 10 0
27.994284680423185 -22.690834635083867 78.882278094419604 3 9 0
28.041567137952072 -22.104137683302117 78.774730618180683 2 8 0
27.818313206593693 -21.768544810649466 79.230852483951537 2 8 0
27.730536495988389 -21.308552366036665 79.405212281373736 0 3 0
27.778249916883006 -20.721677541996584 79.297748623307854 0 3 0
27.916350197850988 -20.048256511462711 79.002364492626157 5 11 1
27.919253594507694 -19.502115349427605 78.988874224653188 13 19 8
27.741828639283220 -19.129098460334951 79.351317084368191 10 16 6
27.564546815817621 -18.757910043669391 79.713836464692605 6 12 2
27.387409469189826 -18.388543105672706 80.076432461169276 9 11 2
27.210417947197968 -18.020990588553168 80.439105168247465 8 9 1
27.349466183713993 -17.343896478756026 80.143820762069055 9 11 0
26.947136703029237 -17.201789954305937 80.976657920109176 7 9 0
26.680331852442841 -16.929148012127360 81.527584481820099 5 7 0
26.549070780358164 -16.523472012438969 81.796539931284883 4 6 0
26.869324901615563 -15.663152456986676 81.125241884899282 2 3 0
27.009231118755068 -14.981952720975288 80.830027590114213 0 3 0
27.149327138497988 -14.298623143386321 80.534797298504174 0 3 0
27.334759232410200 -13.566730686761057 80.145499600121468 0 2 0
27.565538444038559 -12.785427318509567 79.662114888265535 1 7 0
27.570787239749222 -12.235726915688824 79.649013945816051 4 12 0
27.305317338583613 -11.969053698898751 80.200368295735785 5 12 0
27.356079466362409 -11.372462154694542 80.093279425156481 9 15 3
26.503904135527449 -11.731074640239161 81.867900880110369 12 18 6
26.419524017784909 -11.282168086602507 82.043243361426647 14 17 6
26.290163581095662 -10.882206575860206 82.312736084076448 10 15 2
26.702975706425299 -9.899511293515916 81.453038842443277 7 13 0
26.077148685869474 -10.036702375192224 82.757806905778949 2 8 0
36.803248757132749 -136.676050399680264 63.308299876618179 123 169 211
36.308130371764065 -135.925508868360538 64.310640082421997 73 132 190
36.173256080102611 -135.292914916025211 64.573001754977554 50 112 178
35.993316312237887 -134.648170138977065 64.927920439638399 36 91 155
35.903414255134948 -134.032466583440026 65.097828214109427 27 79 139
35.813480228495784 -133.417800481552462 65.267756188095831 24 72 134
35.723513599154501 -132.804172733744849 65.437704254936278 20 64 125
35.768618229470839 -132.229511525625043 65.330020450680138 15 59 120
35.768654306554183 -131.641887921367868 65.314872095592449 13 53 114
35.903760480828495 -131.090512133158768 65.022021510699574 6 45 105
35.858692166578344 -130.490152795803141 65.099407099125642 6 45 102
35.768553347859012 -129.878738296524432 65.269376927083840 7 46 101
35.678378346910328 -129.268368036699286 65.439366265402242 3 43 95
35.678236023682352 -128.681062769210371 65.424189524535620 7 44 97
35.723090799121593 -128.104452983197518 65.316404209282268 10 47 102
35.767907305796292 -127.527257731216835 65.208595943648902 14 49 106
35.857719316619331 -126.959671298769024 65.008150749781379 15 50 106
35.947491592103447 -126.390957072372387 64.807668317178781 13 48 105
36.037223505668628 -125.821116109673298 64.607148544585840 13 48 104
36.126914446534087 -125.250149500261756 64.406591334812134 11 46 103
36.126496383450764 -124.659849916337009 64.391280801751236 9 44 101
36.126037021662832 -124.069516134150618 64.375960914841613 14 48 107
36.080502639065124 -123.470589804590858 64.453287855784623 22 52 109
36.305124730720586 -122.921900272233131 63.974639585620196 24 56 117
36.484668799933985 -122.362442102706609 63.588581402719882 29 60 117
36.709199955602273 -121.808518704052389 63.109779488566602 40 60 102
36.798588035369555 -121.229433221050428 62.908950752522401 82 83 104
36.977994471361903 -120.663627580260709 62.522700624724592 127 108 108
37.157353751473210 -120.095617836319391 62.136383976235265 129 101 92
37.336665308306188 -119.525405287402748 61.750000724143206 132 105 98
37.560959301685855 -118.959371932186613 61.270837824427360 127 101 99
37.875264258633820 -118.402810124183048 60.606153794423761 121 101 102
38.144487403474955 -117.836579170799453 60.034087431947995 110 100 100
38.458688231457543 -117.272624494395899 59.369191367481420 97 93 99
38.547691090343172 -116.678384449170963 59.167892748570097 58 57 70
38.771730285521436 -116.098095179739317 58.688309897852434 20 23 43
38.950689148331513 -115.510321919513757 58.301401376852681 21 31 59
39.354733097924203 -114.942725051283048 57.450611527419085 26 43 76
39.398504621669652 -114.336604543920828 57.341842870180784 21 44 85
39.442226892533029 -113.729930352261277 57.233049829032893 20 44 90
39.395848452532285 -113.115391706918743 57.309800957358760 20 46 92
39.574547973492713 -112.518310995252961 56.922599182090920 18 45 88
39.708169547091615 -111.915935314561196 56.628128684174328 18 44 88
39.751691160080746 -111.306244948937021 56.519216689053422 19 46 93
39.660093707561977 -110.688310109447684 56.688719129743646 24 51 98
39.523428098600100 -110.069172312877328 56.951060395802642 30 57 104
39.386718223290409 -109.451671929245634 57.213434812780093 33 60 107
39.430047526796329 -108.842805954242749 57.104504630559660 32 59 102
39.653406923128848 -108.239306326677053 56.624183696741795 34 61 104
39.696632956154794 -107.628273800636705 56.515176451275920 36 62 107
39.739808869818937 -107.016705392541397 56.406145103303430 38 62 108
39.917987413623649 -106.406579678434284 56.018500005701441 35 58 99
40.411227715525484 -105.796992310396647 54.980694631705262 55 77 111
38.966698891227836 -104.568431023163328 57.920361694224397 186 207 227
39.189700493016275 -103.958205480836810 57.439793891992764 70 90 119
39.142567035626925 -103.349493501046112 57.516540418682098 25 48 87
39.140400395733757 -102.740370815969726 57.500385712868962 24 48 98
39.228208983068846 -102.128773680052106 57.298394439523719 17 41 94
39.225946674395168 -101.519151000485763 57.282207213009684 19 43 95
39.088610757228167 -100.914931495284904 57.544795741893012 23 51 101
38.951234966561096 -100.312372438800082 57.807418916952344 33 62 112
38.948840552188884 -99.704462533719052 57.791248766103564 34 66 115
39.081418183238767 -99.088751999045925 57.496220191472247 34 67 115
39.078929901376682 -98.480084715777735 57.480011251092151 24 57 105
38.896382507589514 -97.884067682863900 57.835651786439087 18 51 102
38.578792647954359 -97.300543107100424 58.470257309617949 33 66 117
38.306176529910005 -96.717166177630233 59.011977421453565 25 59 112
38.213531587136224 -96.121206815393634 59.181831767777794 20 56 108
38.165847510991583 -95.522130032165947 59.258713850325108 14 50 102
38.163121174679176 -94.919120316744383 59.242601994336411 11 48 100
38.025363877932193 -94.330514816387833 59.505506793650341 15 48 99
38.022558127809049 -93.728402526552287 59.489401793134647 18 51 102
38.019711571795924 -93.126332448278404 59.473289510595833 18 51 104
38.151802258393168 -92.507491697336974 59.178080313184552 17 53 105
38.013898148533528 -91.922323704003247 59.441043654774376 18 54 106
37.875962844137746 -91.338834240537352 59.704043889243877 25 62 115
37.603031618271920 -90.776287422761911 60.246236603361893 26 65 121
37.510027376752717 -90.190280848169763 60.416273943208523 34 75 128
37.461977168794519 -89.598446075188548 60.493267702275574 35 75 127
37.458877492717583 -88.999967872397221 60.477196136118408 25 62 113
37.185844570068006 -88.446595863196137 61.019604621676649 11 42 95
36.867812220848123 -87.904320592153084 61.655183260403078 16 42 95
36.504785775181453 -87.373958429121160 62.383954201182519 38 55 97
36.231706207009935 -86.831350114880507 62.926630731065757 5 14 29
36.093542685084294 -86.266267323160122 63.190058887675178 7 13 11
36.180233721963354 -85.658525459848320 62.987937798988980 10 15 8
35.907095334012887 -85.122877698358934 63.530781786687101 9 14 8
35.858807120967064 -84.543484488898727 63.608047610406942 9 12 3
35.990375995690698 -83.925953285379165 63.312765146308493 8 11 2
34.952702858657510 -83.565711013792722 65.439253720942048 8 11 1
34.679526458362552 -83.044150898019581 65.982453253958624 8 11 2
35.395598817053639 -82.294914369472949 64.476182218138661 8 11 2
35.392159943116972 -81.709384396292535 64.460375026159767 8 13 6
35.433658543484725 -81.112869909764242 64.351387866876308 5 10 3
35.205360833938215 -80.583759937777756 64.801483959327356 3 8 1
34.662337225647839 -80.138530596734142 65.903986525662248 5 10 3
34.568911367593003 -79.581298957031251 66.074679528838033 7 12 5
34.430513766576503 -79.037342684438528 66.338604554403275 7 12 5
34.516879258879570 -78.433069640697383 66.136506151467898 5 10 3
35.007796375464196 -77.713716428352882 65.095393172960797 8 13 6
35.004191355288455 -77.130835881838976 65.079620231494800 4 9 2
34.685919669541995 -76.640524730733162 65.716490011904483 6 11 4
33.693433238576233 -76.356379186505933 67.752095710402472 5 10 3
33.599933111501052 -75.809066865470726 67.923029313530009 6 10 3
33.910926779025097 -75.136631165457217 67.254677447665813 7 10 3
34.536483018303571 -74.360347717570733 65.933370619803895 8 11 4
34.487859497393892 -73.795113383831961 66.010932840183386 8 11 4
34.124650799713898 -73.334387122744459 66.741462416310441 7 10 3
33.851334295123252 -72.847829923395352 67.285535990382385 9 12 5
33.263476481881632 -72.472289601235417 68.482753791614499 10 12 7
33.035129370391957 -71.978598736900423 68.933753265611642 12 14 9
33.570645108061846 -71.216889690706211 67.798581692354901 11 13 8
34.106112199195501 -70.448729153386168 66.663233745668634 13 15 10
34.866176825337696 -69.591762875365745 65.061093632390168 14 16 11
33.918940618412982 -69.361831671203873 67.005265102643818 15 17 12
33.960136333649636 -68.769052785715644 66.896312158084555 15 17 12
33.192698503502001 -68.486900544718807 68.467560072551350 14 16 11
33.458525627734893 -67.810247316723661 67.891949098822579 15 17 12
33.320049510721717 -67.290829579504532 68.156490906194676 18 20 15
33.900281179827850 -66.483534318927539 66.927201485980049 19 21 16
34.210969251855708 -65.779452936934803 66.257970738779818 27 29 25
32.171190603799317 -48.481975250409540 69.784352047298370 7 9 2
31.181344629109851 -48.517488740633972 71.828743915978947 6 7 1
30.774814644033313 -48.206451241196177 72.656362401495073 9 10 4
30.547801852516798 -47.788887210124507 73.109599024770688 8 9 3
30.051696330032122 -47.542678086441263 74.124744276084726 8 9 3
30.183687318518345 -46.905013413061681 73.829029127906750 8 9 3
29.912011880945059 -46.523578142335637 74.376150605933702 6 7 1
29.774974308266884 -46.058572934806030 74.642390895940167 4 6 1
30.131402049106882 -45.273987577146151 73.878351721320001 5 7 2
29.815067992838301 -44.927024888406393 74.519316164754485 6 8 3
29.409105615798033 -44.643275152466032 75.347754881907150 8 10 5
29.451737499993584 -44.064255624809860 75.239451422166553 7 9 4
30.391434405707031 -42.879040834170731 73.257234489138739 6 8 3
30.748113927186488 -42.079537836898361 72.492862213741347 4 7 0
30.387274235949228 -41.768771372383227 73.227745460439934 3 6 0
29.443505704128583 -41.866466087636397 75.181078271377544 4 7 0
29.082848332834580 -41.567738786386393 75.916309427666960 4 7 0
28.542895394376131 -41.399802558885071 77.026593731066981 3 6 0
28.944770739099958 -40.568266728058568 76.168551614886667 2 7 0
29.167330733806168 -39.860464733285284 75.685376570170462 0 5 0
28.762158462523757 -39.604124630176109 76.514684304294320 0 3 0
28.805499290696090 -39.025372000451689 76.406533157689836 0 3 0
29.297332673847976 -38.116064076549243 75.360708900917757 0 3 0
29.295983992399840 -37.566554531849860 75.346259505783792 1 4 0
28.711796632934778 -37.452859804118482 76.550983664611067 0 2 0
28.441586611010571 -37.109466447087314 77.099386913068486 1 4 0
28.350825564685515 -36.632898132854592 77.272706999715211 8 11 0
28.260154349521088 -36.157283094061327 77.446070100404199 10 13 1
28.169574464736392 -35.682616225883280 77.619476391016633 9 13 0
28.034249730715807 -35.243783740966784 77.886743081152105 12 15 4
28.033532032159634 -34.700942994435238 77.872595121867334 13 16 7
28.077745908265506 -34.122511990246167 77.764631363420307 15 18 7
28.122055627205135 -33.543375997942242 77.656669082943466 16 19 8
28.031953555329999 -33.071466329217749 77.830244502432095 14 18 6
27.986788635538488 -32.564220696682447 77.910011825530631 13 17 3
27.717544534030139 -32.239958218066946 78.459106634383517 13 17 3
27.807094404238732 -31.624410964622182 78.257370679690837 12 16 2
27.717404729970262 -31.155856143575004 78.431117223377072 9 13 0
27.807167018483511 -30.538829951209991 78.229386698961349 7 11 0
27.672857059126557 -30.108576559092697 78.497082823736775 6 10 0
27.673166649658235 -29.566089598453271 78.483154722376668 6 10 0
27.628752319508791 -29.061544095848287 78.563145658564025 7 11 0
27.629289130896659 -28.518887866191410 78.549259802494703 7 10 0
27.629942545926859 -27.976000185161141 78.535391896442064 6 9 0
27.720389899348206 -27.354917183766496 78.333697271382249 8 11 1
27.541930785795422 -26.968005324606313 78.695569615178442 6 9 0
27.542944830927318 -26.424927082776485 78.681770772208239 5 11 0
27.454404862103381 -25.961186017474866 78.855877315510554 4 10 0
27.545348213723976 -25.337982113048337 78.654229735679706 6 12 0
27.501901056946672 -24.834446470220080 78.734445119136808 6 12 0
27.548265555864894 -24.249934848635906 78.626765700388347 7 13 0
27.639606428975483 -23.623689357665150 78.425121218835415 3 9 0
27.775928674258907 -22.954878618974483 78.129491257158548 0 5 0
27.822705630792377 -22.366999842416863 78.021809603681703 2 8 0
27.824778882550767 -21.819973145109788 78.008126204339732 9 15 3
27.468224168171290 -21.608562170543937 78.746450988430354 10 16 4
27.425725758598311 -21.105343753415170 78.826869175155991 1 6 0
27.652461858859063 -20.347078585356190 78.343249270735072 2 5 0
27.655108888276992 -19.799800658605356 78.329677093814468 9 13 2
27.837311361187631 -19.079789592847924 77.940023326411136 12 15 4
27.571149462811128 -18.790895573122015 78.490662613132514 9 13 2
27.439686857207285 -18.373998442862543 78.759287310000474 7 11 2
27.128946834119297 -18.134054753719475 79.404159478654094 9 12 2
26.908056943816391 -17.809188444875019 79.861042947906583 11 14 3
26.911607317640545 -17.264314555241302 79.847718082754909 11 14 3
26.691012773620002 -16.942779796761158 80.304748063975524 9 11 0
26.425699835276163 -16.668618641774998 80.855941486562557 4 6 0
26.295125338001490 -16.261438583109157 81.124998984637813 1 3 0
26.433912197301368 -15.581992992044761 80.829600312299533 2 3 0
26.707492579810356 -14.762855311478038 80.251904902567389 1 4 0
26.936401932412579 -13.986060663571866 79.768252903818905 0 3 0
27.434758983872840 -12.927523805842336 78.719918027785127 0 3 0
27.260194493802281 -12.562778391697570 79.083161004388870 2 8 0
26.906273601499180 -12.387649709856495 79.822961856822729 6 12 1
26.911553348439242 -11.838469339270322 79.809880676027774 8 14 4
26.961905017816221 -11.241241984222599 79.702691207373618 11 17 7
26.294244506668548 -11.407868015133584 81.101751840884361 13 19 9
26.030705450580953 -11.149545159236771 81.653717644427957 18 21 12
25.542852939310379 -11.135873474006656 82.676553393092718 10 15 3
26.042863730320768 -10.057542038878035 81.628047223441570 3 9 0
25.824736491195573 -9.755334896275960 82.086081826134688 1 7 0
40.499732032578976 -160.347716504445032 54.874076911634887 212 145 163
39.829067973374634 -159.369370201271835 56.242990737577827 209 123 147
39.740281064346348 -158.708225892480300 56.411955278294556 167 77 102
40.368412382892771 -157.807299128352980 55.087961938846263 127 44 67
40.592970152528977 -157.305140001122993 54.610500567787511 110 38 56
41.086101441910607 -156.936382896186927 53.578884230447954 110 47 63
36.448081680313464 -137.350071366764524 62.742252068029359 122 160 197
36.090223548831901 -136.638819012288252 63.467417763976812 102 161 216
35.777103600985477 -135.946139689049915 64.100124947584135 68 132 193
35.553491115788241 -135.285224068347588 64.547782665569599 54 115 178
35.419386180357293 -134.654441638010724 64.810348882278504 37 91 156
35.285249554405006 -134.025239014780539 65.072949343904440 26 77 139
35.240619946070197 -133.423995777327690 65.150402129182481 19 65 127
35.195957662350175 -132.823246215375576 65.227860944270077 22 63 125
35.151262049601222 -132.222991214430351 65.305325677920621 23 64 125
35.151302229724948 -131.635604884141770 65.290184284187632 25 64 124
35.240847352879968 -131.072373024501502 65.089796653668685 32 69 128
35.330357194576720 -130.508005925830645 64.889372506041980 30 66 125
35.330291590475845 -129.919390691311492 64.874177716821833 20 57 112
35.285419775796449 -129.319445806152970 64.951614303626627 13 48 102
35.285280553677225 -128.731013900385648 64.936409141097499 6 40 94
35.329873148702688 -128.153279525413978 64.828541038441642 5 38 93
35.374427274218817 -127.574959000486928 64.720649926584827 7 38 93
35.418942328876710 -126.996053392471964 64.612735709685410 9 39 93
35.597725237998333 -126.446334813837652 64.226772585687513 11 42 96
35.642159950155090 -125.865445573922102 64.118790726657835 14 44 98
35.731322673351627 -125.293353712636957 63.918096138761285 14 45 99
35.686137690800344 -124.692816213066067 63.995453199315023 15 45 100
35.775216967608024 -124.119292156996920 63.794704555019678 13 45 101
35.774716993583674 -123.527520992828570 63.779339264720164 11 40 97
35.998014450422552 -122.977166902491277 63.300376333620704 13 41 97
36.221266431633644 -122.424058436538658 62.821333034099098 16 44 98
36.354937443427019 -121.852706529518670 62.527672830609390 21 46 97
36.488562853911063 -121.279692135796068 62.233960394483063 32 43 88
36.711675653484896 -120.719417215573714 61.754703709543122 101 92 118
37.113806051053245 -120.184104488858182 60.904353982928143 117 102 108
37.381586667432977 -119.623897689320913 60.332147079590186 112 96 98
37.649317120456764 -119.060399097056916 59.759844985361894 111 97 104
37.916996751219401 -118.493610032655837 59.187447599138636 73 65 77
38.139860107577590 -117.917693662449068 58.707736326502300 21 23 37
38.273143567642308 -117.327903009049365 58.413521057626724 6 12 32
38.316849431929576 -116.725874291471527 58.304844465143077 14 22 50
38.405270427152693 -116.128306222007325 58.103340650389498 13 27 59
38.538404744341818 -115.534382929679381 57.808988199660774 13 31 70
38.716250465057072 -114.943288524187011 57.421765676296815 12 33 76
38.759758483644497 -114.337393705646846 57.312948785735131 13 37 81
38.713694826300085 -113.723083312173657 57.389770374066444 16 43 90
38.801865852676720 -113.120285738996515 57.188080404594416 17 44 91
38.889986026878120 -112.516392547999345 56.986351745806189 18 45 92
38.933295825826690 -111.908291990072968 56.877437303847898 19 43 91
38.887038417074997 -111.293962323731549 56.954218649854880 18 44 93
38.885491701618086 -110.682745296714330 56.938137095965203 22 48 97
38.883896343909207 -110.071529182153284 56.922045587368046 21 47 97
38.792739317103795 -109.456268878571066 57.091707355476586 23 49 99
38.746292438935811 -108.843853634396353 57.168499210644626 29 55 103
38.744553546818118 -108.233467593950110 57.152399667022053 31 58 105
38.742766183985758 -107.623089021598958 57.136290372960872 26 54 103
38.875190516885880 -107.015519766249966 56.841440328131881 24 52 101
38.783798887244160 -106.403021732566117 57.011125214299085 26 53 102
38.647610794560052 -105.791237524538246 57.273754096635543 35 60 106
38.511379928439275 -105.181102110333214 57.536416729670435 30 55 96
38.375106632977825 -104.572617036440505 57.799113223876390 47 71 116
38.417787046134173 -103.964068070818342 57.690058107543109 23 47 96
38.505166184701409 -103.354291523546181 57.488025695014159 27 52 107
38.503000205631409 -102.745393156297965 57.471876910275881 22 50 105
38.590279297433284 -102.134024146092685 57.269782902452647 12 41 94
38.498527486500571 -101.527663560146408 57.439552197361962 13 42 93
38.361989276843204 -100.924208647631545 57.702324084258635 14 46 96
38.180668234475846 -100.324478043425358 58.058120408565145 19 53 104
38.223019274931517 -99.715275167197703 57.948980860871927 26 62 113
38.220581914310714 -99.108165146156608 57.932822530526096 33 70 122
38.128620111418144 -98.506847128577675 58.102678804609724 25 61 114
37.812925445788807 -97.922415355651509 58.737649700841501 10 44 97
37.676152079555429 -97.328128859466901 59.000609817002356 36 69 122
37.494605740756874 -96.739208759177544 59.356638745310534 23 56 109
37.447230623769897 -96.140593783002771 59.433596117021324 19 52 103
37.444548889894691 -95.538318837029891 59.417512361448615 20 53 106
37.397092222661193 -94.940597179184010 59.494476044441370 13 46 99
37.260133525388909 -94.353033451964947 59.757571533670756 11 47 97
37.167871082124840 -93.762085677030498 59.927633601012190 13 49 101
37.165030452219113 -93.161607276016738 59.911563586037829 18 55 107
37.385786776175387 -92.533156571106545 59.430065141953605 20 57 110
37.159228841640882 -91.960783156848080 59.879402290006681 23 60 113
36.977369811164863 -91.385029905986613 60.235706668401775 25 63 116
36.616589316473494 -90.837179517999559 60.964487283541871 21 60 115
36.613569249098916 -90.240197024880999 60.948470624689776 27 68 122
36.521070627831712 -89.657191373244302 61.118689083699365 34 74 126
36.383821776420668 -89.082560026486419 61.382058598928722 33 68 122
36.157109890072050 -88.524627826728050 61.831736628132830 33 65 119
36.064526298012794 -87.946127995914480 62.002053868986536 8 37 92
35.837769277013408 -87.392924604967931 62.451844603050176 38 60 108
35.655706639734476 -86.834170602438647 62.808545652404746 0 3 25
35.294775076026461 -86.312029555207218 63.537958363118491 3 10 9
35.604492069555434 -85.661278808619457 62.869903896145473 4 9 2
35.064686702829356 -85.180429126405642 63.972147931552570 4 9 2
34.659009549785779 -84.677926226110159 64.795003163042338 5 8 0
33.627448464398441 -84.315938610996312 66.922700519796166 5 8 0
33.802946075590569 -83.697724801824819 66.534296863422270 2 5 0
33.665484206369285 -83.148981828963301 66.798290383895136 2 5 0
33.975016062312932 -82.496941526713044 66.130164678964604 4 7 0
33.926902985363945 -81.927317804516633 66.207718400028511 4 9 2
34.012861364335819 -81.325170481629641 66.005591309544485 2 7 0
33.964699657706042 -80.755936797710604 66.083145114659118 3 8 1
33.782433347756374 -80.222062013658274 66.440446058537134 4 9 2
33.600157210167879 -79.690420155387002 66.797802577159075 4 9 2
33.864785986632874 -79.039726405018229 66.222615316631703 2 7 0
34.308132522164421 -78.336234245385285 65.274267936156065 4 9 2
34.125792824268444 -77.804773984043024 65.631616099993835 7 12 5
34.390310700116913 -77.146116301295223 65.056200687242608 3 8 1
33.805781245759029 -76.735337778180750 66.253192402501782 2 7 0
32.908497688725198 -76.426079517296941 68.103450030951592 2 7 0
32.636803543675782 -75.935135428208511 68.647743263250590 4 8 1
32.856589607807933 -75.293191939294033 68.165697784108119 7 10 3
33.389088913627532 -74.548494141943351 67.030346181713298 7 10 3
33.028011538180117 -74.088772732021965 67.761338883914306 7 10 3
33.113693116352550 -73.485024847531605 67.559113730772793 7 10 3
32.841975440821898 -73.001163142458282 68.103584802189857 7 10 3
33.195660721736715 -72.305222324064104 67.341269337251731 7 9 4
32.298573138137655 -72.043380785639656 69.192790120130297 9 11 6
32.518231972288653 -71.394254465054672 68.710533284876192 8 10 5
33.229188134128599 -70.564287251820772 67.201130562747778 10 12 7
33.002140877170689 -70.071568686307970 67.652421759894992 11 13 8
32.819768455150331 -69.564876725626661 68.010402025082925 13 15 10
31.967501183632358 -69.315590459939514 69.769325935412866 12 14 9
32.410397233274161 -68.575447978145533 68.819940873770321 12 14 9
32.406688361581352 -68.005480222145920 68.804479670285616 12 14 9
32.760219639745138 -67.292964098212693 68.041705110222637 15 17 12
32.577884046687942 -66.793318109270089 68.399874657248148 15 17 12
32.484867657610948 -66.259156778782426 68.571246677248809 20 23 16
32.213262460813702 -65.800681329646636 69.116395574300952 27 29 23
32.298866884518979 -65.194234222828342 68.914084976781879 31 33 28
32.161238629792507 -64.682650223452342 69.179002755278930 22 24 21
32.380783759067576 -64.017132407131029 68.696299832164925 5 7 6
31.975320920863446 -63.625052334542815 69.522047009118666 21 22 22
31.793103863020740 -63.137929085576552 69.880563853457204 25 24 29
32.950089349458878 -62.045120597848687 67.434729178980291 0 0 2
33.035695609656067 -61.431085828691472 67.232223260202034 0 0 2
32.407135253396149 -61.148882062720332 68.525613753831180 46 46 48
31.510833088354559 -61.000749317083951 70.380228385998691 13 13 13
31.150203681989154 -60.607327873654370 71.113022964989511 1 1 3
32.307061191057819 -59.483299039764717 68.666356815011341 22 22 23
32.571269173523724 -58.782976566480940 68.089803230387673 25 25 25
32.746222037744779 -58.123752636706449 67.700230110376538 18 18 16
32.162547246238155 -57.843682622317729 68.900768329326269 20 21 16
31.400442517942892 -57.661474039432896 70.475687958383872 15 16 11
33.041084562388626 -55.101187335380700 66.967955564355492 14 16 11
31.743753242592980 -55.217436240812106 69.666158079643850 12 14 9
31.829634069383651 -54.603763346011114 69.463717817476748 13 15 10
32.897051622781518 -53.453908950821145 67.202268135374226 13 15 9
32.402983611969816 -53.151860026694074 68.216391154119236 14 15 9
32.533538751645338 -52.507669242787031 67.920213143852152 12 13 7
32.753338849674392 -51.811589253928005 67.436774276345233 10 11 5
32.794728327830811 -51.214427396424270 67.327748035511718 10 11 5
31.899416413430451 -51.155923305227255 69.184877469839989 13 14 8
31.807094013651984 -50.641196317133755 69.356893094397378 8 13 6
31.536404114649258 -50.232414012802195 69.903511417256595 11 16 9
31.399580187774085 -49.747404588432566 70.169279592696313 8 13 6
30.995204417087393 -49.424556911190841 70.997035380112550 7 12 5
30.501700493927075 -49.160622024878677 72.012257135327502 12 16 9
29.829881836359718 -49.011820296762288 73.402329398270382 11 15 8
29.158151648544482 -48.871114442775635 74.792628615065183 10 13 6
29.244628795298418 -48.265202471521484 74.590510845824440 5 8 1
29.955465212576421 -47.264613050793507 73.076682939318545 7 10 3
29.551496983993879 -46.964890243720156 73.905118755504390 7 10 3
29.058422282267621 -46.727309064770829 74.921108263576997 6 9 2
29.189691185154423 -46.090708441734350 74.625272433744584 1 4 0
29.856075950377907 -45.102103439948408 73.204749942988997 3 6 0
29.496965301888359 -44.783031104132306 73.939773655578875 4 7 0
29.004173030020894 -44.557447207937869 74.956130529150670 5 8 1
28.734393849768452 -44.187729714857632 75.503943216714788 4 7 0
29.311793493898705 -43.245922926904100 74.270603580153249 4 7 0
29.978396238261780 -42.235911392614888 72.849573695779696 2 5 0
29.664223334345337 -41.895735295932191 73.491156504873715 1 4 0
29.216388298022196 -41.652550129337421 74.414166808085128 1 4 0
27.698712920330934 -42.167384097248856 77.588023733959460 2 5 0
27.919769319408495 -41.466893974455957 77.104728833668759 3 6 0
27.784259532684104 -41.018836759662740 77.371719642381606 1 8 0
28.362071291558955 -40.057518977781150 76.137961325242600 0 5 0
28.003821498467389 -39.770420645013253 76.873986290482577 0 3 0
28.225150499229407 -39.062237796512512 76.390548902669309 0 3 0
28.624851838328631 -38.219283221974244 75.531766313545091 0 3 0
28.890896541241602 -37.471113466284059 74.954355446857761 1 4 0
28.220960371589300 -37.423724595292150 76.347429474789038 0 3 0
27.818567220712936 -37.181541512563911 77.177672436787077 0 3 0
27.728279541245186 -36.705600567852244 77.351105808536033 3 7 0
27.727225136966410 -36.161923383272715 77.336867205954235 8 12 0
27.726258873859116 -35.618109602547619 77.322643161201199 8 12 0
27.591668241290499 -35.178820574003552 77.590048666439344 10 13 4
27.546313685834235 -34.670692829473658 77.669754337491696 9 12 3
27.545623810664907 -34.127522749611110 77.655603591729687 8 11 0
27.678740143826701 -33.477079780922310 77.359789718686756 8 11 0
27.589101139156348 -33.004722362098413 77.533448581395305 8 12 0
27.544131681194195 -32.497033157114330 77.613244560162656 9 13 0
27.320983905571168 -32.135794294236931 78.068726750973838 8 12 0
27.409927271185140 -31.519542467686470 77.866848208729692 4 8 0
27.409835081656027 -30.976142573585303 77.852814142091461 6 10 0
27.454418427641883 -30.395208378324611 77.744861613631144 5 9 0
27.320830809199983 -29.963968554928719 78.012680474355477 4 8 0
27.187352201305821 -29.534155197969390 78.280558487846037 6 10 0
27.187694003470611 -28.991294251611976 78.266627348535934 9 13 0
27.143578765569458 -28.486639615189741 78.346676824354461 8 11 0
27.322430642428493 -27.788791319016152 77.956907344938344 8 11 0
27.367689700989821 -27.205446690529776 77.849031260014669 9 12 2
27.190212439000859 -26.817553240687609 78.211079699392116 8 11 2
27.101996140767852 -26.352551490319655 78.385220123855760 5 10 0
27.147617480824380 -25.768999104706857 78.277412997252753 5 10 0
27.282510550889455 -25.104495422206657 77.981600947230646 6 11 0
27.551254988581348 -24.317046850865019 77.403730827660979 8 13 0
27.463543436375019 -23.850962609920835 77.577946874165093 5 10 0
27.732560413549777 -23.058557617456326 77.000004827999533 2 7 0
27.600538430673282 -22.633048305559246 77.268292654877513 0 5 0
27.646954097643622 -22.043120013738303 77.160484027882916 4 9 0
27.426043092894901 -21.702610610524321 77.616959705310222 20 25 13
27.071525177074747 -21.490489911691171 78.355684003684161 8 14 2
27.118350750856472 -20.902063706684153 78.247998204261165 1 7 0
27.254484588983935 -20.227671096551401 77.952185628210259 3 6 0
27.212442125349895 -19.722533975237514 78.032647859066628 9 12 1
27.348880307356794 -19.045233399214105 77.736822713570916 12 15 4
27.351721752983643 -18.496006952319252 77.723240162809276 11 14 3
27.488476149187662 -17.815482721389575 77.427396740763214 12 15 4
26.956570683973275 -17.791663733246789 78.543048879597222 9 15 1
26.736912656570560 -17.464728550560075 79.000131687794976 9 15 1
26.606579549954290 -17.051216071443044 79.269075380321112 9 12 1
26.520989867746820 -16.594205798330080 79.443960729380848 12 15 4
26.435555489640294 -16.137881761330327 79.618895635919046 14 17 8
26.350278261500115 -15.682235279447472 79.793880254690976 33 34 26
26.577356360219142 -14.908221770848900 79.309924331238790 28 30 19
26.581617388592718 -14.360253767478026 79.296665444237362 7 9 1
26.853674033095714 -13.535034161192545 78.718500599481843 0 2 0
27.304358314644936 -12.520368917124895 77.763632796259230 1 3 0
27.219965271646956 -12.059909230871092 77.938674652319207 6 8 0
26.778854214582452 -11.975794977118674 78.867166974912607 6 8 0
26.873239632296944 -11.329807351793988 78.665637855495049 9 11 0
26.700122327083335 -10.967329645792455 79.029236188579375 15 17 6
25.991739653610097 -11.180192529611196 80.523250712942399 15 17 6
25.818920312761946 -10.824469175319717 80.887084374595531 21 23 12
25.244642172704538 -10.905697045635382 82.098868630381247 23 25 12
25.473785113286205 -10.118087223710369 81.614985608070640 5 7 0
25.346103566363070 -9.718489063184865 81.884832101601774 5 7 0
39.404943837526183 -160.701881857150511 55.781895855808983 184 108 129
39.138714808065025 -159.941368757174047 56.320357558645554 196 92 122
38.827996537071961 -159.160010073832268 56.951270227860022 149 32 64
38.962227354134534 -158.620212795835386 56.658538704693484 135 14 47
38.785001830411005 -157.914169320981301 57.012433184755707 121 3 35
39.453188936822507 -157.651791375824331 55.611010978972985 137 36 64
39.631938037699541 -157.128580762255666 55.225724602670795 158 75 97
40.478131631459078 -156.943605891923596 53.454354475249261 155 84 103
41.190850365209705 -156.680997462504990 51.959946412305470 137 87 101
35.778953786783077 -137.326889402703074 62.808622280083682 99 145 186
35.645741665172700 -136.688887877969023 63.071185452362045 92 157 216
35.467995276572303 -136.038182489875282 63.426400342733899 70 133 194
35.156705059097995 -135.347573633256474 64.059536269221752 59 114 178
34.934391463892233 -134.688190837773988 64.507499969371395 36 91 156
34.667541144175722 -134.018010839835767 65.048164059334880 27 78 141
34.756694164281129 -133.456580423853410 64.847742456775933 20 66 128
34.712300921451316 -132.855250370497089 64.925241489832928 18 58 120
34.801388011237933 -132.292358429855568 64.724768667574210 10 50 111
34.756927157423924 -131.691200761338024 64.802258277315673 3 42 101
34.801440775398589 -131.114746597649969 64.694406992385069 8 44 102
34.890423565868261 -130.549532419169850 64.493852880417904 13 50 106
34.890360961061155 -129.960063793469828 64.478636696130650 21 57 111
34.756747967627305 -129.336687142681171 64.741494834430455 28 63 115
34.801116002068852 -128.758960173655225 64.633580857491069 30 61 114
34.845446030822508 -128.180645359978456 64.525643922787935 23 54 107
34.978746066319054 -127.622685445274911 64.232253019950747 16 45 100
34.978493829191223 -127.032455038634708 64.216978287834252 13 40 95
35.156218274968197 -126.481889870716486 63.830776200782026 10 37 92
35.200389693272271 -125.900145388893705 63.722718272836943 10 37 92
35.244520124958299 -125.317818570791914 63.614636917703990 12 39 94
35.199601944219680 -124.716691757346666 63.692033509367604 13 40 94
35.288152577704146 -124.142585688955720 63.491161410652467 14 42 93
35.332157149628379 -123.558791576618660 63.383016393370923 13 40 92
35.554130159507608 -123.007589696343416 62.903759905631205 12 40 91
35.776057559836644 -122.453632786683940 62.424423005135225 11 38 88
35.953436362277721 -121.889174405984463 62.037791686192463 13 39 90
36.219772800485515 -121.337458617260978 61.465507527778470 19 38 91
36.530562641225494 -120.789649401077583 60.800328166871111 28 35 77
36.974806765493604 -120.258791441313676 59.856617426555601 75 77 102
37.151992582887139 -119.682512685859024 59.469641653139860 36 39 56
37.418130642977346 -119.116802230145595 58.896955855458032 11 15 33
37.639717511747655 -118.541687670693833 58.417003410188869 9 18 41
37.727754417549178 -117.946306701005881 58.215477213963339 13 23 50
37.726744133949623 -117.338681119450698 58.199598330306628 13 25 59
37.681187934927095 -116.725742947316604 58.276559408025463 14 28 67
37.769080255620153 -116.128403604838397 58.074953042718391 10 28 68
37.901420770823336 -115.534711040085142 57.780443706043684 12 31 74
38.078207564695170 -114.943849315391390 57.393009960652904 12 34 79
38.076955233131613 -114.333974591147282 57.377023415423736 10 37 82
38.075654733392362 -113.724090860923212 57.361026756924417 11 38 86
38.163296932336280 -113.121520860615703 57.159234175766613 13 41 89
38.295383119027960 -112.521243092591732 56.864502824385227 16 43 94
38.293934260874494 -111.909979595823515 56.848440145950008 18 44 96
38.203449665787716 -111.293027697756074 57.018196224580493 16 42 92
38.157412023072183 -110.679735588037232 57.095049412601725 19 45 96
38.155819308551877 -110.069287361528865 57.078978251280972 15 40 94
38.109686545289811 -109.456816266563720 57.155833102011798 15 40 94
38.063506679961520 -108.844894424283382 57.232692456556038 14 40 91
37.972789923434419 -108.232043095756936 57.402506670957109 15 41 91
37.926516974160108 -107.621497218256238 57.479382419041258 11 39 89
37.924685577866121 -107.012440893077780 57.463298195040750 10 37 90
37.744856209230846 -106.400743914207268 57.819091882226616 16 43 96
37.476012469912455 -105.790458630878945 58.360891832341451 28 56 108
37.429559851394330 -105.184046677825847 58.437837344473337 21 50 100
37.472030967329502 -104.577886107277962 58.328800894441088 25 51 105
37.692388196133244 -103.969489470046611 57.847737808455264 23 49 106
37.690274137249197 -103.361884759602646 57.831633039863135 24 51 109
37.732594833612360 -102.753328506617123 57.722503944977575 19 49 106
37.774866593845992 -102.144249405287184 57.613351326468262 13 44 98
37.772609664324030 -101.536165955628377 57.597204902617364 12 43 96
37.592390633090176 -100.935265016051119 57.953197103441909 8 44 94
37.412133814363223 -100.336570130242762 58.309238450385948 8 46 95
37.276316531973428 -99.737748520204235 58.572277725194681 18 55 107
37.229411751261651 -99.135377821693012 58.649234713355412 31 68 120
37.137989599644925 -98.536461876802278 58.819263642255692 29 65 117
36.868633588663677 -97.951273007452798 59.361605784178579 4 40 91
36.866080868560424 -97.348844509697813 59.345544533533229 27 60 111
36.730071092057358 -96.757539125676644 59.608738176542118 24 54 108
36.727434889609860 -96.155999488436890 59.592682725863170 17 46 101
36.635818440758896 -95.562978941071833 59.762823849311957 28 58 111
36.633099456040448 -94.962061147711381 59.746767455421548 23 55 106
36.541406131673895 -94.370754142531567 59.916937003993951 15 51 103
36.494141408796324 -93.775520648585371 59.994004235282802 17 53 105
36.402374709162338 -93.186204264804402 60.164210073320817 22 58 110
36.488422287281864 -92.575613971124852 59.961883522961472 29 66 119
36.263197568877096 -92.005098021493239 60.411542067651510 29 66 119
36.082406676366610 -91.431204268258512 60.768113518238636 28 65 119
35.812671379016813 -90.872371827239732 61.311057629735274 22 61 116
35.720742422245493 -90.290092122401759 61.481411670354902 24 65 117
35.584326204114603 -89.715912931943862 61.744963649868993 36 76 128
35.447881813701116 -89.143416850527530 62.008553260337663 31 67 120
35.266957311597814 -88.580111229399876 62.365370387804433 11 43 97
35.130460362383516 -88.011255721993209 62.629043112855726 6 36 91
34.905038000450126 -87.460186709157142 63.079162681596472 38 65 117
34.812941576977792 -86.886923938142886 63.249714930083712 9 25 57
34.631924363981646 -86.331992849454707 63.606729031907918 0 7 8
35.162012328987046 -85.637430085400226 62.472175841442692 0 5 0
34.892043488249065 -85.100887824465758 63.015646944470348 6 9 0
33.955427771855291 -84.708818117171276 64.957815239662693 6 9 0
33.463254321781740 -84.231403440238083 65.967803935434631 6 9 0
33.104403669631239 -83.730165173439303 66.698182630743077 4 7 0
33.056613263224520 -83.161754415095800 66.775833827198397 4 7 0
33.319850857553135 -82.520464094656177 66.200603715704034 5 8 1
33.316436297162262 -81.940586834393073 66.184947303828409 3 8 1
33.712891236906465 -81.261401899955857 65.329722645549026 1 6 0
34.153723236033230 -80.566074471713591 64.381070026508326 2 7 0
33.794766601101173 -80.073889603508405 65.111660482689501 4 9 2
33.657952400859024 -79.526833232830242 65.375830363086664 3 8 1
33.476699475940627 -78.993595259287616 65.733355612336055 2 7 0
33.561985836321064 -78.388197890860909 65.531006843250395 2 7 0
33.114170155514955 -77.933821571648224 66.448574158216189 3 8 1
32.710789746164899 -77.471995288594073 67.272949648067254 3 8 1
32.040904086006513 -77.094397878867184 68.657517429145685 2 7 0
31.459887526149650 -76.698035579563509 69.855601580494522 2 7 0
31.722804942411557 -76.047421496104207 69.280065314376714 4 8 1
31.896857498624357 -75.421666719398189 68.891170732613006 7 10 3
32.292945045871541 -74.722306485254222 68.035350355819958 7 10 3
32.067234770011218 -74.222108164862007 68.486722900056407 5 8 1
31.797120031204500 -73.739525165954419 69.031555770206410 6 9 2
31.749051891095704 -73.184692887592774 69.109500204474671 7 10 3
31.789788134611705 -72.599694399183136 69.000653674989081 7 9 4
31.608491609778973 -72.092489819254368 69.358841423358115 7 9 4
31.738016099592365 -71.476027390337492 69.063167149232584 7 9 4
31.689920913212624 -70.922787289132302 69.141147100160907 8 10 5
31.863816355562498 -70.287802736410640 68.751982238068052 9 11 6
31.238548035622919 -69.952026496176472 70.044666324354324 10 12 7
31.101671699967142 -69.436775122682960 70.309643760504912 10 12 7
30.831622871501970 -68.975051905509744 70.855028158436795 10 12 7
31.449425620145220 -68.165572349365235 69.531274635317970 12 14 9
31.889618754299825 -67.419854974722469 68.581191324959008 12 14 9
31.885896229192490 -66.849722464981497 68.565723071414112 13 15 10
31.571471189175256 -66.408204842794959 69.204640397927278 16 19 11
31.212689132713194 -65.989168428321506 69.937153282319059 18 21 14
31.120235893597524 -65.461068900686868 70.108797167859450 18 20 15
31.693509941057329 -64.646419539557755 68.877890820033372 20 22 17
32.222365314408734 -63.844224880100370 67.740308782243602 22 24 21
31.597371362503168 -63.548309179272565 69.034077218368367 24 26 25
30.839308121157707 -63.319995354569507 70.608636770744170 24 24 26
30.480680266318132 -62.918573113243063 71.341635585119207 28 28 30
30.787675248076482 -62.213531892553604 70.671622499089580 29 29 29
30.784064754256661 -61.650365394786725 70.656356891740330 26 26 26
29.937461078543635 -61.487650061373536 72.418675408565491 21 21 21
30.022646168963441 -60.887012274202796 72.216428622678450 22 22 22
30.196571246665250 -60.242094846784234 71.827013655062643 21 21 21
31.435227561887437 -59.069769971553079 69.191651852899525 18 18 15
31.121139523331600 -58.657818060142773 69.831400857424427 15 16 11
30.895815986595430 -58.204829324572607 70.284070346447720 15 16 11
31.069758095323380 -57.550288651949742 69.894410673558838 15 16 10
31.332423637829429 -56.847670099211548 69.317481460532264 12 14 9
31.994291028611570 -55.932670232315644 67.897930691525943 10 12 7
31.857769736785372 -55.432758033699365 68.163376581622742 11 13 8
31.056005650599438 -55.291201329059916 69.833324074742052 11 13 8
30.697832183486980 -54.918887542175717 70.567166853816843 12 14 9
30.827550729639874 -54.283374209014227 70.271041034096612 13 16 10
30.912943703099863 -53.670841128646934 70.068530093650935 13 16 9
31.042708610741450 -53.032371035314043 69.772337524717045 10 13 6
31.305530450189593 -52.316881970024689 69.195108422531774 7 10 3
30.947573940785070 -51.953810080420531 69.929234070645634 8 11 4
30.722701862246147 -51.518042766430675 70.382440337764990 7 10 3
30.010148558374922 -51.370378975266320 71.866300757238861 4 9 2
30.007090927740734 -50.811910694022437 71.851269736169201 6 11 4
29.871064520006925 -50.332893683358655 72.117356064874969 5 10 3
29.646418904441362 -49.909002849248864 72.570915101011735 5 10 3
29.288830181614500 -49.568886447808680 73.305708254001047 5 10 3
29.152970576599955 -49.096589261248276 73.572002114874266 5 10 3
28.130547024731349 -49.177275227797629 75.712991164054756 7 10 3
28.305132358088727 -48.518713872086032 75.323359739351133 4 7 0
29.321992840365269 -47.323863450024497 73.152493419104502 2 5 0
29.053362237093623 -46.939579312414800 73.700166023172358 3 6 0
27.898286013439076 -47.131540318517587 76.123158052547893 5 8 1
28.294683727157611 -46.325256504965722 75.264643571132467 2 5 0
28.868407056763473 -45.397285192371143 74.030906631931401 0 3 0
28.688681779137426 -44.963112347600841 74.391300304162399 3 6 0
27.888532588431808 -44.947338193975902 76.064823203139184 2 5 0
28.240796638055713 -44.161119246053843 75.299887775705855 2 5 0
28.593104003660272 -43.370508847855305 74.534847971357721 2 5 0
28.768186919877785 -42.697690005141411 74.144950894975494 2 5 0
28.588794360820351 -42.269179645242460 74.505558864090062 0 2 0
28.320845398276106 -41.904942263942800 75.053888334725002 0 3 0
27.565516727681917 -41.888837106568360 76.634482046077039 2 5 0
26.943230130794440 -41.786972981927690 77.933810757752497 2 5 0
27.251604722321538 -41.022676505364252 77.262552390196021 1 7 0
27.692973905126280 -40.157977916398380 76.309641612429971 0 6 0
27.602668655519601 -39.677090752457801 76.482943808992246 0 3 0
27.468131907914369 -39.229904511780617 76.750156686162285 0 4 0
27.998317257939817 -38.289446481888625 75.609281439281261 0 4 0
28.174094711878617 -37.608430204564613 75.219315412084370 1 4 0
27.552404100816553 -37.528650353766288 76.519335970332833 0 3 0
27.196657987141158 -37.253547428878107 77.256183909331355 0 3 0
27.195459011619199 -36.710088775027444 77.241921286347605 1 5 0
27.282957508349675 -36.097814105122495 77.039848927795333 6 10 0
27.326235156705231 -35.518933222125945 76.931681512924740 7 11 0
27.192379803348111 -35.078914910982640 77.199219040489737 8 11 0
27.058617470311553 -34.640380726957886 77.466813927823011 8 11 2
27.057862663524894 -34.097035140675359 77.452645335704233 7 10 0
27.278721866729889 -33.375021940832369 76.968754868888851 4 7 0
27.233851122558434 -32.865969628125576 77.048535940600061 5 9 0
27.233381937166072 -32.321045462972691 77.034385225419186 8 12 0
27.100102004976556 -31.885499889183009 77.302156151231856 9 13 0
27.188440109344434 -31.267453295376146 77.100107158634074 6 10 0
27.099668153626361 -30.796380045893066 77.273977004446920 1 5 0
27.011001086521709 -30.326201454070191 77.447891441269945 3 7 0
27.055349835683131 -29.744088421372801 77.339860384618646 4 8 0
26.833987788779318 -29.388504235713839 77.795854734563022 6 10 0
27.011464686822485 -28.692054977073791 77.405839281927001 11 15 1
26.878930249832379 -28.262183230131235 77.673909472194225 8 11 0
27.012330950104790 -27.601527379963024 77.377890526270846 8 11 0
26.835720677971871 -27.211801426765280 77.740069552639312 9 12 2
26.792138666453532 -26.706282666643578 77.820206124855957 8 11 2
27.014504530922459 -25.963949852333808 77.336100651931474 8 12 0
27.148386012166391 -25.298209287651556 77.040049188192597 7 11 0
27.459618077174902 -24.470299757110741 76.367736306466355 9 13 0
