ply
format ascii 1.0
element vertex 714
property double x
property double y
property double z
property uchar red
property uchar green
property uchar blue
end_header
36.819392541625973 -57.236586179734225 24.930536470703245 3 5 0
35.385675910982030 -56.298571750540347 24.098635645981190 3 5 0
33.951455951018346 -55.352013900192887 23.266610085359744 4 6 0
34.615385200340029 -54.922387007465645 23.669416872365133 4 6 0
34.142596828165381 -54.209018831353831 23.403301523206821 4 7 0
33.494703211673539 -53.448166447519064 23.034218901077978 3 6 0
37.483640739914193 -53.886901534037648 25.392906009629513 1 4 0
37.011167877810749 -53.178882813028466 25.126868147181568 1 4 0
35.838354862208689 -52.282299817054735 24.448981301612505 1 4 0
36.678532800743255 -51.919551329152242 24.955037027470439 1 4 0
36.818592565718461 -51.372005091541737 25.049298625461077 2 5 0
36.258153222656716 -50.633192144580370 24.731671331928681 2 5 0
35.347180693912975 -49.793924682956870 24.208028493779210 2 5 0
35.399522871932305 -49.219807556724319 24.250762183182658 3 6 0
37.554742449644294 -49.242886863207701 25.529501152078154 4 7 0
37.695170239864581 -48.701536461810186 25.623847935586170 4 6 0
35.995012127630986 -47.627966665047396 24.636545941708448 1 3 0
34.820250681812155 -46.698203965695953 23.958163546971775 4 6 0
34.784944078811463 -46.098640886122467 23.949381304491183 6 8 0
35.538919697167103 -45.734954038505620 24.404274321594556 5 7 0
35.854615755948316 -45.243771511753664 24.601618918765013 4 6 0
35.117688552640516 -44.433848726035691 24.180663123203416 6 9 0
34.731491214208035 -43.727689152950965 23.965768105579315 6 9 1
33.994125043971451 -42.910266375300644 23.544697731199676 4 7 1
35.187600069627564 -42.694664686010839 24.257427771544087 2 5 0
36.118142388853556 -42.403147478454159 24.815635941778012 0 3 0
35.731905626894360 -41.696219329901794 24.600719412220514 0 2 0
35.433368123462003 -41.015494527608048 24.437319582560789 0 2 0
34.432014363176307 -40.104129649018979 23.861451601623429 0 2 0
34.836011749366662 -39.649176351008869 24.110439245269092 0 2 0
35.240168493454490 -39.196898745399409 24.359462929833910 0 2 0
35.556596524450214 -38.717857076380426 24.556955438032588 0 3 0
36.752188662652117 -38.537983666207474 25.270185669527976 0 3 0
36.453592608179463 -37.856071070216494 25.106748419422289 0 3 0
35.187612404451272 -36.839839228516531 24.375914933161567 0 3 0
35.592261490530774 -36.395750268265246 24.625040753796156 0 3 0
35.997068530922206 -35.954306580185417 24.874201488395386 0 1 0
35.786152965814466 -35.298150733479588 24.762261166062103 1 4 0
35.839169284702166 -34.734818120557136 24.805084172423420 0 3 0
36.156259818658754 -34.266726926058809 25.002706049824724 0 3 0
36.297414733934517 -33.737004000521992 25.097148621193298 1 4 0
36.526677532410247 -33.240410628031498 25.243208010999652 0 3 0
36.667971228183831 -32.712954890093265 25.337674527842111 0 2 0
36.545092056700724 -32.088489111342277 25.277306608380854 0 2 0
36.245990919355108 -31.397517753020900 25.113686831974348 0 3 0
35.594353071767017 -30.572005229381411 24.743545640843223 0 3 0
35.383117697226879 -29.909988140140442 24.631474934425157 0 2 0
35.083673988941968 -29.213033269894595 24.467750326044339 0 2 0
35.313074681563450 -28.718428397513495 24.613802300453656 0 2 0
35.807085593140016 -28.328168489758102 24.914786630439096 0 2 0
35.772148615948595 -27.733685344634399 24.905954951907447 0 2 0
35.649002001693702 -27.104236685374193 24.845468385676156 0 2 0
34.731832446710712 -26.158250268897525 24.320108861702053 0 2 0
34.873178515771627 -25.631080694005384 24.414517154262967 0 2 0
35.808853826326725 -25.425539257819047 24.973861471513487 0 2 0
36.215262398038590 -25.010342716904844 25.223308427834155 0 2 0
36.003834075446434 -24.344445940008320 25.111118487341997 0 2 0
35.880635346030317 -23.713728270473315 25.050573598902787 0 3 0
36.728872560986275 -23.486151746432803 25.558434675045859 2 5 0
37.577419770301105 -23.263785426520236 26.066366481420999 0 3 0
38.072885966323298 -22.897595803527771 26.367636876014217 0 3 0
37.684898723977909 -22.159161867066267 26.152074699083371 0 4 0
36.854878194217548 -21.229345328644417 25.678013551650452 1 7 0
36.554934496414802 -20.522838263541001 25.514039183630857 2 8 0
36.608530832828876 -19.967827024131466 25.556825948307136 6 12 0
37.015857652867197 -19.567556126126469 25.806422444268009 14 17 6
37.865548609724101 -19.364155897729674 26.314584817337561 9 12 1
38.804006062323595 -19.205072307099620 26.874528162097093 1 4 0
39.565852678059485 -18.972836518080236 27.331117846668093 0 2 0
40.416465225774431 -18.784907137877795 27.839488285289576 0 3 0
40.913357187405182 -18.442246209282750 28.141032640191696 2 5 0
41.144859739837017 -17.981826922508247 28.287429385052704 5 9 0
40.402519466079070 -17.077084897815464 27.864784990452321 4 8 0
40.811121015554363 -16.697888740082604 28.114630975127113 2 6 0
40.954156493209183 -16.197916627333548 28.209283329717366 0 4 0
40.654308678539820 -15.492046825178324 28.045215757444012 0 4 0
41.063170620438342 -15.117025229395555 28.295097299338025 0 2 0
43.244547602025420 -15.581905485265727 29.580059945526827 0 2 0
44.540363089451915 -15.638580830488600 30.347646474161280 0 2 0
45.747991866832393 -15.660661228746404 31.063581600851833 0 2 0
46.867385769356702 -15.647324418778384 31.727852831740762 3 6 0
47.366401448652255 -15.339929755637218 32.029831199286647 6 9 0
47.156003756233758 -14.689481866545277 31.917655136443400 10 13 2
46.856809647751078 -13.994019884679016 31.753668292487248 9 12 1
47.178615301750511 -13.603041332974271 31.952113658403363 6 9 0
47.234290520658675 -13.081637117262860 31.995217228025354 4 7 0
47.467503925403719 -12.649029785769971 32.141892939279728 4 7 0
47.523236280308538 -12.128396998410352 32.184987235074431 7 8 2
47.845364920802325 -11.742530637990820 32.383468925444973 8 9 3
47.723546583823918 -11.132573697093100 32.322950773568266 9 10 4
37.042411442975066 -164.952443768117718 23.693201715160740 213 77 117
39.548921629147486 -163.540003877154504 25.197716416096526 227 66 113
40.869735910778388 -162.511559470097694 25.995722819884193 169 20 61
41.597619119153393 -161.673695726259893 26.440453743803715 120 2 29
41.393078306630798 -161.123683960747286 26.329849919228465 103 0 18
40.679626600751845 -160.725259096468704 25.916250839514291 96 0 19
39.711447205537155 -160.397958854759509 25.351081014946587 83 3 17
38.912587864225372 -160.014716638667380 24.886827076118124 61 3 10
38.877118418416046 -159.404571478504636 24.877081021403924 44 1 2
39.520594485744226 -158.599219303972887 25.271445983381071 45 10 8
40.334083148719401 -157.749840709508362 25.766917413161551 45 10 8
40.468669917791004 -157.096483459156445 25.858297370318539 41 7 2
40.603309994955055 -156.444076495334627 25.949695906242724 39 7 1
40.653070942591171 -155.815920299446901 25.990582057821811 35 9 1
41.297491085838232 -155.026972610122527 26.385225856920286 36 12 4
41.687261888873195 -154.310504375751435 26.628321274663605 32 12 3
41.737261683320554 -153.686562010494043 26.669285479828147 29 11 1
41.447301134441119 -153.151890717293412 26.508066700809579 27 9 0
40.987213456188670 -152.659347569170251 26.245718479897562 23 6 0
41.207175021220678 -151.990584681067674 26.387784659396885 19 4 0
41.342178654241138 -151.344722118313967 26.479317406174417 14 5 0
40.031237608931320 -151.059007400183503 25.711254229379392 13 6 0
33.785490719162368 -151.974731838612854 22.010008500448166 11 7 0
35.195555207468601 -150.997968865533011 22.859815865467553 10 8 0
36.350828822270643 -150.091256389721764 23.558036632496353 13 6 0
36.570193802290333 -149.412487260175567 23.699969149640793 17 4 0
37.385608239949931 -148.596832733957285 24.196040236663990 32 13 4
37.434946887314652 -147.961974652833703 24.236876795857782 56 32 21
37.228799093285431 -147.385215731554666 24.125937265615434 65 35 23
37.022578206084631 -146.807246857250931 24.014983249599496 68 35 22
36.731083134317430 -146.246751100850219 23.853410434746948 70 36 21
36.865568086551093 -145.592453862591555 23.944858264753563 81 47 31
36.829641188438814 -144.975402855777929 23.935100291886542 90 55 39
37.475693935085360 -144.215311935229693 24.330283961577067 106 75 58
38.974635952128068 -143.283531332644827 25.231755836898088 103 99 101
41.071102106203824 -142.240196575259660 26.487767210664188 73 109 161
42.656574804363316 -141.312661859511081 27.440215510581098 87 139 206
44.072017198688712 -140.428924675103502 28.291561421817605 100 159 221
45.487990307906273 -139.554347559662091 29.143056787341848 96 157 218
46.563119006710878 -138.753858623722607 29.792129182806107 77 137 199
46.955774078945268 -138.088024726149911 30.036137502492267 66 127 190
47.177828230266982 -137.456191851840344 30.178888916148665 65 123 187
47.656143800457016 -136.779660983578196 30.473637631682124 63 118 185
48.305456545602908 -136.076029241412215 30.869762030453245 51 108 175
48.784168824060146 -135.406406487658643 31.164629665909104 44 99 164
49.177624613408426 -134.754564104927681 31.408883702112533 30 84 148
49.229411068137068 -134.162652437488958 31.450491984465572 21 72 137
49.623105501752008 -133.515006457067045 31.694822371531501 24 71 136
49.675003619094412 -132.925113249908833 31.736472869014264 23 64 128
50.154440093062192 -132.268170514321667 32.031565765107359 18 59 121
50.206466305137980 -131.680578368974466 32.073262985305035 14 52 114
50.258516962986562 -131.093457922788730 32.114972968249432 6 42 102
49.968389792601641 -130.557548428007408 31.953900706243928 1 37 95
49.849292936580355 -129.995108346505958 31.894213259677159 0 37 94
49.730157154030564 -129.432054447191490 31.834521707716618 0 37 92
49.867777739670885 -128.832794360732578 31.926960821467716 1 39 96
49.834226582291905 -128.257747421490649 31.917989891703300 7 45 105
49.971929277106057 -127.660003021057349 32.010463762006154 11 50 109
49.852750513240380 -127.096429189767022 31.950786319056931 20 57 114
49.733533411464208 -126.532253220011228 31.891105116000929 28 59 110
49.528599971496163 -125.977976177669930 31.780687370404266 38 56 96
49.409290603225486 -125.412329787559614 31.720994605051985 68 73 97
49.204233230421323 -124.856040494756442 31.610556937941581 110 100 114
49.170558075469415 -124.279254655635782 31.601598488311154 124 106 117
49.051135172473010 -123.711830859576509 31.541895270431027 129 112 117
48.760158845987377 -123.162083379194570 31.380680539209123 137 118 120
48.640628970814959 -122.592940312009887 31.320962204513435 147 126 125
48.778431346692884 -121.997459653103363 31.413528315211437 151 128 128
49.087904036243515 -121.386416612617495 31.607650246243125 158 134 134
49.225855829451319 -120.793607244613469 31.700269344620509 160 134 135
49.192191036432945 -120.217393492471004 31.691360262286267 162 137 136
49.244375229469256 -119.633663619992404 31.733236100532338 165 139 137
49.038977524243421 -119.072111486834586 31.622774793134866 167 139 135
49.091168596299070 -118.488613194082617 31.664665898160195 166 137 131
49.057485599598436 -117.912315619502323 31.655778900657310 165 134 128
49.367469247540214 -117.310415232388465 31.850082943190074 166 134 124
49.591643106718465 -116.716815066360439 31.993625808427339 166 133 124
49.987808436011591 -116.113147042215829 32.238809194749209 164 131 122
50.470095689909840 -115.506631612303636 32.534849382771696 162 130 119
50.952571361431097 -114.903395086910834 32.830945801421208 161 130 119
51.263240292549511 -114.313499065667173 33.025463670428678 160 129 118
51.574034017568522 -113.725793120745180 33.220020952578992 161 126 116
51.884952711129245 -113.140279873562250 33.414617650647656 159 125 114
52.023905203524691 -112.565379641962551 33.507593820788827 157 123 111
52.421104024279373 -111.979777167035422 33.753095134599860 159 125 113
52.818460338254113 -111.396922152743841 33.998644242963806 157 123 111
53.043786953412507 -110.823593696855170 34.142556064456869 152 119 109
53.269207385728947 -110.251923640059800 34.286498927422429 151 116 109
53.580847498162399 -109.679073164979954 34.481323727895969 151 113 109
53.892613775402509 -109.108432998064941 34.676187922446019 146 108 102
53.687560101752013 -108.553771603177111 34.565936041196665 136 97 92
53.568614532570223 -107.996022878846745 34.506536905589130 139 100 93
53.363445783003471 -107.439504629201380 34.396267895437944 162 123 116
53.589240443147190 -106.874555014478787 34.540347011228349 161 121 114
54.073795325771698 -106.307678978304025 34.837084894021217 154 115 107
54.041114782575534 -105.749684241075016 34.828598389319168 153 117 107
54.180940998684264 -105.190421460960181 34.921886411817852 157 124 113
53.803211855323269 -104.634577031404802 34.709866927106503 162 130 117
53.770497339218167 -104.076161704797329 34.701390436911083 160 128 117
53.478877020233284 -103.517294723172085 34.540230084324207 159 129 119
53.187160429909284 -102.956837177154569 34.379051015095754 159 129 119
52.636346180350444 -102.392653506243306 34.065138418891394 160 130 120
52.603439038465467 -101.831160506990472 34.056636861567299 159 129 120
52.656898028976286 -101.270982946482604 34.099054717274740 150 123 116
52.624007568729354 -100.709877964980564 34.090569680763707 148 121 111
52.418321868977642 -100.145222776855817 33.980247881385765 150 123 114
52.471814554215513 -99.585773732904499 34.022692583433340 151 123 116
52.352480268372318 -99.022232622139171 33.963292274467591 150 122 117
52.578898687139173 -98.468711417378543 34.107625290742945 150 121 117
52.718952363204153 -97.913999855819952 34.201051226697842 150 120 118
53.032027265466667 -97.366792855642359 34.396383926703976 148 120 119
52.739773910277563 -96.797736917276808 34.235132378331443 144 118 119
52.360916079614100 -96.223401864724977 34.022912026309982 145 119 122
51.981931874024895 -95.646960776537938 33.810664965981204 142 117 120
51.775905414402217 -95.076940560200626 33.700308207063500 135 111 117
51.396700906557300 -94.496839981112913 33.488015986399418 135 115 123
50.671074460045332 -93.895408871648996 33.071830358020449 108 93 104
50.118374187248662 -93.299860216394649 32.757526909585167 101 89 104
49.738696260835582 -92.711832778408066 32.545130224288840 92 81 100
49.358892824226302 -92.121713078628488 32.332706938213761 72 64 83
48.978964017522571 -91.529503278280970 32.120257060467523 53 45 71
48.598909979617304 -90.935205503642877 31.907780598154062 57 51 84
48.652080870377006 -90.371039254427473 31.950233536599498 34 29 61
48.705286766046953 -89.807513690544553 31.992700644713935 27 21 43
49.018633765230561 -89.265595145621944 32.188179907826409 4 0 8
48.811804018932548 -88.682389831401537 32.077677200557446 10 1 0
49.212051513656434 -88.150926037636609 32.324216468868741 15 4 1
48.658212694991761 -87.536427999214496 32.009675287403880 14 2 0
47.496823866023902 -86.862223124159016 31.337981982323370 17 4 0
47.463188342246610 -86.289590983383405 31.329444527102638 14 4 0
47.429556614281609 -85.717064212058730 31.320912848360436 12 5 1
48.784951377657137 -85.286945059401518 32.128831158154668 9 5 1
49.359392483166431 -84.783145255722005 32.477598394598502 8 4 0
49.239294371120195 -84.207758164490699 32.418140976143221 7 3 0
49.206030284382081 -83.641645127452279 32.409720895583092 10 2 0
49.172770416562201 -83.075641152638113 32.401306284244839 8 0 0
52.267691543200328 -82.878868059758403 34.230624633988171 15 0 0
55.016127878976960 -82.659671088184353 35.856030868961483 12 0 0
57.070184700707671 -82.371597535344165 37.073252018481710 14 0 0
57.733945054155498 -81.919575791624126 37.473710316496408 148 123 127
57.963176903469730 -81.415306669183650 37.618917435428457 168 140 145
57.844614458929470 -80.866327875154582 37.559881003477827 156 124 130
58.160972545037453 -80.376329047731431 37.756202163851938 148 111 119
58.477462857057617 -79.888609659334350 37.952560233947807 143 104 112
58.533020918131996 -79.365891763829609 37.995714492108704 137 92 101
58.414540631529093 -78.818430230813263 37.936712917063019 126 75 85
58.208979741175284 -78.257565899238998 37.826619586160689 112 59 70
58.090429160676734 -77.708964666191378 37.767606904921792 101 46 59
57.797680889391728 -77.132907966201969 37.606398055102616 109 57 69
57.504841796996601 -76.555333104173869 37.445169464089076 90 40 50
57.386146304161315 -76.004346312605961 37.386129629830606 115 65 75
57.354556974106487 -75.467249912901408 37.378194235462203 123 73 82
57.235823539024580 -74.915666927447148 37.319150648040093 123 75 83
57.117063212950484 -74.363650133303139 37.260103069973141 119 72 78
56.736733267893101 -73.765789669196948 37.047690585277280 110 63 69
56.181887223800686 -73.135055639727739 36.733001429624096 113 64 70
55.801280662338058 -72.532536012675692 36.520524654427888 130 81 87
55.158865700051877 -71.880111659622230 36.154622850438486 133 85 91
54.254499090480806 -71.175347078167292 35.635260038190324 88 50 53
51.691869088371476 -70.151969854941044 34.144156428477245 93 71 68
44.415392875800052 -68.207949231687664 29.891036805123250 38 24 19
35.180336713579038 -65.240927654687781 24.503107435740120 4 1 0
36.629341761746844 -64.936223980077614 25.363874965937612 2 2 0
34.847310077338591 -63.980673980634997 24.331855399995803 1 3 0
33.763495761211374 -63.159321387568461 23.708993021937417 1 3 0
35.300462074491747 -62.883063557031498 24.621081759504619 1 3 0
36.313679585609634 -62.504725567615239 25.226284165149750 1 3 0
34.967384715113212 -61.622067420089692 24.449831150867510 1 3 0
33.445779359768977 -60.693026929434481 23.570901644746101 2 5 0
32.448251953256033 -59.871685536786131 22.998943827452507 2 5 0
34.336275047609917 -59.695683399209379 24.116104610836558 2 5 0
35.612731843313497 -59.391641279279206 24.875098884055589 1 4 0
36.627221060373131 -59.034976502655638 25.480626782002361 1 4 0
36.767106594640438 -58.479460988369425 25.574253199330670 2 5 0
35.944397060515541 -57.696185370950758 25.104655102965694 2 4 0
35.996714330706538 -57.118962655153311 25.147065728998186 2 4 0
35.436241900274780 -56.392907784775680 24.831003544857069 3 5 0
34.437771376486211 -55.555597498318839 24.258816657622788 4 6 0
34.402318608653019 -54.953238064752028 24.249960940142898 4 6 0
34.980030247775773 -54.506083306798587 24.599672348788644 2 5 0
35.645578745446272 -54.085211717744464 25.000668107666414 2 5 0
35.698003805833338 -53.509832704488666 25.043107110878893 1 4 0
35.925748647337855 -52.981003939032966 25.188026104103614 2 5 0
35.715304489904469 -52.337670271535316 25.076772010112194 2 5 0
36.293862984214030 -51.904896904310725 25.426694117402434 2 5 0
36.171132292483861 -51.285741513852024 25.366692560595808 1 4 0
36.136079060120494 -50.690155034152795 25.357934830294852 2 5 0
35.399260743916216 -49.900098589453826 24.939134300600003 3 6 0
36.153720768392219 -49.523737562272842 25.391679101902511 5 8 0
36.030941515822008 -48.903729255230147 25.331662126129530 5 8 0
35.995902584985743 -48.308353869688013 25.322904200717687 7 10 0
34.995237347663590 -47.433698024198357 24.750162444237461 6 8 0
34.608829009020099 -46.732795890240467 24.536259180448440 5 7 0
35.715172061844186 -46.470613964848638 25.194068840195399 8 10 0
35.767945376806750 -45.901054725357298 25.236583348025675 6 8 0
35.030122079658696 -45.093832645669679 24.817521091724714 2 4 0
34.204184016676123 -44.255589186057989 24.347103125830685 2 5 0
35.750710966723915 -44.141747190900944 25.261577178811976 0 2 0
35.715693101262389 -43.546616154946079 25.252811101569876 2 5 0
33.834541292757052 -42.373016545149923 24.166681852231562 0 2 0
35.206027334201906 -42.217306651511009 24.978738980222147 0 2 0
33.148248486843102 -40.974897412540699 23.789797479300191 1 4 0
33.816463213873590 -40.599084846464784 24.191430709381947 0 3 0
34.836830595452568 -40.342066006839723 24.798400110142737 0 3 0
34.889684357117233 -39.773678634823156 24.840911684164823 0 3 0
34.854564116571197 -39.176652086279809 24.832101595050517 0 3 0
35.347576646311239 -38.756189845935118 25.131272721367239 0 4 0
37.337423690395980 -38.843832893919831 26.303177975614290 0 3 0
36.950547978313722 -38.134658458038501 26.089118821856303 0 3 0
36.739684361651399 -37.483771258715834 25.977709547813078 0 3 0
35.559817279516295 -36.496180734573983 25.301467747682395 0 3 0
36.053461238043269 -36.086305415984931 25.600779901422882 0 3 0
35.754240356688115 -35.400192381438089 25.437944388650536 2 5 0
35.454923043627957 -34.712405318974035 25.275080582388611 1 4 0
35.331806524020777 -34.086108107674967 25.214913382469263 2 5 0
35.384985537837366 -33.522910864215078 25.257466505811223 4 7 0
35.702735258769991 -33.056547713073044 25.454134234595386 4 7 0
35.844216615808762 -32.527471840454972 25.548079641446577 3 6 0
35.809334281025485 -31.934060632105169 25.539278566349410 2 5 0
35.950904715707537 -31.406419679621933 25.633236945405471 2 5 0
35.563072304543084 -30.680545918361503 25.418886308573207 1 4 0
34.822070803836283 -29.818522726432192 24.998935449682619 0 3 0
34.610464603119567 -29.154517513348573 24.887281490075608 0 3 0
35.193412644981464 -28.795409838277699 25.238192001866778 0 3 0
36.129806625488015 -28.577073877854776 25.794762261235633 0 3 0
35.565052535101813 -27.777182975090327 25.477501981905050 0 3 0
35.441797283818175 -27.148014383574825 25.417239384098295 0 2 0
34.258247409927009 -26.097073883136868 24.739985814553577 0 2 0
34.576579615901835 -25.640083284057933 24.936737130119951 0 2 0
35.778897115746872 -25.541395179487207 25.647739695371769 0 2 0
37.865675619349588 -25.809109055270440 26.873114339366225 0 2 0
37.654334800749467 -25.149173548959745 26.761474784154402 0 2 0
36.558581946799137 -24.123560184819326 26.135462639999986 0 3 0
36.966089810133525 -23.715366002078188 26.383805132667746 2 5 0
37.993009218795521 -23.568554164686297 26.992279448748391 3 6 0
38.666374192323161 -23.279018626018143 27.395054090698068 0 6 0
38.366510307474243 -22.580839872438638 27.231923214464999 0 5 0
38.066541624721737 -21.880814793961562 27.068758393517925 1 6 0
38.120585429917497 -21.331196297638645 27.111395892198985 3 9 0
38.351741431474068 -20.858554565328046 27.256957861654456 4 10 0
38.937227166938897 -20.541723975008185 27.608403096218794 3 6 0
39.168615921998565 -20.072920142318733 27.754009421270624 2 5 0
39.400088661214909 -19.605481777925316 27.899629464756913 0 3 0
39.543035982436606 -19.099979218569381 27.993783468975536 0 3 0
40.306409192551797 -18.873138923552798 28.448328071177812 2 5 0
40.626852051227672 -18.451075049254946 28.645496249748064 3 6 0
41.036066019134665 -18.071127439381968 28.894177387702527 4 8 0
41.090734718606768 -17.531557437203166 28.936903797122469 6 10 0
41.854930971095342 -17.318471582823605 29.391626884959038 4 8 0
42.087171827838489 -16.863640823153553 29.537386459908419 0 3 0
42.053331497524596 -16.286133973327935 29.528633076329513 0 3 0
42.729368714577873 -16.041081035741140 29.931966535559170 0 2 0
43.671903526034015 -15.925660006646066 30.489902894539554 0 2 0
45.058616763735387 -16.026612762305934 31.305520914832599 0 3 0
45.469194416137043 -15.669338332250353 31.554484043851772 0 3 0
46.146316741745579 -15.442498805275973 31.958062198950699 4 7 0
46.024327855987423 -14.832964263559740 31.897893613241081 9 12 1
45.991121365179225 -14.265728863419223 31.889239757944026 13 16 5
46.046744812478465 -13.741603482015964 31.932112874550299 8 11 0
46.457840018639217 -13.392761819273856 32.181162675257397 8 11 0
46.957956718138945 -13.090301248563966 32.481789240358253 7 10 0
46.835967796089932 -12.480348225436005 32.421571287808916 7 10 0
47.247403479153689 -12.137067905398050 32.670679733733166 8 9 3
47.570049540956177 -11.751196746049507 32.868251691616237 9 10 4
48.159637738429410 -11.502546086473844 33.220541798613255 10 11 5
39.281404140976719 -164.157791028094778 25.740746206321447 204 73 112
41.028495278283572 -162.992311765948187 26.786145006452983 176 24 68
41.757509974322033 -162.153456912498228 27.228770714327396 144 2 40
42.232069583750331 -161.397376745292888 27.520722778539565 110 0 17
41.857554204561950 -160.901832307936019 27.310178934756195 100 0 14
41.313021292089445 -160.454933263536759 26.999082887620844 97 1 17
39.918720571301861 -160.256660972595569 26.185301615815504 90 4 17
39.118715499452975 -159.875080593927834 25.723257145013520 74 6 15
39.083313624082194 -159.266557805108931 25.713583994557226 60 9 13
39.642931841081150 -158.487181341729752 26.055845821880553 38 7 3
39.692641273853951 -157.856167475141859 26.096484945478622 33 3 0
39.657336951086137 -157.249407510291348 26.086848607472945 42 9 4
40.217383787932931 -156.477485653319945 26.429237833670598 51 17 10
40.692574611150576 -155.732529685452761 26.721394765772629 49 15 9
40.912695975539691 -155.059793842625652 26.862710878934394 46 7 5
41.303100244435115 -154.343029241039119 27.104658221507862 40 7 2
41.693652859567095 -153.628845764817669 27.346649783525166 33 6 0
41.658701602440175 -153.028340850237328 27.337131910997442 31 8 0
40.857424554403849 -152.625235962617410 26.874779987494193 27 7 0
41.077798233525385 -151.956999362311478 27.016184202203661 23 8 0
41.213079355630214 -151.311667525180781 27.107292059192176 21 8 0
41.518801559150631 -150.625027402043457 27.299074551047042 16 6 0
38.160632808912368 -150.837480268805649 25.326606819498323 13 7 0
37.187529317373190 -150.452098319067545 24.763228615547007 9 5 0
35.276415680045801 -150.284109517707691 23.646008566784531 10 3 0
36.689617413275897 -149.322228822063011 24.492061330246173 12 2 0
37.080074283275451 -148.606757757702553 24.734069038272153 27 9 0
37.044236828145415 -147.991393604286458 24.724353153775354 50 27 16
36.752476481251790 -147.433597724529449 24.563565362972241 64 35 25
36.631252248177191 -146.836130718781249 24.503478604450663 70 38 26
36.595323072871423 -146.219312391925826 24.493752116785316 73 41 28
36.815440583224074 -145.547131911830064 24.635140600800852 80 50 30
36.779540323971418 -144.930892898607311 24.625431732426307 83 54 39
37.341316963782333 -144.189448902229401 24.968381520733246 99 71 60
38.928101721055612 -143.240531979059057 25.915998744757388 93 93 118
41.113388706231319 -142.180575113795328 27.216497593240447 77 118 179
42.786904141304319 -141.236989451650317 28.214868029203245 94 150 215
44.375598704512953 -140.320974772304226 29.163015896222262 99 159 222
45.708498870266538 -139.464733982525672 29.960126603577962 94 154 217
46.870940958331573 -138.649583395958899 30.656566780649584 77 137 200
47.093376063726822 -138.017556417123728 30.798625889038746 67 127 190
47.401409141694501 -137.371378537147848 30.991127282370940 64 122 186
48.051667982389233 -136.665617650525292 31.385337795711564 58 113 180
48.873258401411022 -135.933838267044024 31.880464258410356 28 84 150
49.181808294373923 -135.296655905138948 32.073120093076895 16 71 135
49.404903389226121 -134.676167460318197 32.215382448169464 20 73 137
49.542496095013888 -134.071556943191695 32.307238562329118 39 87 153
49.936963586050268 -133.425794182597599 32.550433047282510 42 86 150
49.989094450227213 -132.837801786208246 32.591899105076763 29 70 134
50.298164036932008 -132.209753651493827 32.784720706988779 21 61 123
50.179084107300014 -131.649986051338914 32.725319189740787 12 50 112
50.316974996731290 -131.050713345583972 32.817281859687057 12 48 108
49.855121996984849 -130.541280744842737 32.556040535785357 18 53 114
49.907313419465055 -129.954554752120742 32.597549772376979 17 55 110
49.873812372364625 -129.380449788761524 32.588602058641996 21 60 116
50.097505693442884 -128.770672061198155 32.731078404278122 20 59 117
50.235538695499741 -128.174066595403531 32.823106418572280 24 63 123
50.202098167256452 -127.601139184138276 32.814191457886565 35 74 136
50.254432973835861 -127.017104303898279 32.855766624506714 36 75 134
50.049401400364701 -126.465889315932458 32.745882996979830 56 86 132
49.844300130653096 -125.913528143745168 32.635986447208310 72 82 111
49.639129281535048 -125.360023115123937 32.526077044858269 148 137 145
49.433888972228289 -124.805376588807249 32.416154859062644 171 148 142
49.142718060807368 -124.259273927733545 32.255712557203069 175 145 134
49.023200461489381 -123.692668626202305 32.196272410839654 173 142 133
48.989538905788635 -123.116339668252962 32.187344032190509 170 139 129
49.127690610665837 -122.522247064424249 32.279460289437679 170 139 126
49.179976133567095 -121.937802038988224 32.321073606911398 172 139 126
49.490112177646949 -121.328923399705289 32.514285608634140 173 139 127
49.714414314743038 -120.730244684661159 32.657003202444315 171 137 125
49.938807854292349 -120.133179306353952 32.799750757905912 169 140 126
50.335271078044769 -119.522739108482966 33.043610788787007 171 139 126
50.817895016489416 -118.907789787484916 33.338063182560632 166 134 122
51.300706780167644 -118.296103102200533 33.632570926199236 165 131 119
51.439558496798128 -117.714381527547928 33.724918440110145 165 131 119
51.922682507307684 -117.108134368094909 34.019520043391807 163 129 117
51.975649914500053 -116.535797446700641 34.061365413001937 163 129 117
52.028645947761390 -115.963998811682416 34.103224065338054 162 129 115
52.426074692682874 -115.370417947140425 34.347378977904285 159 126 111
52.909777324224848 -114.774261725261823 34.642155812434268 156 124 109
53.135270110694250 -114.196488249604897 34.785250611520311 155 122 107
53.274707190946032 -113.625117934184772 34.877792258150265 156 120 107
53.155710786094374 -113.068306030769008 34.818593102707766 154 118 105
53.295222893030200 -112.498314721910759 34.911165806154330 152 119 104
53.434796754141587 -111.929427095305826 35.003760366629237 154 122 104
53.660645509847484 -111.357979661254973 35.146976914684913 153 122 104
53.800359367589522 -110.791580569721660 35.239619429098369 151 117 106
53.853890476080295 -110.229411792172797 35.281675365083515 149 114 105
53.993712964858958 -109.664964281845755 35.374357521748522 149 110 103
54.219875010053215 -109.099061009137841 35.517678456827412 145 107 98
54.273545771441803 -108.539420543597885 35.559787649139395 137 97 89
54.240938377280742 -107.982379404693901 35.551285251691340 144 104 94
54.553630069703701 -107.418361425277539 35.745305597066235 166 126 114
54.952790011725057 -106.855084924086043 35.989998128772015 163 123 111
55.352109347373528 -106.294577205144421 36.234737634296110 160 121 108
55.319722990116901 -105.741497497817733 36.226314771257009 162 126 110
55.287336244115608 -105.188457083969908 36.217897232591142 164 132 113
55.168544192400844 -104.635843025430006 36.158834851658682 166 133 116
55.222562186067222 -104.082503634456089 36.201078195647355 163 131 116
55.276612258297121 -103.529757254261028 36.243335219944484 160 128 117
55.330694556750302 -102.977606123743044 36.285605929552332 157 124 114
55.298340123443609 -102.425343939516623 36.277223537666060 155 125 115
55.352471303558502 -101.874116667898434 36.319517482157025 155 125 114
55.493136267558555 -101.324746160833556 36.412500198601435 151 121 111
55.547348922390228 -100.774997799503467 36.454825670541183 151 121 110
55.428528246871963 -100.222252838390233 36.395798122670328 153 124 110
55.482774917027513 -99.673172223164514 36.438142699481560 156 125 113
55.537054810784326 -99.124701691302135 36.480500961241773 157 125 114
55.677949221851094 -98.579463761664996 36.573568650100270 155 121 114
55.818909137788012 -98.035385862071792 36.666658261352651 154 120 113
56.046547855925326 -97.495636337938379 36.810473775784345 151 117 112
55.841138492587447 -96.940398746903895 36.700778820375120 150 118 113
55.375731478650408 -96.373005806476712 36.438936069337416 148 116 112
54.910166459523992 -95.802959624179806 36.177057552359244 143 111 107
54.704475104477581 -95.243037028590138 36.067304699058369 146 114 108
54.498722028259351 -94.682102801598390 35.957540803692879 147 118 111
53.946070672801369 -94.100944177956706 35.644851138335781 145 118 113
53.479955053286176 -93.521672580795752 35.382850389462902 145 118 116
52.579976310708275 -92.913013954840380 34.867129556155390 142 114 113
51.939951946606328 -92.315854858974134 34.503555087592190 148 119 121
51.386479752599513 -91.720862891512155 34.190673744275671 143 115 127
50.572451275748222 -91.104190766625507 33.725501122261093 139 113 134
50.626189483758083 -90.547099937352982 33.767792963998915 129 106 128
51.027247448796999 -90.017495894667064 34.013127819560196 125 103 117
52.296839764141424 -89.560554136550309 34.766123380368114 71 51 57
53.480062034814665 -89.104623807362586 35.468481249726764 39 18 20
53.534437423791047 -88.558540459408334 35.510953687757521 24 5 4
53.067538088039043 -87.966293102960520 35.248797330005601 16 0 0
51.557670268101418 -87.274542695116253 34.377272162480580 13 0 0
50.481848142458233 -86.615367291851001 33.759522842352652 12 0 0
50.274976488853866 -86.035940558361546 33.649540092974547 10 0 0
50.937534679664310 -85.544427335504977 34.047446027680706 10 0 0
51.165527932810221 -85.011563378534547 34.191451901777384 11 1 0
51.393621266501071 -84.480437440369428 34.335487216493874 9 0 0
51.621814744597231 -83.951049946036008 34.479551909824295 10 0 0
53.242313831900447 -83.583040677124757 35.436545613287464 18 5 5
55.559654407709161 -83.307462436888201 36.800180672525684 106 81 87
56.659234721034920 -82.899372493716058 37.452638693304294 170 144 151
57.759234481911591 -82.498453897397482 38.105206771346900 174 144 152
58.075963575811585 -82.005125844427070 38.300482785787906 169 137 145
57.957361738763325 -81.457397610864106 38.241663285722254 152 116 126
57.751624055829211 -80.897625917771222 38.132009660022590 142 104 112
57.981449932145608 -80.396270723859246 38.276517199087920 134 90 99
58.211376244300055 -79.896652087532843 38.421053381886665 130 83 93
58.267090173007290 -79.373926232297251 38.463932823430213 126 77 86
58.061323724422493 -78.813771866826556 38.354284541235117 112 61 70
57.942686696143539 -78.265605030010917 38.295475068619425 108 55 63
57.911226952993616 -77.730239756082440 38.287516454782320 97 43 57
57.443671283649735 -77.127449369717610 38.025268014523974 112 61 74
57.237669606351204 -76.563389888043702 37.915571786391723 132 84 95
57.031609239542405 -75.998354828808374 37.805863447878593 129 82 92
57.087294117690050 -75.475303892060282 37.848755536118304 124 77 87
56.968448151471478 -74.923721645799716 37.789909765483003 125 77 85
56.762275631197468 -74.356844000237345 37.680180848375628 106 59 65
56.556044551299806 -73.788990752244132 37.570439589724884 83 36 42
56.524418231238741 -73.250968300222510 37.562459806454157 117 68 74
56.143406813341727 -72.650356888161582 37.350919804596529 117 68 74
55.412819363515013 -71.983907964548834 36.935771360505356 107 58 64
54.070326863082528 -71.199728428109410 36.164269362802827 122 80 86
52.377781200083689 -70.341594538341582 35.189038540155579 67 43 43
48.936412583555978 -69.138160739825594 33.195518923139659 14 0 0
35.666632192288773 -65.405635808777561 25.490757127974561 3 1 0
37.118096530534217 -65.103293767950447 26.347482371247665 1 1 0
36.208287851205398 -64.328632968332570 25.829425797253919 1 3 0
34.685732248775480 -63.421920745924673 24.954803371611888 1 3 0
34.562746969084202 -62.800183296656172 24.894944163395067 1 4 0
35.402482395982304 -62.383146846836269 25.395364990546256 2 4 0
34.841927776037579 -61.668923120520745 25.080844705269428 2 5 0
34.456296470150136 -60.989940916996403 24.868165270534433 0 3 0
33.369982860745324 -60.153233452016650 24.247880721060938 0 3 0
33.421911134941013 -59.566620175834188 24.289865651839008 0 3 0
34.612700389662280 -59.240627727112170 24.994275638139101 2 5 0
35.979174733374350 -58.962827218266149 25.800717643726045 3 6 0
35.505856914791025 -58.262455321383513 25.537067697156061 3 6 0
34.506488813327508 -57.434630830939909 24.967578404500017 4 6 0
36.312066574335944 -57.275450635160794 26.029072872811327 4 6 0
35.575561495966383 -56.508611740678290 25.612464383958837 3 6 0
35.101898534580783 -55.802395675470223 25.348730583585137 2 5 0
35.066646147299309 -55.203001109074563 25.339872982784357 3 6 0
36.259600815481065 -54.913877125227430 26.044832967866896 1 5 0
35.961345707913836 -54.251139518901347 25.883061567527420 1 4 0
35.575239407580312 -53.564165227392060 25.670272732354888 1 5 0
35.891220981483059 -53.058827631780893 25.865443665724285 3 7 0
35.592788440856111 -52.393075483140564 25.703627959882567 3 6 0
35.206456842444396 -51.702270316076593 25.490782498794985 3 6 0
36.225183829811016 -51.389745911745919 26.094077989088049 6 9 0
35.926699556262264 -50.723108940465949 25.932248669261867 7 10 0
35.979545937720786 -50.152161502220139 25.974470818642175 9 12 1
35.065842452840030 -49.311413373353375 25.455451673185891 6 9 0
35.645907961251652 -48.887790084565495 25.803806590555638 6 9 0
34.731846686027694 -48.040947212044074 25.284696216695806 4 6 0
34.344984952841145 -47.341097975710866 25.071713983759551 1 3 0
34.485607648755092 -46.793085577133944 25.164931388258267 1 2 0
36.121455568785450 -46.686955728162367 26.125888455228051 3 5 0
35.118916392946488 -45.805185517031497 25.555599071226951 2 4 0
33.412173608317943 -44.705794042334460 24.576817033702170 0 2 0
32.848805861815208 -43.943755558356614 24.261591886980327 1 4 0
32.813333297931962 -43.340533953094948 24.252669114458030 1 4 0
34.890575077591677 -43.391893146254631 25.469245222786526 1 4 0
32.390211164921539 -42.023965965687132 24.030554153232941 0 3 0
32.354679948085078 -41.419704761180313 24.021611643917652 0 2 0
33.111844406043673 -41.068175724995747 24.472337590782189 0 2 0
32.371713680959743 -40.239537866457425 24.054800126466276 2 4 0
33.129180419432032 -39.893115449286839 24.505598122259400 1 4 0
34.415680356676376 -39.724857847717360 25.262984232816493 1 4 0
34.733110052147680 -39.243925588006661 25.458493392655669 1 4 0
34.874353721430424 -38.706272417796590 25.551843300971584 1 5 0
33.252217923172253 -37.575750017532791 24.623239155631396 0 3 0
36.038909391587225 -37.933766142121229 26.249606787358530 0 3 0
35.386665657539282 -37.129832825229904 25.883079119152271 0 3 0
35.263516931263553 -36.505110891297477 25.823154580050939 0 2 0
34.963864381989112 -35.818257611640895 25.660990117854638 0 3 0
35.105371573132800 -35.284947284797163 25.754389961859616 2 5 0
34.364269350873656 -34.439540470934915 25.336578791712355 9 12 3
34.329175038508538 -33.842407362404828 25.327710557198458 11 14 4
34.205779535283000 -33.213353917051180 25.267707998292053 11 14 5
34.700551679654723 -32.808523330400803 25.565633685223915 10 13 4
34.665528306129460 -32.212509177839969 25.556772973397941 9 12 2
34.983886576858765 -31.747041314926392 25.752477164404382 9 12 1
35.037281631017009 -31.184850846927969 25.794769600628698 11 14 3
35.179082313511202 -30.656296607647221 25.888215532654669 14 17 6
34.702185728381949 -29.894442470277255 25.623591648126919 12 15 4
34.843993331680366 -29.365937095826979 25.717031191410470 12 15 4
35.604837489795869 -29.076437280264287 26.168618333623513 11 14 3
36.277520291544789 -28.757389903891045 26.569105716930068 8 11 1
36.419708179477965 -28.235248320220418 26.662628743272762 8 11 1
36.561953511890380 -27.714046352159880 26.756161819861816 7 10 1
36.350300534457432 -27.053432306591219 26.644990613367170 6 9 0
35.784558602022742 -26.250158852494550 26.329066536611009 7 10 0
36.723469017699813 -26.049131759314768 26.883259651199054 0 2 0
38.016866759797523 -25.997466266254932 27.642297310222773 0 2 0
38.513762002559503 -25.628231091400263 27.940696976368869 0 2 0
37.328044193994998 -24.569749903369512 27.266362005875024 0 3 0
37.559249978645454 -24.091371096144769 27.411158843443701 2 5 0
38.676541440127608 -23.984199818156334 28.068040658699346 8 11 0
39.085310001153715 -23.585867923144022 28.315332891681066 4 10 0
39.405596044522269 -23.152511018498569 28.511442690364788 0 5 0
39.460056338567966 -22.607729083108126 28.553919662486820 0 3 0
39.869191934299693 -22.215506622740349 28.801288615804651 0 3 0
39.923758029825422 -21.672428547091144 28.843780941405328 0 3 0
40.244430552290908 -21.245459611956331 29.039966194770415 0 2 0
40.565218624669228 -20.820408453560141 29.236174940217424 0 2 0
40.265031835445455 -20.123243581273236 29.073731200816866 0 3 0
40.053479942843978 -19.463598490890419 28.962496829273974 1 4 0
40.374405256034663 -19.040725796482540 29.158721745645735 5 8 0
40.961769329680635 -18.739624086955487 29.508724414974665 4 7 0
41.993297050881466 -18.643199851304722 30.115053156816614 5 8 0
42.669965789618658 -18.390979981118150 30.516430412679313 10 14 0
43.346875004239507 -18.142803999943247 30.917862786335249 11 15 1
43.402153015588283 -17.611316540341114 30.960473270231461 2 6 0
43.812866195125281 -17.245335887700254 31.208169892976159 0 3 0
44.134852234956867 -16.840149404988079 31.404620074688509 0 3 0
44.101402646410207 -16.269327177443671 31.395969696143894 2 5 0
44.423546702571542 -15.866713535155107 31.592446127283281 5 8 0
44.923638524929629 -15.550748448584494 31.891521264296131 9 12 1
45.423904319037234 -15.237688989219446 32.190633923766754 10 13 2
45.657491453270893 -14.798644617109566 32.335892614755494 12 15 4
45.535288469263378 -14.187909625494330 32.275958427064396 8 11 0
45.679982184204022 -13.706750391833989 32.369919236486609 10 13 2
46.091716481033501 -13.357623122348210 32.617812349638683 9 12 1
46.770635414278019 -13.142987542181611 33.019675187294524 8 11 0
47.271728147494372 -12.843647040590357 33.318955294210213 9 12 1
47.951086245166550 -12.636374255883922 33.720916158146665 12 13 7
48.185363541850080 -12.208639591122720 33.866298049823754 12 13 7
48.865111099684185 -12.007878992077440 34.268343802673172 13 14 8
41.018485738988318 -163.523788675222278 27.474066612273276 185 47 88
42.003639050716856 -162.603727799645384 28.064593108737682 165 19 60
42.308931320398585 -161.900326710258696 28.255151252605472 139 2 38
42.699385138415551 -161.172940711799214 28.495756943171187 118 0 26
42.409505570020997 -160.654100677941557 28.336265845169152 109 1 23
42.034446491432362 -160.158980650902805 28.126727471423223 104 4 21
40.638151227395838 -159.964024985386800 27.316842586014403 96 6 21
39.837095081448609 -159.585731118833081 26.857033166510718 84 11 22
39.376239070414016 -159.103774111447052 26.597285414432164 57 2 6
39.766606650907448 -158.375046337892769 26.837884144592110 28 0 0
39.220419504218768 -157.914233165597011 26.528051244397503 22 0 0
39.440569193866480 -157.235376375099008 26.668594586761216 37 6 2
39.660804220992532 -156.558011469726267 26.809164201855324 49 9 5
40.051528977642278 -155.835521972259926 27.049872193519846 46 5 1
40.442402291429090 -155.115610753833721 27.290623697847977 46 2 1
41.003891765481796 -154.352746654711609 27.631547946533772 42 2 0
41.736092264742581 -153.548558813500932 28.072670683759384 35 4 0
41.701179547502306 -152.949136526971699 28.063212971394677 35 8 1
41.239851641252613 -152.459345158916733 27.803369003785164 33 8 1
41.034247363185159 -151.901667737799727 27.693728344508500 28 10 0
41.169821839449270 -151.257138730701314 27.784415575743438 21 8 0
40.708149891451768 -150.761530995758676 27.524489103535473 15 5 0
37.771321003802797 -150.868191692892083 25.811778958189137 11 5 0
35.943090323199669 -150.688525145337366 24.750063899769444 6 2 0
35.565579496356946 -150.151835288211174 24.539923328118761 9 2 0
36.212636206844479 -149.372235498626395 24.931038555756601 12 2 0
36.859937058683130 -148.596859011660712 25.322223652718009 27 9 0
36.482398336159832 -148.059790665802268 25.112087390107590 41 18 6
36.190163141779152 -147.501188310912255 24.952038698063745 63 33 23
36.068734401262589 -146.902905870250919 24.892214963052524 73 41 29
36.203678501772231 -146.247886004485935 24.982770663447113 80 48 34
36.509651171547432 -145.556997867618151 25.173611287646438 80 53 35
36.644735910339136 -144.904462118471002 25.264213292624831 83 54 40
37.378506958420189 -144.127779816785164 25.705825331251717 87 64 55
38.796832455151332 -143.215069151204432 26.548682998593819 87 95 125
41.071194785328345 -142.138210286324693 27.893189052592376 87 136 198
43.089706822824837 -141.127122184140745 29.087464505601744 96 156 219
44.766643649389664 -140.196143233588032 30.081312275945805 103 163 226
45.930618496542081 -139.375033195061718 30.774355303698158 89 149 212
46.923802069417661 -138.593932281937612 31.367185568061387 75 135 198
47.232319142196388 -137.947011370718599 31.558748763641972 69 129 192
47.712247476462039 -137.270786135421503 31.850699777950368 63 118 183
48.106697174622099 -136.613160436455189 32.092524288484086 20 73 139
48.672653851701739 -135.927871567295568 32.434762283241596 9 63 127
48.810357663541510 -135.320693005574668 32.526119837091400 47 101 163
49.033827376072935 -134.699914436933454 32.667689678948932 64 114 177
49.514561804388961 -134.037695260138520 32.959878679793690 58 103 169
49.995480202876905 -133.378667261524640 33.252121363774407 36 75 143
50.133553479041296 -132.777972850439340 33.343595629933844 25 64 129
50.529003367362947 -132.137755748898627 33.585718983480859 15 54 119
50.324081642054495 -131.592864838194060 33.476389334453160 17 55 118
50.290699818067537 -131.020875911880296 33.467482076895777 31 69 132
49.914027348103929 -130.499586585064407 33.257687516092986 37 75 138
49.966405933169341 -129.913943983325481 33.298995856681884 43 82 137
49.932957237970243 -129.340926815357022 33.290084644255586 41 80 139
49.985371305031094 -128.755971033620369 33.331411765603875 34 74 135
50.123696106961631 -128.159898548219559 33.422990010823511 37 76 140
50.262078860559853 -127.564858565107556 33.514588386785917 49 91 155
50.572353170280849 -126.948745947318486 33.706702970382480 29 70 131
50.710884181806279 -126.356325230332672 33.798350226106464 56 83 126
50.591627655885929 -125.796466686776668 33.739248265643852 93 87 107
50.472333906981390 -125.236011146908993 33.680141193413419 166 144 134
50.353003064357580 -124.674961026158911 33.621029067590840 170 144 121
50.319631799118895 -124.103631499596929 33.612181144802435 173 141 120
50.458280662055500 -123.513431301865239 33.703883608268626 168 134 123
50.769045625223242 -122.906003397271476 33.896161889930298 166 132 122
51.165978233587936 -122.291858040534777 34.138759511212584 166 132 120
51.132763998985070 -121.723380034307780 34.129972487215852 169 135 122
51.099545471947494 -121.154869565192755 34.121189171010940 169 136 120
51.238507577512934 -120.570235830060511 34.212998738039929 165 132 116
51.463637984176842 -119.978895533693972 34.355127778622347 166 133 118
52.291730934998611 -119.336673505900279 34.849407009604207 166 133 118
52.517157521703552 -118.750483097251262 34.991623929166664 163 130 115
52.484207524086628 -118.186772614508101 34.982935747098111 161 128 113
52.278909523559520 -117.636403872530991 34.873620218683058 158 125 110
52.590674191107610 -117.046493072495878 35.066211013682818 156 124 109
52.643950827038680 -116.477155510861806 35.107867316072529 156 124 108
52.611036246627719 -115.914214857148693 35.099207833549144 156 125 108
52.664355199013357 -115.345683034268305 35.140884954372751 155 123 108
52.976460394644192 -114.761760289553564 35.333584707529781 152 120 107
53.116154558304402 -114.190100927930757 35.425640488737798 152 120 109
53.083341867300874 -113.629066307027060 35.417027114112230 152 114 107
53.050527044475615 -113.068036031972085 35.408417998657185 152 114 105
53.276659083700878 -112.494360685100901 35.550873627849882 155 118 107
53.502885307670965 -111.922336078054784 35.693358747919959 155 119 105
53.642857595128106 -111.355635032224640 35.785511506612579 153 120 105
53.610163812614218 -110.796836270815987 35.776953294301109 152 118 106
53.663848965900343 -110.234931486355975 35.818769739388870 153 119 107
53.803961221116083 -109.670743734263780 35.910973427220426 150 114 102
53.857724150863930 -109.110248519879562 35.952819707597413 141 104 92
53.911518199272990 -108.550325079159009 35.994678846429039 137 100 84
53.965343520307272 -107.990975882893210 36.036550865031188 157 120 102
54.278581210139009 -107.426935764144574 36.229609218364601 163 126 110
54.764899154081803 -106.862150493868995 36.523496169414017 162 125 109
