ply
format ascii 1.0
element vertex 704
property double x
property double y
property double z
property uchar red
property uchar green
property uchar blue
end_header
67.746122883170244 -45.237162367681620 -178.754147193773207 0 3 0
71.021793501742764 -43.680208125788248 -180.777009115865582 0 3 0
71.833598081605601 -42.553996179580906 -181.301011866640636 0 3 0
72.550463420905942 -41.440397917207761 -181.767490495614027 0 3 0
72.983003444877056 -40.375917042910814 -182.061125265290940 0 3 0
73.794210577338902 -39.236176744476303 -182.585530842964829 0 3 0
73.563640489080683 -38.293750766305166 -182.475794364374281 0 3 0
73.522454107252656 -37.315014392579016 -182.481497347533747 0 4 0
73.102597146719745 -36.411933400672126 -182.256658867075998 0 5 0
73.440039796697079 -35.357303629822447 -182.493267505236304 1 4 0
73.682735066332839 -34.319890712568295 -182.672346446953725 1 5 0
74.303866110745503 -33.201759154076214 -183.082246456267939 3 6 0
73.884019407778908 -32.299967834138847 -182.857906892023550 4 7 0
73.369642011971848 -31.420554332728923 -182.576013220035264 5 8 1
73.422935965362285 -30.420368850455592 -182.640294009806325 15 15 11
74.138278241450678 -29.273670127733300 -183.108463134607916 20 16 17
75.515427246397621 -27.974737497887364 -183.980563840013872 11 6 10
-60.788480453415445 -0.526196602756698 -103.523695612533885 149 142 124
-88.031092909205455 -0.642223717715248 -87.592973740225929 142 139 122
61.334546312892201 -161.468157678241653 -172.882269985462813 250 209 207
61.392357199444064 -160.552112354127303 -172.934827862985912 240 192 190
62.603353641853403 -159.829336315197338 -173.682431790854992 235 186 182
62.853147767705650 -158.940962974512132 -173.851125491255459 239 189 186
61.661681214178998 -157.817208543808107 -173.151434226376409 200 153 153
60.470475306604214 -156.700142261362316 -172.451943312580624 143 107 103
60.816434815618038 -155.830516808319658 -172.679055261939425 149 112 106
59.721616527253104 -154.737222989743685 -172.037829098005091 96 54 52
59.683411923016990 -153.809580329873768 -172.033664642836840 151 103 103
60.413382065775465 -152.995900588904959 -172.492828033498228 153 103 103
60.471083153004372 -152.080283369165613 -172.546854088455774 118 67 66
59.568749978247581 -151.027394373938307 -172.022080062730680 154 98 99
59.530513652135312 -150.100234384948322 -172.018511505296260 182 122 124
60.548026741195144 -149.317723135871574 -172.651902229551609 115 57 59
60.125784861699628 -148.336317933504574 -172.417037245497426 184 128 127
59.415759160241635 -147.319412256536197 -172.008644217291248 186 137 133
59.953157974230294 -146.466615738212710 -172.352963652605752 168 121 115
61.066012237091229 -145.682952582684464 -173.044736725594646 146 104 96
61.698980925949229 -144.833960590339103 -173.447178023983810 138 99 88
61.756322397463578 -143.912215586716229 -173.502410566560030 128 92 78
63.348021386213645 -143.169754542460026 -174.483950179727657 130 90 75
63.980451509326201 -142.308512597421498 -174.886728345295097 132 90 74
64.708593904881013 -141.454235005622650 -175.347501476971729 126 87 70
64.861356945990565 -140.533183346870459 -175.461074026346495 126 85 66
65.493339085723733 -139.661848552009332 -175.864178688399079 114 71 52
65.741785442547268 -138.747290657515492 -176.035854272217620 181 136 121
65.223504744603645 -137.754369209868912 -175.744574162012583 222 176 166
63.555486029128645 -136.652296163024005 -174.758819120490756 211 175 167
60.546516897254719 -135.432748551775120 -172.962839828343732 22 2 0
58.687814245678226 -134.335550216343876 -171.861568212817673 17 12 2
57.308466690593264 -133.291316236514831 -171.049817386162601 18 20 11
57.174507523603154 -132.361889653375670 -170.990622742376985 10 13 5
56.849037152848496 -131.417129418304967 -170.815763203246263 22 24 16
54.991585198654946 -130.350909274923083 -169.714919782127680 14 16 4
54.762160822681096 -129.421301723622378 -169.598132366224831 15 17 6
54.724236432662451 -128.507141402286550 -169.597193253726175 19 21 10
54.686306660747448 -127.593032728694723 -169.596340773791184 18 19 11
53.308465193905192 -126.586444595475427 -168.785269155701059 17 18 12
52.026630794397590 -125.593854055910199 -168.032165009139902 16 17 11
50.936454768732460 -124.620508742105329 -167.394903561531549 17 18 10
50.707585696772071 -123.705331154911633 -167.278629539152348 16 17 8
50.574419278216169 -122.796805119669358 -167.220311527089478 16 17 11
50.058665920997214 -121.867863328970031 -166.930557140590025 15 16 9
50.595059202700099 -120.996439376909265 -167.277535693747012 14 16 5
50.079397911044055 -120.070020656711876 -166.987928939088022 13 16 7
49.946313986715040 -119.164094634848894 -166.929905496875392 12 15 6
48.665976260201717 -118.208792094089176 -166.177417709234476 11 14 3
48.819847949363691 -117.318955736925204 -166.293166342249066 7 11 0
48.113419494591142 -116.395489704778981 -165.888081206818612 6 10 0
48.458437703828508 -115.512682761626024 -166.119718381907433 4 10 0
49.472286563307136 -114.649262628839594 -166.756566303412370 0 5 0
50.676981348556012 -113.785500988591664 -167.509235454231856 0 4 0
51.212610686810365 -112.896974232863755 -167.856822671040078 0 3 0
51.365992593890724 -111.996169640780636 -167.972959989418968 0 3 0
51.328293890903751 -111.090324722211861 -167.973401908839520 0 3 0
51.481599457384903 -110.187938075692941 -168.089660814856472 0 4 0
51.443869709015985 -109.281595659683148 -168.090221963041614 0 4 0
51.692580679672062 -108.378796607020249 -168.264477919828209 0 4 0
52.418571219150238 -107.478899489969280 -168.728187859379915 0 3 0
52.571622608347241 -106.570890789912880 -168.844681973662603 0 3 0
52.533729258889593 -105.661095605879666 -168.845473858257151 0 4 0
51.732340848562615 -104.750618709992466 -168.383282559912175 3 7 0
51.789954935963522 -103.842845873215950 -168.442062193978188 3 7 0
51.465887395878553 -102.936368683802812 -168.269374794511151 2 6 0
51.046481320565704 -102.032263184134678 -168.038858196188841 4 8 0
50.817943977418054 -101.128345667877994 -167.924153703458302 0 4 0
50.494068132093105 -100.226797909766518 -167.751618707557157 0 3 0
50.551730013188092 -99.320721459001447 -167.810659916351426 2 8 0
50.132579604183150 -98.423182853705413 -167.580342961947053 3 9 0
49.713515780796797 -97.527826915186338 -167.350073853695932 5 9 0
50.057214332352714 -96.615793849302776 -167.582914453287060 7 11 0
50.019525646724844 -95.712111641435598 -167.584275690049708 7 10 0
50.077144722834532 -94.805535880959937 -167.643570570233209 7 9 0
49.277032699248593 -93.926973032947771 -167.181959563918099 5 9 0
48.667676192257602 -93.045873709232580 -166.836160051092975 4 8 0
48.058451565809037 -92.168038240178078 -166.490404417234117 3 7 0
47.925691240613958 -91.273530471144909 -166.434119716998453 1 7 0
48.459735471967690 -90.349758028701856 -166.783085107034736 4 6 0
48.993639457758604 -89.422728208328721 -167.132105966851469 3 7 0
48.003683526953182 -88.569270459127026 -166.554990409104107 2 6 0
47.109171212491560 -87.716171700319677 -166.035801235778592 1 5 0
47.166956638365264 -86.814510224498790 -166.095532901008255 0 4 0
47.795905712127706 -85.878603752230291 -166.502647661452414 0 4 0
47.948755982868875 -84.968334126676410 -166.620374342371747 0 4 0
47.054622940924730 -84.124734368200421 -166.101365199645443 0 4 0
47.207498149705089 -83.215272427162816 -166.219191309530800 0 5 0
47.740935607871677 -82.277906407557538 -166.568635630011897 0 4 0
48.654799044211245 -81.309375995732267 -167.149706496430724 0 3 0
48.997648429048297 -80.378884998591246 -167.383488109456579 0 3 0
49.055045028791653 -79.468767499179506 -167.443648601661835 0 3 0
50.158598249747229 -78.472411842690889 -168.140696159486140 0 3 0
51.356970164677136 -77.461466283428152 -168.895709517027711 0 3 0
51.128767268781360 -76.568441603082718 -168.782367599828376 0 3 0
49.949868497435148 -75.762537417474732 -168.090118259801443 0 3 0
49.816921527014358 -74.865501784473622 -168.034771896952918 0 3 0
50.824602254718684 -73.859221796320227 -168.674252067269123 0 3 0
51.546908806567501 -72.875209378594178 -169.140112686260096 0 3 0
51.318746252143967 -71.983746085458634 -169.027053511675234 0 3 0
50.805572889509449 -71.123240842690166 -168.740351049187552 0 3 0
50.292507152097414 -70.265434146417519 -168.453701127169353 0 3 0
50.729489357655552 -69.305263743206751 -168.746122010621690 0 3 0
52.116178228790545 -68.234578338252206 -169.617641190030071 0 3 0
52.932691624592564 -67.222017754465540 -170.141830499165224 0 3 0
53.843953516053091 -66.193222692261330 -170.724006612288548 0 3 0
53.995392675834069 -65.251712243759073 -170.843025230821155 0 3 0
54.811339434527724 -64.226037407613191 -171.367460948041952 0 3 0
55.532148343422534 -63.207580966897225 -171.834076846993469 0 3 0
56.632425299615193 -62.135116551660502 -172.532413806286996 0 3 0
57.068100333030486 -61.144858551553149 -172.825482346779040 0 3 0
56.554737484393399 -60.281365927579685 -172.539531088365777 0 3 0
56.610761920160542 -59.341218378421502 -172.601114582299743 0 2 0
56.951361886783104 -58.360007709151731 -172.836515815591667 0 2 0
57.576434607359488 -57.335286376968995 -173.245746534643757 0 2 0
57.821954974950131 -56.362876003180418 -173.423414435270871 0 2 0
58.446736643168322 -55.331553899035725 -173.832836466942325 0 2 0
58.597233407583587 -54.369295286046182 -173.952773232682347 0 2 0
58.842487050404202 -53.391051954590182 -174.130719826135277 0 3 0
58.708460999462602 -52.471635085644564 -174.077083135784392 0 3 0
59.332760010393201 -51.429534013707929 -174.486902412861667 0 5 0
60.525554697724203 -50.289561121543244 -175.244365987158915 0 5 0
60.959912798304288 -49.269998429259225 -175.538569013827924 0 4 0
74.441431662201524 -43.052410231465927 -183.899734863543927 0 3 0
74.968453490643469 -41.967936849195887 -184.252627331012832 0 3 0
74.643047149802896 -41.038287723573390 -184.084259775020428 0 3 0
74.317696574213812 -40.110200113885057 -183.915997552538954 0 3 0
74.087076186512036 -39.165554731198071 -183.805778133757173 0 3 0
73.856488086449815 -38.221921888239073 -183.695671574195870 0 3 0
74.099191004442787 -37.185994206953275 -183.875373006807564 0 4 0
73.868609259130153 -36.243018163525072 -183.765507522036899 0 5 0
73.827316612896254 -35.262636258243219 -183.771646039557851 1 4 0
73.502156816247464 -34.340599226866402 -183.604083083611897 2 5 0
74.312322085985443 -33.183112249324282 -184.131987136470514 3 6 0
74.270914891046345 -32.200827422804544 -184.138533382011502 4 7 0
74.040325677428996 -31.259033809534767 -184.029319471229286 5 8 1
73.809766001720504 -30.318229492705740 -183.920238939965856 14 14 9
73.673795536317982 -29.357573023586234 -183.869247404600088 19 15 14
74.388767796365130 -28.207359745249875 -184.339992781411894 29 25 26
75.387149689944692 -26.988530956691438 -184.984790775483589 9 4 9
59.523244613632983 -161.180492143404933 -172.778804264266171 241 202 199
59.869513621813098 -160.318425326029256 -173.005970861556222 226 178 174
61.272537117328170 -159.631894381459801 -173.873307613080868 224 175 170
62.194883577553242 -158.857985963685792 -174.449871934658205 231 183 179
61.195894080076982 -157.766845539836453 -173.862998612688074 165 121 118
60.101076174831860 -156.665982945932484 -173.218147350719221 151 112 110
60.158888899298802 -155.751871433050695 -173.271609161666504 175 137 134
59.448498773950121 -154.719126689208906 -172.859832340123290 134 95 93
58.642247101248074 -153.675826692103954 -172.390060369061587 164 121 119
59.276152330247101 -152.850510642210736 -172.793051459062013 212 164 162
59.525940978866402 -151.965662531962408 -172.963494553490250 163 112 111
59.487724449634698 -151.038237628998303 -172.959571479732205 177 123 123
59.545465313458237 -150.124346272996291 -173.013965457911354 174 118 119
60.466762874458766 -149.328310124164119 -173.592013446461067 137 83 81
60.236513446541665 -148.372492138267972 -173.472180992003643 192 142 138
59.430711503821840 -147.342284217686654 -173.003497173411120 183 134 129
59.488365430615715 -146.427469841069922 -173.058449928260529 174 131 122
60.409171802053720 -145.620691986563116 -173.637011162310870 152 112 102
61.042052219729158 -144.773223621425416 -174.041196996203865 141 105 91
62.537747834650759 -144.025617398190434 -174.968961386026990 124 91 74
63.649574668004107 -143.224446374229586 -175.664181101563344 122 89 70
64.281803595055123 -142.362011435396909 -176.068703595283040 121 87 67
64.147044757703156 -141.410317660864962 -176.008058201670337 116 80 65
64.395668088405728 -140.500933028151650 -176.180172213636041 108 72 53
64.452556280889951 -139.569702835737559 -176.236082874047355 94 57 39
64.317776976626703 -138.618257422989956 -176.175791788233198 193 157 141
63.033319207000261 -137.552192502325795 -175.417724851686728 190 163 149
60.886978373818408 -136.409294645853151 -174.136370472248046 11 0 0
58.741126821825617 -135.278439945724813 -172.855147383114797 10 5 0
57.745053553110893 -134.265071627419331 -172.271923041542436 13 15 1
56.940725113358269 -133.274240973719600 -171.805121630454067 0 5 0
56.423825541457688 -132.312556355387301 -171.512892687744824 16 22 7
55.045370484838259 -131.281912541819310 -170.697373657249301 16 22 7
53.858683221565514 -130.274342172279972 -169.998269623904491 14 17 7
53.725155554055334 -129.355056490418917 -169.938961138847446 18 21 10
53.400231950572334 -128.422059223089519 -169.763437403355312 17 20 10
53.745236458736997 -127.538930930705561 -169.995078502687136 16 19 12
52.750571170668252 -126.561117201078858 -169.412661826330549 15 18 9
51.947471283216714 -125.601470193937288 -168.946641701350330 14 17 8
51.144546621826919 -124.646220882235127 -168.480709106257990 14 17 8
50.628747317294881 -123.712754933657109 -168.189319173294905 14 17 7
50.782526764119268 -122.820719949806460 -168.305077413309618 15 18 8
49.979981660017927 -121.875117672151035 -167.839392387330150 13 16 5
50.516238133685079 -121.003630966373137 -168.187915075623721 14 17 6
49.713886283523607 -120.063001341072606 -167.722385188553858 14 17 6
49.102897336889896 -119.135631757393270 -167.373234627344289 12 15 4
48.014127807647924 -118.190734740421050 -166.733398472247103 9 12 1
47.976882611189183 -117.294676866406093 -166.733304055496092 6 9 0
47.939632712372088 -116.398652058964217 -166.733279563626866 5 8 0
48.475668344488327 -115.522757093094697 -167.082234533855228 3 8 0
49.680323201610861 -114.665177063459737 -167.838320218871132 0 5 0
50.407050828485580 -113.786529893667606 -168.303714385779188 0 3 0
50.464991855971505 -112.885821725501643 -168.362111687295425 0 3 0
50.713912064780402 -111.989122382313113 -168.536878016289762 0 3 0
50.676284423046013 -111.084845268086582 -168.537252276989335 0 3 0
51.402496639188598 -110.194347051182930 -169.002907707705504 0 3 0
51.173831211391359 -109.285048790817541 -168.887102998801907 0 2 0
51.899785816341932 -108.388618580953619 -169.352884883046556 0 2 0
52.339215251588143 -107.485149720293521 -169.644271626381681 0 2 0
52.969397795477789 -106.580249086534749 -170.052026028555048 0 1 0
52.454329851544344 -105.667233659849813 -169.762003794559007 0 2 0
51.462307418401110 -104.756507010785270 -169.181270204739036 0 6 0
50.947513753972316 -103.850318174240016 -168.891357676743837 0 4 0
51.005169165926702 -102.944136881279391 -168.950423167867427 0 6 0
50.872040256653236 -102.038878688250151 -168.893236806644722 1 7 0
50.834297118714176 -101.133180158753760 -168.894260036525679 0 4 0
50.129057257067359 -100.236378302679825 -168.488253981729116 0 4 0
49.996040126762182 -99.334146817659814 -168.431229349977372 2 8 0
49.481707717340726 -98.439719193141414 -168.141635715785071 3 9 0
49.158128494898449 -97.543849879626393 -167.968404095588369 2 8 0
48.929923738856644 -96.647263774844006 -167.853379896275271 4 10 0
48.606460585235482 -95.754399691801908 -167.680250370951967 4 10 0
48.759501662597074 -94.848677852880144 -167.797957106538689 4 9 0
48.626662777758668 -93.951387607226025 -167.741245278647881 3 9 0
48.589107668373288 -93.051203855336794 -167.742743109825113 2 8 0
48.170531751027283 -92.165880083102067 -167.511659113539082 2 8 0
48.609227108020718 -91.246863690069603 -167.804054880671686 2 8 0
48.666878915372308 -90.342162254210749 -167.863869769561774 4 8 0
48.438843266419667 -89.450505686639232 -167.749257925069656 2 6 0
47.734804635694729 -88.583938462632830 -167.343893542554980 2 6 0
47.316512476367109 -87.705958187496776 -167.113057463400935 0 4 0
47.469422935445891 -86.798088492977527 -167.231239658717868 0 4 0
47.622283365393173 -85.889130650542839 -167.349476964966556 1 4 0
47.489603515219130 -84.996744362477997 -167.293281151698864 0 3 0
47.547245666570177 -84.092580884925056 -167.353464489617949 0 3 0
47.985423071793150 -83.162149267502727 -167.646359243878806 1 4 0
48.042964652828118 -82.255803075467838 -167.706655624996671 0 3 0
48.480950525230639 -81.321013798655315 -167.999669632003645 0 2 0
48.348177887028839 -80.426971141260339 -167.943749105315618 0 2 0
48.310518062495021 -79.525946916854537 -167.946049762283423 0 2 0
49.794196006781078 -78.500300599222413 -168.879086536007833 0 2 0
50.802142242784214 -77.506251280538066 -169.521362496394374 0 2 0
51.049343292912397 -76.572867297218338 -169.698361084119114 0 2 0
49.585572989388425 -75.792699631309702 -168.828368070148485 0 2 0
49.262599843324551 -74.914169367829842 -168.656457266325901 0 3 0
50.650177567862215 -73.872616480589215 -169.531685207916865 0 3 0
51.752361070648590 -72.851152880963667 -170.232482222963085 0 3 0
52.094230415617517 -71.900671739936442 -170.467977748044660 0 2 0
51.581065226128260 -71.037653473388488 -170.179979082806085 0 2 0
50.878044030431624 -70.197799417197658 -169.775686614183257 0 2 0
50.839967603489072 -69.288194107875029 -169.778675874581808 0 2 0
52.131309405825903 -68.227694469909792 -170.596202080275674 0 2 0
53.517273406914512 -67.148516180272708 -171.471999076571109 0 2 0
54.428208247748557 -66.117762753519557 -172.057001506750993 0 2 0
54.769359606885530 -65.151099980485313 -172.293017555881988 0 2 0
55.584979542135841 -64.122919025004904 -172.820014945601031 0 3 0
56.210582977321280 -63.114088854397643 -173.230740987190927 0 3 0
56.646238000128676 -62.126238217477720 -173.525191390805873 0 3 0
56.797133483008679 -61.173674614347405 -173.645178201635872 0 3 0
56.283900359950962 -60.310643998237502 -173.357955292957172 0 3 0
56.245055094791837 -59.384185232018751 -173.361728818190755 0 3 0
56.870116664712214 -58.363232173711282 -173.772890476559041 0 3 0
57.495009906908138 -57.338436097019553 -174.184150572618677 0 3 0
57.740445560568901 -56.365945422639641 -174.362754803868171 0 3 0
57.890992743558513 -55.406091699245756 -174.483261869901696 0 3 0
58.610281475916622 -54.357619869780976 -174.953010861405630 0 4 0
59.234589944916252 -53.319606392255459 -175.364676701543942 0 4 0
58.816185980725777 -52.444113856044325 -175.136317147549903 0 4 0
59.724575872838955 -51.355191809812467 -175.722776294241072 0 5 0
61.011742038122009 -50.198106107085529 -176.542144583156499 0 5 0
78.552568481338596 -45.299358556706864 -187.376812346553749 0 3 0
78.605582506112512 -44.290596708933194 -187.440211387284251 0 4 0
78.469145346739708 -43.314740190221073 -187.387318497073267 0 4 0
75.586516376474776 -42.833183410134026 -185.646622943384017 0 3 0
75.734486987215348 -41.814267036211831 -185.768522916466424 0 3 0
75.125008868142743 -40.934770871295243 -185.424889615324929 0 3 0
74.137005594880236 -40.129843395700640 -184.848521708788951 0 3 0
74.095726177112567 -39.149117300428387 -184.854343364730738 0 3 0
74.243711625635513 -38.131536206710692 -184.976711370372186 0 3 0
74.864776655770640 -37.019483118836185 -185.390278729770813 0 3 0
74.255652471823225 -36.149661392909628 -185.047200923879331 0 3 0
73.930465914780768 -35.225404041985115 -184.878883742569712 0 3 0
73.132365190348935 -34.400074799084813 -184.419595581120603 2 5 0
73.563999162159121 -33.322268807565862 -184.717281299590923 3 7 0
74.090072905007446 -32.221623648434537 -185.073346603184234 5 8 0
74.048637852255297 -31.239374260249363 -185.080230341877069 5 8 0
73.723543150882847 -30.318720044131616 -184.912579879956013 10 11 3
73.020355735237899 -29.482946494345100 -184.512151988241754 15 14 9
72.978983982878731 -28.503102718160196 -184.519458150693708 18 17 13
72.937594239767350 -27.523146364063074 -184.526917466083177 32 28 28
75.636732541952597 -25.915070992593229 -186.223333061710406 20 14 18
82.870708426346141 -23.238545507761216 -190.715392323736069 181 173 180
59.442113375824022 -161.193395589931839 -173.718497541129864 231 194 188
60.076495683121834 -160.380413956771804 -174.121899662389836 216 170 165
61.863356330586839 -159.757519742470322 -175.226963156664965 218 171 163
61.536847050494373 -158.775212245640574 -175.046096067016379 214 170 163
60.730239494020338 -157.716696094356706 -174.573140021376446 105 65 59
59.443701972564440 -156.586058846112081 -173.808113750538325 187 149 145
62.381837114478969 -156.125046967471008 -175.615197911410007 152 114 111
61.575359959560728 -155.070785185503439 -175.142776596821903 148 109 106
58.753338710068590 -153.716337605480362 -173.443101611276973 147 105 102
58.043414289392103 -152.691033706308531 -173.029525741827371 199 151 149
58.677134382114332 -151.865165094531733 -173.434382735881314 229 179 178
58.830925316371179 -150.967149593018689 -173.547147886174912 201 151 149
59.272487779476535 -150.108420348062992 -173.835393540777034 180 130 127
59.905790489340802 -149.273375505867165 -174.240663417439038 177 128 124
60.155251761658519 -148.383136249577291 -174.412294429896548 193 144 140
60.116914310179538 -147.453570239293214 -174.408738478528448 180 135 130
60.270362288040531 -146.548769421961623 -174.522203884438170 169 129 121
60.327872324756868 -145.630927463781433 -174.577363972095355 152 114 103
61.439967454002499 -144.842265610093790 -175.275480629776666 136 100 87
63.031099551211582 -144.104724657530994 -176.265896702769254 121 88 71
64.046732233822695 -143.290585707709994 -176.905794149388811 119 86 67
64.199546901261556 -142.371846783441868 -177.019879017842044 115 83 63
64.160651131018938 -141.430720014114627 -177.017216908774401 102 72 52
64.025930385995593 -140.479258602564698 -176.956244369205990 89 54 35
63.028965732033043 -139.437073005880478 -176.369491199283573 138 102 84
62.128014646958547 -138.410291422263782 -175.841303483627854 189 160 146
60.269418593817988 -137.292426864130192 -174.728919173106192 16 1 0
57.932379668032638 -136.138309697633247 -173.324512180402309 11 6 0
56.936536632340051 -135.124193703124490 -172.738281040530126 13 12 1
56.706914817620770 -134.185908839059920 -172.619614431771481 13 16 2
56.764548828347472 -133.274333994232222 -172.676346048038312 3 9 0
55.003326676907989 -132.205612407325248 -171.623014560722766 19 26 11
53.625370068764653 -131.178642282306441 -170.803517620397628 15 21 6
52.630543914619921 -130.190156484110503 -170.217846699752499 18 21 11
52.305794899832847 -129.259177595498500 -170.041279629514548 18 21 10
51.789742382674717 -128.315571914833839 -169.747952674514067 15 18 8
52.134839373640091 -127.436713019756795 -169.980571998564670 15 18 11
52.001539930236049 -126.522662158352460 -169.921141688939457 15 18 9
51.581310973822269 -125.590180332761364 -169.686518972054245 14 17 8
50.204791322155700 -124.599222304143154 -168.867715151103198 14 17 8
49.306713479612768 -123.644915470408122 -168.341136922138730 14 17 8
49.651828075649462 -122.767389871772281 -168.574191488504738 15 18 7
49.805639721946420 -121.877224198430085 -168.690473457316244 14 17 6
49.959400989808671 -120.986013251231938 -168.806835065996239 14 17 6
49.157300875034935 -120.046647875620195 -168.339013416776737 13 16 5
48.355376327451552 -119.111670692583374 -167.871270826412456 9 12 1
47.840302998598247 -118.193581287625790 -167.578883304105204 8 11 0
47.516432096810604 -117.286036378066697 -167.403422557389291 7 10 0
47.574767770308426 -116.394650683272403 -167.461738551869985 5 8 0
48.206223760959745 -115.522864834108162 -167.870681473122346 1 6 0
49.315083386630647 -114.662705615876007 -168.571824483272678 0 4 0
50.041658888039819 -113.784821490338174 -169.039334070888799 0 3 0
49.908632257138720 -112.879790195901037 -168.981079405612263 0 3 0
49.871102925210721 -111.977594952943122 -168.981318392659745 0 3 0
49.929037016797224 -111.077419265861877 -169.040050224748427 0 3 0
50.655141502445019 -110.188774213511806 -169.507831737137906 0 3 0
50.903832920710386 -109.288558110360214 -169.683548280231349 0 2 0
51.629622827745948 -108.392623794156492 -170.151462450252836 0 2 0
52.164381406929692 -107.490551811487009 -170.502589228540387 0 2 0
52.603588090495009 -106.584605792269116 -170.795354017132240 0 1 0
51.897874013996841 -105.671610089563998 -170.387057740411166 0 3 0
50.715369093537049 -104.761981657464432 -169.686683076789080 0 5 0
49.914641725659749 -103.858168520323233 -169.220073378720372 0 5 0
50.544585514258529 -102.951933341289987 -169.629936562674970 1 7 0
50.792946400692301 -102.044806150688288 -169.806150234962558 1 6 0
50.659860206613587 -101.140046085228661 -169.748710670004954 0 3 0
49.573468719935988 -100.248516436093070 -169.107041487193811 0 6 0
49.726495112173268 -99.342968242526879 -169.225000261341563 3 9 0
49.688852323690469 -98.439966117503246 -169.226158724181346 3 9 0
49.841801773148859 -97.532809623844571 -169.344233459644954 2 8 0
48.755969840525495 -96.655178070817200 -168.702774337372148 4 10 0
48.242036889140252 -95.767777316458321 -168.411945875368843 4 10 0
47.918741467273151 -94.877305896105597 -168.238030960302126 3 9 0
48.643293060369217 -93.953612258980769 -168.706914265886866 3 9 0
48.796208429948990 -93.046221521301078 -168.825269079003931 2 8 0
48.663382684584860 -92.148885632835700 -168.768384230095080 2 8 0
48.244917801257202 -91.264048470700942 -168.536255423334865 2 8 0
48.207369773193989 -90.364365073966226 -168.537911130537395 3 7 0
47.789031513549787 -89.482792302879332 -168.305886946349062 1 5 0
47.085224089571170 -88.617790109179282 -167.898610895467783 3 7 0
47.047786480365971 -87.721097602550330 -167.900426847703471 1 5 0
46.915181654922947 -86.829746290315924 -167.843862880521215 1 5 0
47.068047616012905 -85.922095122561359 -167.962661620266431 1 4 0
47.696561516661802 -84.983927548483578 -168.373701966887438 0 3 0
48.039526560813613 -84.060424333148958 -168.609495527500030 0 3 0
48.001927820119363 -83.160458006659468 -168.611599403961065 1 4 0
47.393690176748407 -82.300688052976867 -168.263129279094130 0 3 0
47.356149039278250 -81.402339236528960 -168.265344126805076 0 2 0
48.364514532616965 -80.424302598546603 -168.910456002264198 0 2 0
48.707123878167636 -79.492887995967024 -169.146557753199033 0 2 0
49.810118375250170 -78.496994676289574 -169.850255326330029 0 2 0
49.962346213680462 -77.575156942478259 -169.969610043812963 0 2 0
49.544297952090631 -76.702202401299118 -169.738371773416986 0 2 0
48.461151877061468 -75.891621953898493 -169.098083726533474 0 2 0
49.088515328159986 -74.927278837686345 -169.509839849737716 0 3 0
50.475740639271919 -73.885954587102717 -170.389232140456414 0 3 0
51.767626664642989 -72.845880523222434 -171.210267372362466 0 2 0
51.539497577235466 -71.953200557698167 -171.096241094209233 0 2 0
51.501345980107658 -71.041667772327173 -171.099173235100949 0 2 0
51.178313991480877 -70.160811161372024 -170.926826632298571 0 2 0
50.855343432876680 -69.281563476672943 -170.754542862199457 0 2 0
52.146331724856282 -68.220740063769014 -171.575981780441055 0 2 0
53.626841813890337 -67.130190195874732 -172.514420820249967 0 2 0
55.296805160500185 -66.008281851222534 -173.569867904236105 0 2 0
56.112242146860751 -64.980880327641898 -174.099343217720786 0 2 0
56.642797621165414 -63.984146301829483 -174.453548530315146 0 3 0
56.603939158469643 -63.056926376040742 -174.457109793027655 0 3 0
56.090738413357144 -62.191704659277242 -174.168466172819791 0 3 0
56.146775987446460 -61.253101385799198 -174.230637231387362 0 3 0
55.823406116646140 -60.365717963487612 -174.059056159942543 0 3 0
55.784593924902140 -59.440265270799699 -174.062930409777692 0 4 0
56.504342862881401 -58.406830087326291 -174.534577245343655 0 4 0
57.413519962914677 -57.341476560585214 -175.123253057342026 0 4 0
58.132862754223368 -56.298718606651846 -175.595113387890990 0 4 0
58.378078302968163 -55.323110795889512 -175.774759062482332 0 4 0
58.528439961346862 -54.360407077654905 -175.896037473398508 0 4 0
59.247331122041146 -53.307455019143980 -176.368217829191025 1 7 0
58.734243124304669 -52.446717931083512 -176.080422224011670 0 4 0
58.505482862918086 -51.542460366108060 -175.968120026386828 49 55 48
79.518304608443088 -43.115793628363917 -189.091697584265205 0 3 0
77.772308531361944 -42.426508492648857 -188.044682018636962 0 3 0
76.405356500381515 -41.677745780650312 -187.231649695721103 0 3 0
75.795910506176995 -40.795952153385031 -186.886547714581155 0 3 0
75.186588168805088 -39.917347620357241 -186.541548473616956 0 3 0
74.861270121852840 -38.987581913919328 -186.372109212374795 0 3 0
74.630621953117100 -38.040979899312077 -186.261273452787378 0 3 0
74.305400886384064 -37.114042979513179 -186.092071519881358 0 3 0
73.507270719917869 -36.283314263913368 -185.630539171176622 0 3 0
73.182214210390214 -35.360828290447174 -185.461573000988125 0 2 0
72.289793110995276 -34.556743669633697 -184.941768661126559 1 4 0
72.626818414689751 -33.500727393397888 -185.182516146930340 2 6 0
73.152828721488333 -32.402392439822918 -185.540416502467650 4 7 0
73.395078834268190 -31.361568983806002 -185.722986047942726 5 8 0
73.731766405417034 -30.298440737092690 -185.964217419735917 5 8 0
72.839686157112112 -29.503921022969209 -185.445066726823342 8 11 0
72.042295593584072 -28.693081219560842 -184.984538579903329 11 12 6
70.961603304234814 -27.950633074660999 -184.348609112491118 22 18 17
72.337564042232316 -26.651020172795711 -185.234056954783682 36 30 34
74.091024403539677 -25.255399406567637 -186.353783572061388 12 5 11
79.527755921317521 -22.983483355524136 -189.755836247796310 133 127 135
-66.390025303593660 -0.691751676689254 -102.166368992857684 144 135 118
-72.285204552340048 -1.288255194768395 -98.614053208209384 149 142 124
-73.058754522015107 -1.085242525603043 -98.169975403058572 149 142 124
60.609601078182436 -161.423599545355046 -175.422605117835928 221 185 179
61.243684838380659 -160.606905516510068 -175.827666506648569 211 166 160
62.165691800836271 -159.835002864473097 -176.409096694582104 210 163 155
62.319316353348313 -158.930790688672147 -176.520811968591090 204 160 153
59.208634593856459 -157.495124089542031 -174.635825908505581 115 74 68
60.034505538250414 -156.705630970903968 -175.159053641482586 170 135 130
62.203955696824494 -156.122184160642206 -176.504628117514329 120 85 80
62.261457852520380 -155.201061769202909 -176.558309619358738 65 27 22
58.288500744030159 -153.670016935944716 -174.145678321326500 146 105 101
59.497827830565939 -152.930409707410149 -174.904438795374972 180 134 131
58.020530947567977 -151.792769554718433 -174.019081900380684 223 174 170
59.517358489556500 -151.087960573353200 -174.954294993690581 195 146 142
59.862806302281513 -150.213491529713565 -175.184977637918337 180 131 127
60.112249596165782 -149.323813618681498 -175.357084047504742 177 128 124
59.882141238841257 -148.368234553244889 -175.235742684864022 179 134 129
60.802677681938860 -147.565109913290968 -175.819157391605813 172 128 123
61.051872187840218 -146.670324623639658 -175.991683204561809 159 120 112
61.684437499953560 -145.822249830669307 -176.399204640567746 142 105 96
62.604388545873462 -145.005826994728750 -176.982993620972707 127 94 80
63.811624205132034 -144.218602372823682 -177.743039866754060 119 87 70
63.964454187801437 -143.300731189059007 -177.857363616227531 113 82 63
64.021415122346014 -142.370897044508524 -177.913105114555094 106 74 55
63.599319639562736 -141.387123261833523 -177.675422583168199 88 59 38
63.368894938929088 -140.426468790548796 -177.555293230848235 90 57 40
62.084897261866786 -139.355305483296604 -176.789493404622334 166 133 121
59.939241205148562 -138.202375037798618 -175.495460470412553 19 2 1
57.411032303455045 -137.023066748710164 -173.966746773783598 9 4 0
55.936641298680115 -135.960692528130409 -173.083959072575794 8 12 0
55.707172369180057 -135.024396928713173 -172.964484928502401 11 17 3
55.956374416864946 -134.133224776822232 -173.138652387131799 3 9 0
55.631210935658601 -133.189368365744514 -172.960694047813035 15 21 7
53.870549029926451 -132.123488194175337 -171.902275456830637 20 25 11
52.875828089147262 -131.131277485327388 -171.313612026552448 18 22 8
52.168370637707085 -130.167683275218877 -170.901170644521443 18 21 11
51.652405199869065 -129.222822587635022 -170.606241368356706 19 22 11
50.371275358359071 -128.223458953657087 -169.841790305458176 15 18 9
51.003385007337215 -127.368987979761471 -170.251494986223577 14 17 10
51.061512909724968 -126.471066437214148 -170.309075091943413 15 18 9
50.545862124449002 -125.534587737048398 -170.014535035548874 14 17 10
48.978566889686135 -124.534082778899105 -169.074370250348238 14 17 8
48.654459471845030 -123.617734309066350 -168.897419552869479 14 17 8
48.999552677264205 -122.741764276582188 -169.131464385367849 14 17 8
49.153390268346755 -121.853150938651908 -169.248190419311413 15 18 7
49.020471375560362 -120.948539184511048 -169.188896782913844 13 16 5
48.600897650532090 -120.030374190865004 -168.953583545648712 10 13 2
48.181408941120026 -119.114424306284889 -168.718351738939958 6 9 0
48.144144378119677 -118.217364957099335 -168.718001081869630 7 10 0
47.533733803495466 -117.296958011629812 -168.365526327644375 8 11 0
47.592038858670321 -116.405228001432477 -168.424029915008560 5 8 0
47.841317993299810 -115.519696212615983 -168.600008579301289 1 5 0
49.045420092563404 -114.663386863810459 -169.363062321952953 0 3 0
50.058266832160086 -113.794421991120274 -170.008788490785662 0 3 0
49.829789245734901 -112.886507897828849 -169.891484568770011 0 3 0
49.219529213212240 -111.970642913841857 -169.539450378391308 0 3 0
49.372954877553354 -111.074026323824540 -169.657087635131063 0 3 0
50.194361890211155 -110.188411492619039 -170.185696790449100 0 3 0
50.920138759903296 -109.296478871886166 -170.655675270926338 0 2 0
51.168677608220719 -108.394323706163647 -170.832219736992016 0 2 0
51.703341181932160 -107.493284924934159 -171.184933931638568 0 2 0
52.333252031183861 -106.589643339923299 -171.596416828316194 0 2 0
51.723105028829195 -105.677478821853853 -171.244852277603712 1 4 0
50.922358611119819 -104.768408468305140 -170.775946867866196 0 4 0
49.645019065804831 -103.864597830717173 -170.013593379623018 1 7 0
50.179477750058936 -102.959308014144284 -170.366631518483274 0 6 0
50.523133386459222 -102.052218244713714 -170.602330647188296 0 4 0
50.771373799262449 -101.143963745336890 -170.779391252723372 0 3 0
49.589912484840397 -100.253077253734688 -170.075974159940273 2 8 0
49.361690980937908 -99.353350906880891 -169.959640462898761 4 10 0
49.228795990372873 -98.452914012592913 -169.902068936102410 4 10 0
49.572292051824490 -97.542627877691501 -170.138075131015654 3 9 0
49.058323010386516 -96.651349018097505 -169.845806755378163 3 9 0
48.544462472220118 -95.762795558454101 -169.553593663051572 4 10 0
48.030710437409482 -94.876966471655294 -169.261435361728502 3 9 0
48.278901392432431 -93.968522068066250 -169.438974198637737 3 9 0
48.336583552127820 -93.065331387574730 -169.499162547230071 2 8 0
48.394238165630270 -92.161602123020856 -169.559410207170657 2 8 0
47.975888657296196 -91.277244918830050 -169.326183459152929 2 8 0
48.033544740827040 -90.373793881661143 -169.386547300674579 1 5 0
47.520137371650151 -89.496955209984208 -169.094723934357319 1 5 0
47.482644812623334 -88.598847470739827 -169.096495148333673 3 7 0
47.159697324868148 -87.715946497849743 -168.922198287487419 2 6 0
47.217367168807641 -86.813311888656727 -168.982794353808998 2 6 0
47.179881865234847 -85.915744158549259 -168.984740409549914 1 4 0
47.808202671463448 -84.976985728230346 -169.397719910091666 0 3 0
48.436359263969791 -84.034419944871345 -169.810767572666862 0 3 0
48.303605842265938 -83.139463966624120 -169.754189028056658 1 4 0
47.220051021508141 -82.312034615017012 -169.110544090501975 0 3 0
46.802233938727284 -81.441780563149621 -168.877937644923264 0 2 0
48.000507611163926 -80.450572950872044 -169.643523490391175 0 3 0
48.438097915218009 -79.512404254003158 -169.939472407064414 0 3 0
49.065641649205077 -78.555937218388010 -170.352921836630514 0 3 0
48.457694408517284 -77.700400303043722 -170.003135217174503 0 3 0
48.039904864610662 -76.831453065949432 -169.770837044475570 0 3 0
47.622200061262788 -75.964665694678246 -169.538597040409513 0 3 0
49.009408553866024 -74.931461933036445 -170.422067464044147 0 2 0
50.491249226150956 -73.880947260934846 -171.364348123690434 0 2 0
51.592846541265772 -72.859384042475384 -172.071842337027192 0 2 0
51.649638643139781 -71.937843699848671 -172.133493997392293 0 2 0
52.181128621804362 -70.965944147806567 -172.488826734787125 0 2 0
52.427672723417970 -70.021455651062240 -172.668072283742958 0 2 0
52.579218655548004 -69.085817038811157 -172.788671268944285 0 2 0
52.825623114460200 -68.138293356388999 -172.968071641515309 0 2 0
54.115851574211661 -67.067606742390382 -173.793535141190091 0 2 0
55.690419396929769 -65.955330980481449 -174.795282162644099 0 2 0
56.695328973970391 -64.903325148028756 -175.444774072143446 0 2 0
56.941053393863967 -63.940201923999958 -175.624536796934308 0 3 0
56.522720234747794 -63.060348940787541 -175.393276622785805 0 3 0
55.819940698063533 -62.219852222473094 -174.985896120743178 0 3 0
55.686301897236831 -61.307065682245494 -174.930975376328263 0 3 0
55.742317563265317 -60.368889645604952 -174.993602893804791 0 3 0
55.893110258827676 -59.416911957631086 -175.115052692057276 0 4 0
56.517835259338710 -58.396346576590290 -175.530272474061434 0 4 0
57.900679274399749 -57.261821938831091 -176.415492835958275 0 4 0
59.283171310665068 -56.119098699839363 -177.300841191856136 0 4 0
59.054336714192175 -55.211406432713694 -177.187751251147176 0 4 0
58.730785804100265 -54.319334191523787 -177.016010273317534 0 4 0
57.554629754693281 -53.562508108988027 -176.315679930167931 35 42 34
81.702739931834515 -42.715639733789061 -191.508488248632091 0 5 0
78.915742029445539 -42.206998377250947 -189.810433972852650 0 3 0
77.359681116959791 -41.489170822727040 -188.876228606172702 0 4 0
75.898598741769149 -40.762402240453120 -188.000852096786190 0 4 0
74.816303956071067 -39.972344181639670 -187.360586191507593 0 4 0
74.112659064191632 -39.115729493075627 -186.955452344105083 0 4 0
73.976709457998936 -38.152514951543800 -186.902997086278958 0 3 0
73.746187552729168 -37.208418618794823 -186.791907148848907 0 3 0
72.853715540256587 -36.397846751175109 -186.269585313456901 0 3 0
72.055991506203611 -35.572878462177187 -185.806135508473432 0 2 0
71.352980756362399 -34.732694650021173 -185.401565100669359 0 4 0
71.784524750459866 -33.659239065109404 -185.702367242444069 1 5 0
71.932368882644710 -32.643023086146229 -185.827014309329002 2 5 0
72.363683424050066 -31.564733301981988 -186.128144058097547 3 6 0
72.889365018225647 -30.463046535047678 -186.488223267314993 5 8 0
72.658984878714648 -29.524685202936119 -186.378245593449577 4 10 0
71.483865433299059 -28.798404326151442 -185.680599739713728 8 11 2
70.970259690578473 -27.928862389114663 -185.394549472667450 17 16 13
71.495740011425767 -26.823712690974688 -185.755288024727946 28 22 25
72.493272901252851 -25.605527062569941 -186.410162583257744 29 19 27
73.207240148751396 -24.447817358835444 -186.888885859718442 20 16 26
76.375897193355456 -22.701309522398500 -188.896443449170192 5 1 15
-71.033419699354880 -0.571748102679539 -100.051290052847193 149 142 124
-73.112210360778619 -1.059944996677508 -98.772952869534791 150 143 125
-82.926275380566182 -1.599121508069914 -92.890829834319106 146 142 123
-86.690120143856575 -0.795989824377518 -90.732217396753725 143 140 122
62.160519087533316 -161.720967278336758 -177.370807959229666 168 138 130
60.969934315474404 -160.587363993391193 -176.656259233815035 196 155 147
61.027685575495752 -159.670475718831455 -176.709099948443111 201 157 148
59.453494449327422 -158.483242158188716 -175.758955657414077 199 154 148
59.319405224269133 -157.539012370020657 -175.694176063292275 128 86 80
60.624913977887559 -156.825498506249374 -176.514681288710250 161 124 118
62.601827589518962 -156.209925163839415 -177.748355536305496 119 84 78
63.714712108372623 -155.449942427273129 -178.451108522637071 81 45 39
63.484176704711501 -154.480334941595913 -178.327970082059750 135 95 89
59.992142719467893 -153.027693649236255 -176.198986773894376 165 120 115
61.200804564852490 -152.279372884129003 -176.961233403003178 207 158 154
60.874685275711045 -151.304930460216355 -176.779641389379179 186 138 133
59.685580295521731 -150.211426080960592 -176.067247921206103 164 115 111
59.743210040387112 -149.295570639913649 -176.121980904647671 161 112 108
60.280165862774481 -148.443689993336960 -176.471835663034284 167 122 117
61.296279421862948 -147.651692869475710 -177.116792027302239 171 128 122
61.832893171054877 -146.792139981727161 -177.466912598731824 152 113 105
62.944390119688421 -146.001802909882002 -178.171110726608447 134 97 88
63.576477202498040 -145.146085024681838 -178.580478573173025 120 88 76
63.633507814968198 -144.217552600018308 -178.636041042423727 112 83 67
64.169527945070342 -143.344803518822090 -178.986679286483593 105 76 58
64.226441837433470 -142.414020609339047 -179.042508203897455 94 66 45
62.942384958705588 -141.332980731436066 -178.272664895724233 87 56 39
62.041693889478097 -140.300826608422454 -177.738915286770919 122 91 78
61.141197904165210 -139.273663047810260 -177.205308328145037 98 75 63
59.474915349180890 -138.172416087474261 -176.199971674029143 16 6 0
57.234589412738046 -137.022838614798474 -174.840885206222140 10 11 0
55.760575923304202 -135.960577947687938 -173.953808019789250 7 13 0
55.531174709282425 -135.024434253505575 -173.833627388086057 6 14 0
55.397514433756157 -134.098249213512844 -173.772544271745659 6 11 0
55.072487101363947 -133.155634957148152 -173.593613574837235 19 23 9
53.120957808675485 -132.074458329051652 -172.412139930276737 19 23 9
52.222230584751003 -131.091999562183645 -171.879566585569506 18 22 8
51.228042129835217 -130.106796275248172 -171.288128365457396 16 19 9
51.190536435081583 -129.201443704205047 -171.286584998844688 16 19 8
49.909768260413898 -128.203036727690744 -170.518430125648536 15 18 7
49.872396750891824 -127.301339186824038 -170.517091246940282 14 17 10
49.643794094876455 -126.386460482951392 -170.397894739286016 14 17 8
49.319629296730511 -125.466377214931342 -170.219817654341540 14 17 10
48.421986312530635 -124.511529430065195 -169.687977037542453 12 15 8
48.671485081836067 -123.631260885462567 -169.863946306985326 13 16 8
48.538640686479425 -122.727285676609540 -169.804099985969202 13 16 7
48.788037742184429 -121.844936989748049 -169.980244521260090 14 17 8
48.081912857041800 -120.911131069437573 -169.566720109225741 13 16 5
48.235742560049061 -120.023611730142463 -169.684060244005650 9 12 1
47.911910180305028 -119.112829902679096 -169.506607800272633 8 11 0
48.352228015349681 -118.237091045781625 -169.801037601777097 7 10 0
47.646431128388770 -117.311876738053854 -169.387849129562824 6 9 0
47.322740612785651 -116.405016273008371 -169.210640223745145 5 8 0
47.381021000605301 -115.513246004360553 -169.269408382666711 0 3 0
48.680329091846090 -114.661059815836353 -170.094923361030681 0 3 0
49.597497541778125 -113.790046224552782 -170.684615049291239 0 3 0
49.846332290194255 -112.895844199594777 -170.861559358453121 0 3 0
49.045343025701584 -111.975085214873289 -170.389856704285933 0 3 0
49.294156144682233 -111.080669966024033 -170.566947887966563 0 3 0
49.829124229802517 -110.189826925932223 -170.921035638453731 0 2 0
51.127135513141866 -109.307376151716610 -171.746994353278211 0 2 0
51.470958224944354 -108.405524230751084 -171.983276701465684 0 2 0
51.910060768436949 -107.502431861171544 -172.278604863235159 0 2 0
51.586132613607901 -106.591539026218612 -172.102201333811394 0 2 0
50.880856274374423 -105.680832064045973 -171.689963188603485 0 3 0
50.461757625073801 -104.774233506908701 -171.454716644598932 0 6 0
49.852084247280459 -103.870181588097537 -171.101583265879498 0 5 0
50.100410942141480 -102.965369412220596 -171.279297794859332 0 4 0
49.967434793009488 -102.061825214490227 -171.221173656372514 0 3 0
49.929772468126089 -101.157847684471079 -171.222090304583787 0 4 0
49.510965774489932 -100.258939874363392 -170.987163467731079 0 6 0
48.996971153039397 -99.363754441824312 -170.693320628597519 5 11 0
48.959395775093469 -98.462261833404213 -170.694425555741475 2 8 0
49.207568013640355 -97.554543421608642 -170.872527044203594 2 8 0
48.788990461673791 -96.661659337549409 -170.637845215319203 2 8 0
48.656183148778325 -95.763090734123850 -170.580158580588972 1 7 0
48.047309020028138 -94.879543491079033 -170.227637661495265 2 8 0
48.390621314849227 -93.967606347545725 -170.464968534793314 0 6 0
47.401118783586185 -93.101624932300425 -169.876645053962818 3 9 0
47.934763937343689 -92.181736970823337 -170.232060578562283 1 7 0
47.611723970190440 -91.294419334812702 -170.056715006011331 0 5 0
48.430669301200851 -90.357705516011549 -170.589204695160731 0 4 0
48.202767714044910 -89.465868355855505 -170.472963904548152 2 6 0
47.404081018866407 -88.603893334671753 -170.002887788170824 3 7 0
47.081201352546088 -87.720927627403853 -169.827779586214291 4 8 0
46.758384337136135 -86.839590709994567 -169.652729671244998 1 5 0
47.006250867140409 -85.926216680685982 -169.831643246198723 0 4 0
46.968767344520302 -85.028856713181426 -169.833668197557444 0 2 0
47.596843753058636 -84.088413137801496 -170.248653685937768 0 2 0
47.274061149155102 -83.208419151587378 -170.073850242340342 1 4 0
47.046398975447516 -82.323351229701501 -169.958092901623701 0 3 0
46.628682904703737 -81.453300951448767 -169.724421660487820 0 2 0
47.731617740505783 -80.469560805243020 -170.434619451586002 0 3 0
48.454177877439179 -79.509340750870749 -170.908943842706464 0 3 0
48.986524790762189 -78.560331294870863 -171.265366409667479 0 3 0
47.998708420646665 -77.736945570718845 -170.678018030652026 0 3 0
47.676042457968663 -76.860686708669490 -170.503659256329570 0 3 0
47.733352470872489 -75.951646063303826 -170.565331179732880 0 3 0
49.120173866025937 -74.917850575630794 -171.452972598905376 0 2 0
49.936912514986204 -73.930743947104446 -171.986746534852614 0 2 0
51.133217401613308 -72.901069953668824 -172.756584589595832 0 2 0
51.569754944723513 -71.941802109892677 -173.054553653153164 0 2 0
52.385858345428574 -70.939964035609691 -173.588589837907705 0 2 0
52.822108329403477 -69.974131683941891 -173.886727367715821 0 2 0
52.688843388753924 -69.068567574324021 -173.830959882853904 0 2 0
53.030031339004722 -68.109655651819423 -174.070262692940048 0 2 0
53.371120399739766 -67.148543335481236 -174.309650749120095 0 2 0
55.229946868820150 -66.004159877684870 -175.493145702687571 0 2 0
56.139775662976376 -64.964761984444252 -176.086739371207955 0 2 0
56.575158236226912 -63.979199320307870 -176.385419164042247 0 3 0
55.967281657514206 -63.124340219076494 -176.035143733719821 0 3 0
55.549171483013197 -62.247900578325257 -175.802950678213620 0 3 0
55.320759163713376 -61.348248032763529 -175.688847865476390 0 3 0
55.661161710753447 -60.371959428015586 -175.928875245921006 0 4 0
56.380603640944287 -59.340578957507489 -176.405037523245767 0 6 0
56.720759132595504 -58.358773312679226 -176.645268400758937 0 5 0
57.818910910675640 -57.264644141200037 -177.357694492517709 0 5 0
58.158772646600937 -56.276225959397387 -177.598142160367985 0 5 0
57.133088410738992 -54.555142056666668 -177.017079310608437 142 149 140
79.774602223149600 -42.038417789314217 -191.407062381632926 0 4 0
76.988813443017591 -41.542623929680303 -189.701241460452138 0 4 0
75.433501735479467 -40.834110559448398 -188.762871158818712 1 6 0
74.162314019050939 -40.080695202028650 -188.001677743521498 0 4 0
