ply
format ascii 1.0
element vertex 682
property double x
property double y
property double z
property uchar red
property uchar green
property uchar blue
end_header
-102.546580126336579 -118.340466040051879 -12.705559209131110 18 20 15
-102.536597782831109 -117.785901908393456 -12.383466480482355 21 23 18
-102.533317381474916 -117.212308599204150 -12.390940097326904 19 21 16
-102.527816803419057 -116.644251547412338 -12.288559966695402 18 20 15
-102.526797011698662 -116.065140092141377 -12.405867801609077 18 18 16
-102.519081931960528 -115.501537518877512 -12.193642343886012 19 20 16
-102.513611079383779 -114.932138250058046 -12.091261808801335 20 21 16
-102.510388503767899 -114.357757093241617 -12.098715871721367 21 22 17
-102.511659759848300 -113.775037293791954 -12.325823704639959 21 22 16
-102.519676453881246 -113.181708898998480 -12.882390397526052 27 28 23
-102.532207123985870 -112.583845078265639 -13.658562074990698 30 32 27
-102.538030060460713 -111.999858096486889 -14.105223213195700 25 27 22
-102.539378774264179 -111.424217657566402 -14.332221119190848 21 23 18
-102.538492866697396 -110.852480279962407 -14.449388999298492 20 22 16
-102.535367450453876 -110.283830673936961 -14.456737583776231 27 28 22
-102.534501734090412 -109.712914159177600 -14.573887354927763 26 28 23
-102.522378777592152 -109.152533720080527 -14.142019673451216 28 30 25
-102.521525948724729 -108.581350571254262 -14.259166023867238 26 28 23
-102.516169882431782 -108.013622360451819 -14.156713374378199 25 26 21
-102.517591191492116 -107.441804027128114 -14.383637208198337 24 22 20
-102.514505792799895 -106.872896954813669 -14.390969298646553 22 21 17
-102.513687308216006 -106.303352126785242 -14.508082354816054 26 22 19
-102.508352866023387 -105.735088180389837 -14.405624875027144 26 22 19
-102.503021150982903 -105.166282443050875 -14.303171667504330 25 21 18
-102.495426738136445 -104.596759338604969 -14.090949426155561 21 17 14
-102.503699121244736 -104.029280798611751 -14.647127712723176 43 39 36
-102.514259589412191 -103.465239094079308 -15.313034895087952 26 23 14
-102.522573076142578 -102.903468151175375 -15.869134766659556 24 21 11
-102.519550679882812 -102.338104114296726 -15.876400246716400 22 17 6
-102.518805967050056 -101.774274808785236 -15.993419177988557 19 12 1
-102.511247238526522 -101.205573033647681 -15.781171411026889 25 16 6
-102.519616057275982 -100.650325671959379 -16.337177661451591 33 24 12
-102.525727596028460 -100.095446747270913 -16.783401109461948 37 20 7
-102.536412580820937 -99.547982804253991 -17.449078080272869 50 31 18
-102.535721274272177 -98.989318095143958 -17.566018300376612 90 63 52
-102.548725533465273 -98.450180450184419 -18.341358916415857 102 68 59
-102.554907491907628 -97.904539567697611 -18.787453584078804 106 69 60
-102.567958819374383 -97.372193864537920 -19.562701769948404 111 71 63
-102.571894024037377 -96.827735647140031 -19.899000218231777 117 74 65
-102.582704619982295 -96.297659044685304 -20.564438120466889 119 77 68
-102.584385206712412 -95.752752868518598 -20.790960896385371 125 80 70
-102.597526803491647 -95.232902685390414 -21.566037275060353 127 82 72
-102.608403842399554 -94.711789534209530 -22.231351125902904 126 83 71
-102.619304903510539 -94.193935553731876 -22.896619936324527 123 82 69
-102.623348277286283 -93.662513506860122 -23.232732449023132 123 83 73
-102.618226223448161 -93.109197387327569 -23.130019497882387 103 75 65
-102.613109451332477 -92.555336349243987 -23.027309629104138 123 117 106
-102.628682032295131 -92.058746738500247 -23.911842485442293 28 28 20
-102.646585323032099 -91.573197783907247 -24.906005576113841 74 75 69
-102.648416116138577 -91.043764875689405 -25.132297219696625 76 79 72
-102.634145742790551 -90.464742396601125 -24.590789862042357 37 39 29
-102.622175502018109 -89.890511072679146 -24.158991696001607 69 64 53
-102.612510084523507 -89.321885651000784 -23.836892090957548 81 61 53
-102.607460627591237 -88.767735047839196 -23.734152999465095 95 58 55
-102.597804639089176 -88.196385581281220 -23.412076923585687 106 65 63
-102.602007903462294 -87.674987250606151 -23.748009766024296 120 76 75
-102.599300712867887 -87.128606846592064 -23.754929044701640 135 87 87
-102.608166364735368 -86.627926386217339 -24.310135927338393 142 94 94
-102.600867300372428 -86.064069054563419 -24.097714071641917 147 99 99
-102.605150327748319 -85.547541044156389 -24.433558623080245 146 100 96
-102.600193516924932 -84.992812851215589 -24.330781155428554 148 103 97
-102.611470255094773 -84.509129089801490 -24.995518512002491 149 104 99
-102.608868968284227 -83.965701811632144 -25.002356728664836 150 102 100
-102.622523426339740 -83.497665393225674 -25.776654411153913 145 97 95
-102.606041169037439 -82.889866776086734 -25.125642533526047 143 95 95
-102.598851918954651 -82.324057365969736 -24.913188236778609 129 83 83
-102.582383469376012 -81.710806127990310 -24.262225880148520 122 72 75
-102.577544857306236 -81.153574699593761 -24.159417633678402 135 86 89
-102.575051607850838 -80.607918974301271 -24.166227104166040 126 83 85
-102.567926522595286 -80.037448645707315 -23.953790088360506 118 78 79
-102.558491682344808 -79.453205841561328 -23.631740933516454 91 50 52
-102.539755387628887 -78.815539121611835 -22.871255942127277 85 44 49
-102.521027927920514 -78.174054010187561 -22.110806028722436 96 65 69
-102.481321943212777 -77.407351572071761 -20.363951130332055 17 11 10
-102.441606327109227 -76.631936708222739 -18.617190520943240 7 15 13
-102.418223496328096 -75.946033765744559 -17.637707166310008 13 19 19
-102.411199108965732 -75.355349143579701 -17.425430052856086 13 17 20
-102.408874999626377 -74.792710374806887 -17.432333422290071 13 17 20
-102.415934528457058 -74.289442581290814 -17.877572095796097 11 15 18
-102.413681154721644 -73.727850800428371 -17.884430848387098 11 15 18
-102.411462628093659 -73.166237281792959 -17.891273153999180 12 16 19
-102.406939152434575 -72.588937733737254 -17.788520718587336 13 18 20
-102.400108814929325 -71.995135408347025 -17.576182864432383 9 15 15
-102.402685007414263 -71.465047894534223 -17.802124649691763 8 14 14
-102.391240752896465 -70.837148727858946 -17.370627283695597 16 22 22
-102.382174658495629 -70.223797239219962 -17.048701352413502 18 24 24
-102.373145167343012 -69.608785072125528 -16.726775004460478 16 22 22
-102.380582190096732 -69.113172272957272 -17.171754289465269 9 15 15
-102.378680375893211 -68.549437087092826 -17.178466920325718 6 12 12
-102.381522445139069 -68.021345187856994 -17.404260969190631 14 20 20
-102.372667821279549 -67.403754216765506 -17.082277510249043 16 22 22
-102.368558178687451 -66.821259456620879 -16.979380575444338 15 21 21
-102.355092482267366 -66.163564870261638 -16.438298074627596 4 10 10
-102.351079235998611 -65.578815710066834 -16.335378229824499 6 12 12
-102.356529578036856 -65.070274562736870 -16.670582129135653 9 15 15
-102.362039690388869 -64.563322296108979 -17.005741079386240 21 27 27
-102.362902237943871 -64.018472022690460 -17.121795742086590 12 18 18
-102.342629379049271 -63.293986152984388 -16.252080625935747 16 22 22
-102.320050003530540 -62.544810170242329 -15.272864202248059 19 25 25
-102.314014857336844 -61.934597425365041 -15.060314851987016 17 23 23
-102.319825231276198 -61.427398694713560 -15.395332695101530 17 23 23
-102.323346725806701 -60.900674228506475 -15.620787633564078 16 22 22
-102.315147085236063 -60.268102593993930 -15.298645036356334 14 20 20
-102.311729791678971 -59.677133474255818 -15.195504114986932 18 24 24
-102.310740711511286 -59.107477878615086 -15.201841038765224 23 29 29
-102.309823577511608 -58.537757784267235 -15.208144207660922 23 29 29
-102.308980150730747 -57.967970809001052 -15.214412803714680 18 24 24
-102.303491828549127 -57.352639773704098 -15.001654539855139 18 24 24
-102.295718960350868 -56.713137384165478 -14.679379117950504 19 25 25
-102.295105988683005 -56.141772535198889 -14.685553706914789 18 24 24
-102.292213121617138 -55.546775716252220 -14.582203360840879 16 22 22
-102.301209297181941 -55.070290500175609 -15.026239862663601 16 22 22
-102.305568945117642 -54.547703456660777 -15.251251242839771 17 23 23
-102.305292703515846 -53.977376514228908 -15.257254057601273 14 20 20
-102.295658370245292 -53.308380681121363 -14.825313860117120 12 18 18
-102.279029082236079 -52.562358402738461 -14.064936242137776 14 20 20
-102.279024613531519 -51.988757820821434 -14.070842738892594 15 21 21
-102.274391872877899 -51.364132643066348 -13.857770837040022 9 15 15
-102.281664608181543 -50.866996684200792 -14.191985510325338 10 16 16
-102.286674380141960 -50.345384714772770 -14.416675836469125 12 18 18
-102.291784682093123 -49.824757180528479 -14.641307936124093 14 20 20
-102.289914220354305 -49.225445593248324 -14.537512888924198 15 21 21
-102.278706636927666 -48.518161135746226 -13.995860568047021 16 22 22
-102.281772477206275 -47.970635882056484 -14.110888717976309 20 26 24
-102.263707247243033 -47.177165239897093 -13.240827574629691 19 25 23
-102.259918789679432 -46.545084149866561 -13.027428518091398 14 20 18
-102.258606255075890 -45.939701624726681 -12.923429051675640 28 34 32
-102.273921875780744 -45.530999605508910 -13.585462395948866 29 35 33
-102.277560109181834 -44.983102533175092 -13.700220542286473 2 8 6
-102.281318590100128 -44.435611600238254 -13.814916982027199 8 14 12
-102.275773292502166 -43.772463716103097 -13.491819292937237 12 18 16
-102.270358878394930 -43.107525173179162 -13.168677421784395 12 18 18
-102.272143058514047 -42.529477466958213 -13.173774011557441 11 17 17
-102.288182699395577 -42.130287244627134 -13.835363077356277 4 12 14
-102.301991484708907 -41.704111137935385 -14.387438271155958 18 27 29
-102.325333884856249 -41.402042663295830 -15.377110653776413 10 20 22
-102.334689125921798 -40.920789740658726 -15.710165571372585 6 16 18
-102.346527124851519 -40.471938746400824 -16.152558101711037 14 25 27
-102.344406565092171 -39.837866602456280 -15.938381623498373 23 34 35
-102.356519066922459 -39.391395408591649 -16.380618336109194 27 39 44
-102.361730457850172 -38.851666986888297 -16.494539805253879 17 30 38
-102.371777401157772 -38.376352555020276 -16.827202686999641 9 22 28
-102.367910342261709 -37.708666081270707 -16.503348852250156 13 24 28
-102.366548812908235 -37.071707210485634 -16.288838971022614 15 25 27
-102.372370349904031 -36.531999931976927 -16.402468330742181 13 23 25
-102.383024562745078 -36.058884100133731 -16.734818065530220 12 20 23
-102.379814881829105 -35.386782370651794 -16.410695191853563 11 16 19
-102.376782335792043 -34.712805946933685 -16.086506874627645 9 15 14
-102.378594705251231 -34.104854143566349 -15.981038911690945 8 14 12
-102.389903263344138 -33.633028386581614 -16.313062330564804 6 12 9
-102.394389988635766 -33.059101763670036 -16.316823611610090 5 11 7
-102.394402825154415 -32.415368919983969 -16.101725966366331 4 10 6
-102.403898683705080 -31.910498758625959 -16.324097832221526 5 11 7
-102.406605620335029 -31.300479640224175 -16.218223191328917 6 12 10
-102.411822309502341 -30.725248851614090 -16.221648684590889 5 11 9
-102.412596777159209 -30.077980303042334 -16.006223072407778 4 10 8
-102.420513924022288 -29.537803706356030 -16.118854730477779 5 11 9
-102.433242027214931 -29.070763370807882 -16.450149785094823 5 11 9
-102.450766683533814 -28.678511610418788 -17.000098118603830 6 12 8
-102.466158790915358 -28.251738593500292 -17.440563115929621 5 11 7
-102.449510396069812 -27.305169048721183 -16.349682317593192 7 13 9
-102.458413699074796 -26.765707051058264 -16.461834846218380 7 13 9
-102.465226909977375 -26.188660208227457 -16.464515262513032 8 14 11
-102.486004604228810 -25.839860266146250 -17.123318967351878 7 13 10
-102.474924313280610 -24.956830554140303 -16.250838129619353 9 14 10
-102.493821567670963 -24.571476870440492 -16.800058811547160 6 11 7
-102.494659819922305 -23.877123500660172 -16.474228467830272 6 11 7
-102.498025844404097 -23.219951848103690 -16.257665001369475 5 10 6
-102.483453885886135 -22.245429308695826 -15.166078577227438 4 9 5
-102.496427568086546 -21.742116632725796 -15.386770632190121 4 10 6
-102.523214825661427 -21.479777736102452 -16.263527165399836 4 10 6
-102.532091575612554 -20.898949536769521 -16.265259315088912 4 10 6
-102.534445483957782 -20.195928090753895 -15.938793111555128 5 12 6
-102.557343137863398 -19.858718485744973 -16.596463329800088 5 11 6
-102.578192172390558 -19.483285660403443 -17.144648166421632 4 10 6
-102.576825754599341 -18.695866317036892 -16.599112734273689 2 8 4
-102.575768258254826 -17.905218643152487 -16.053462745992306 1 8 1
-102.575025438425754 -17.111330315561464 -15.507695575221135 2 9 2
-102.585740790056249 -16.525563356984748 -15.508598981298945 3 10 2
-102.590063212893796 -15.811667200000564 -15.181302986042510 2 9 1
-102.612431012744196 -15.438299650657171 -15.728739991616038 1 8 1
-102.628391879032307 -14.937906155148806 -15.947972939359374 1 7 3
-102.620353078267073 -13.960774443956529 -14.964146817378634 3 9 5
-102.619308066291183 -13.109114526143298 -14.308260001374265 4 10 6
-102.644957249932006 -12.781079932436453 -14.964519454224870 5 11 9
-102.664270077696344 -12.323174050281542 -15.292570373659885 8 14 14
-102.677304302992894 -11.732853582393478 -15.292411310083111 11 17 15
-102.690646245541160 -11.141986965227598 -15.292110657416771 8 14 12
-102.747676039007274 -11.452321799024050 -17.478811065770742 5 11 9
-102.772323893087744 -11.092837039992668 -18.025014398681094 3 9 5
-102.771358145043521 -10.187764445901625 -17.258780581672227 3 9 7
-102.781553552227521 -9.507826332390684 -17.039184308555349 5 11 9
-102.800669785848569 -9.011037929646458 -17.256870630351472 12 18 18
-102.820089421597885 -8.514774633401828 -17.474406400424414 10 16 16
-102.852574687414346 -8.299756876222808 -18.347949925762066 10 15 18
-102.893754570349046 -8.276948629955577 -19.658791006701335 10 15 17
-102.928759474967052 -8.118258453716894 -20.641408222306239 9 15 15
-102.940835635392105 -7.439977428893016 -20.420895146039186 13 19 19
-102.953295622542186 -6.759892887337535 -20.200217012886270 15 21 21
-102.951539358620423 -5.740492706809599 -19.213820437403086 16 22 22
-102.985625613178513 -5.539753483269921 -20.086451079094815 19 25 25
-103.015803163189219 -5.245318537154087 -20.740198318944266 14 20 18
-103.046247137788399 -4.953608350182456 -21.393790054869186 5 10 8
-103.054392303369625 -4.121652546387619 -20.844162749999242 6 13 13
-103.071179991605376 -3.484673046199520 -20.731829442556602 13 21 23
-103.110736150385918 -3.395653677718458 -21.822411082067163 29 37 39
-103.142399966875885 -3.110732852228995 -22.475349363504392 16 26 25
-103.174342877947794 -2.828493851547490 -23.128126521680286 17 28 24
-103.206566947521537 -2.548928854161882 -23.780741649733443 17 28 24
-103.239074253612102 -2.272029965034688 -24.433193834816080 21 32 28
-103.299628453088303 -2.717118859516383 -26.616821088174220 21 32 26
-103.326642999593005 -2.294578639087445 -26.940823495240778 20 28 21
-103.346162818337049 -1.665096135038535 -26.827105975580537 11 18 11
-103.403186454707637 -2.026977288301192 -28.791560967466040 153 160 153
-102.213770913547748 -152.807319367951010 -9.405940582017053 196 197 199
-102.219481487522387 -152.114105296733101 -9.964638688280019 201 202 206
-102.222952438435271 -151.445564642874842 -10.413295361738790 137 138 140
-102.252543199575513 -150.541914277334683 -12.071324244012544 113 116 116
-102.268103317377808 -149.774374809998733 -13.069510970591807 111 113 114
-102.269580745173087 -149.138035159703122 -13.407930992650250 125 128 128
-102.266413903120892 -148.544936230977953 -13.526409949174138 135 137 138
-102.272833923095376 -147.870500678288352 -14.084575362177901 112 114 115
-102.288869509385790 -147.117995379799794 -15.082379872009795 66 67 69
-102.297889076854631 -146.430301303825303 -15.750297031963839 40 42 41
-102.304632219723160 -145.765618285880095 -16.308207476343284 37 39 38
-102.304319418157164 -145.161926631960995 -16.536288990843644 30 32 31
-102.299313887460983 -144.597644604862495 -16.544492057947025 25 27 24
-102.287209718489748 -144.089991449979635 -16.222931525078081 26 27 22
-102.279944035394195 -143.543597979879308 -16.121172820518126 27 29 24
-102.272740679004670 -142.996717840478965 -16.019389308607174 33 35 30
-102.270391252630489 -142.413271350448667 -16.137377858872128 36 37 32
-102.265711133704031 -141.848189550934961 -16.145433482559554 38 40 35
-102.261092989511255 -141.283159381811117 -16.153458926289289 34 35 30
-102.256535193548459 -140.718178875918397 -16.161454988424055 30 32 28
-102.256847028896885 -140.119345776053365 -16.389187667228043 26 28 25
-102.252409420769027 -139.555003114178191 -16.397119666265667 23 25 22
-102.245617669325611 -139.007110473577001 -16.295149666142862 23 25 22
-102.241287545903049 -138.442582063410640 -16.303032156866351 26 28 25
-102.239423800222355 -137.862232362180379 -16.420756482349532 25 27 22
-102.237615173326333 -137.282465640043085 -16.538448438298360 25 27 22
-102.226188551696168 -136.764551643081376 -16.216669389105988 25 27 22
-102.217217964886885 -136.229995577276469 -16.004745571369256 27 29 24
-102.205864396354784 -135.709159777756156 -15.682961649406707 25 27 22
-102.199392132320966 -135.157721192895906 -15.580875307787892 19 21 16
-102.185682928383741 -134.648460155920759 -15.149240283962712 17 22 16
-102.174428854887580 -134.123095714056831 -14.827455379506631 15 20 14
-102.165634468520352 -133.582442432319624 -14.615510029788936 14 19 13
-102.164166969219664 -133.000486316791410 -14.733061327991521 12 17 11
-102.162742133552683 -132.419100277898366 -14.850586347972722 13 18 12
-102.149183402764166 -131.902635538157142 -14.418953489640387 17 19 14
-102.130772892559335 -131.409217043121743 -13.767686709535127 18 20 15
-102.117253424226377 -130.887905560344649 -13.336084958139480 17 19 14
-102.111075180961166 -130.328276298501521 -13.233942268745579 15 17 12
-102.107368643481607 -129.756341016890673 -13.241602680740101 14 16 11
-102.096362188835002 -129.218959315277345 -12.919823015966728 13 15 10
-102.087821764771178 -128.668726013809760 -12.707854783509305 11 13 8
-102.081751535684404 -128.106455657802826 -12.605687606611696 11 13 8
-102.075706511125162 -127.543658639473477 -12.503513793154326 10 12 7
-102.069685658500617 -126.980334103797929 -12.401333845927354 11 13 8
-102.063687966595126 -126.416481229024072 -12.299148257151501 12 14 9
-102.062620699257820 -125.832338195337599 -12.416530596801863 12 14 9
-102.059125472652596 -125.258361099807445 -12.424110935814781 13 15 10
-102.053196341937436 -124.693733889655931 -12.321900518223543 14 16 11
-102.049745569001800 -124.119510130059240 -12.329462129790471 15 16 11
-102.046316439094042 -123.545297885408047 -12.337013268877911 15 16 11
-102.035521158979748 -122.996661682010654 -12.015248427172793 15 16 11
-102.029663901050469 -122.429905300535523 -11.913025542517147 15 16 11
-102.023822466086756 -121.862615106851720 -11.810800583006312 16 17 12
-102.025397277084153 -121.271671009602642 -12.037847853121860 16 17 12
-102.019589801542665 -120.704126746919954 -11.935609262799630 16 17 12
-102.021206430613546 -120.114557905492561 -12.162622371093164 16 17 12
-102.015429743784537 -119.546757524363628 -12.060371687912266 17 18 13
-102.014611679002130 -118.965181566015943 -12.177608385718457 17 19 14
-102.013811040383089 -118.384155699788423 -12.294831084533399 17 19 14
-102.008074239020488 -117.815831882935640 -12.192566708268885 17 19 14
-102.004825282965541 -117.241166016617498 -12.200036322158439 17 19 14
-101.999109126392582 -116.672038407115608 -12.097770343338880 16 18 13
-101.993401596583027 -116.102372523084355 -11.995505778235469 16 16 14
-101.985219560544138 -115.537157409272965 -11.783520309495970 17 18 14
-101.982010095816491 -114.961424663273590 -11.790982012798423 17 18 13
-101.981296164132686 -114.381250163496958 -11.908154467770146 19 20 15
-101.985568827763018 -113.793274453968564 -12.244739424248081 19 20 14
-101.987370840028717 -113.210835172044469 -12.471590457719117 25 26 20
-101.996657492230867 -112.618593447795760 -13.027538421324323 29 32 25
-102.005967038335967 -112.029071848868398 -13.583447432948446 21 22 16
-102.012805932334530 -111.445357646967395 -14.029619732696204 24 23 18
-102.009685618909842 -110.875083002109818 -14.036982603343944 22 22 14
-102.004075961821741 -110.307355088694678 -13.934651267760955 26 23 16
-102.005962197487193 -109.732268918346449 -14.161386319774920 25 24 18
-102.002862363096654 -109.162273277062496 -14.168736521398955 23 21 16
-101.997267743400045 -108.594008835159244 -14.066403514736606 24 21 16
-101.989173634170385 -108.026660404936081 -13.854397941410525 26 21 17
-101.993595791242996 -107.452298583900514 -14.190771246144834 24 18 14
-101.990517032414544 -106.882310665788197 -14.198111285793743 27 17 12
-101.992455615862497 -106.311039690416223 -14.424782023089477 30 16 13
-101.984373331886474 -105.742339605729484 -14.212784705860997 31 17 14
-101.983817290853040 -105.172257272482867 -14.329777742746785 30 16 13
-101.973225455596165 -104.602028837013975 -14.008137833410927 33 18 15
-101.982726334849204 -104.033726553893672 -14.563736890835628 51 37 33
-101.992245720068368 -103.468142190107542 -15.119299118160541 31 13 5
-102.006813681973142 -102.907251108910401 -15.894115583229649 26 6 0
-102.011339632715519 -102.345126847100204 -16.230313266083357 35 15 6
-102.018396046301945 -101.786164605172686 -16.676126720847549 55 31 21
-102.020428945745763 -101.225771052149014 -16.902640370921631 79 54 43
-102.030034059769719 -100.672688211716064 -17.458032901420040 96 70 59
-102.042179772525785 -100.124668857930970 -18.123016782102184 100 71 57
-102.056870453486738 -99.582527924744809 -18.897581534102727 102 72 58
-102.071585275260205 -99.044190884882752 -19.672095581836430 103 69 57
-102.086324313269614 -98.509657641396117 -20.446558890218881 107 71 58
-102.085919166675708 -97.958331253567948 -20.563286675353680 113 74 62
-102.095639308801395 -97.422366289865565 -21.118447973898043 120 78 65
-102.092723559211521 -96.869237334883195 -21.125536492709273 120 76 64
-102.105006815871505 -96.341595286440466 -21.790244819018653 126 80 67
-102.099575517625254 -95.785576606636141 -21.687707628153305 128 82 69
-102.109357958976943 -95.257761326242473 -22.242755234177139 128 85 69
-102.106476835196119 -94.707348060713045 -22.249799234164158 125 83 67
-102.113753768090533 -94.178272298030478 -22.695199556702761 127 84 70
-102.115969141519557 -93.640156757804377 -22.921396593070540 125 84 72
-102.128360195037487 -93.126638501197178 -23.585907966448048 97 70 60
-102.120436453391875 -92.567182782302609 -23.373739646211050 97 93 82
-102.132863977627252 -92.058008912269173 -24.038188853168919 38 39 31
-102.142770778005954 -91.545400738598588 -24.593020431871651 83 86 79
-102.152699540462010 -91.035507607857042 -25.147813556691005 40 45 38
-102.152459006697001 -90.499384212963406 -25.264306099569069 42 45 36
-102.136934304610776 -89.918754242124976 -24.723415355203855 50 51 40
-102.116303736794393 -89.319845686657885 -23.963437620315460 57 45 37
-102.105872023336801 -88.749336043769887 -23.641724003868859 87 55 52
-102.092889103593393 -88.168870183349881 -23.210474475192825 103 63 61
-102.090125547994376 -87.620606152502262 -23.217440107812422 113 71 69
-102.087373678434005 -87.072338334474082 -23.224400188854560 133 89 88
-102.099979310805310 -86.578894777399654 -23.888602269477218 140 94 94
-102.102378558311003 -86.051067946533550 -24.114605434262870 145 101 100
-102.102236514006833 -85.514641503434746 -24.231053979547937 146 101 98
-102.096988237936188 -84.958846782757647 -24.128426926177269 149 104 101
-102.107129600536993 -84.463851987090138 -24.682964987768969 151 105 102
-102.109607182698369 -83.940078255487748 -24.908888956937062 151 103 102
-102.119802977136601 -83.449689378600198 -25.463353567488468 157 109 110
-102.104360558285066 -82.851610515671268 -24.922603069317631 165 117 118
-102.099195565042038 -82.296053446195828 -24.819933727464530 148 98 102
-102.081199599750278 -81.682027433076058 -24.169710104265477 129 79 83
-102.063207857258178 -81.064731687166699 -23.519518117895757 117 70 74
-102.052937273833265 -80.480546084788202 -23.197868190915074 102 57 61
-102.040107339556741 -79.882321067774612 -22.766728278436318 108 69 71
-102.029864258063014 -79.294581348192665 -22.445101778939886 115 76 81
-102.004182883359874 -78.627546764018945 -21.466523818349515 109 73 80
-101.968196127552417 -77.902752640474219 -20.050034925028314 76 56 59
-101.929625189474152 -77.157393685947383 -18.524135094863368 5 4 2
-101.901364637618101 -76.459440293216986 -17.436250381690542 7 11 10
-101.893752317667079 -75.868269074572865 -17.224259541953757 3 9 9
-101.878419262958985 -75.233091566065582 -16.683838599347240 5 9 12
-101.881184624548055 -74.697187679830918 -16.909749757598860 5 9 12
-101.881401859016194 -74.147508043382373 -17.026162846927690 11 15 18
-101.891994138071581 -73.658817791501207 -17.580420295796756 15 19 22
-101.876768953603516 -73.018943947048356 -17.039996090182342 12 16 19
-101.871916688265060 -72.438970053332241 -16.937428475009511 18 23 25
-101.859333076943088 -71.810634327003626 -16.506480667130887 14 20 20
-101.870083036665349 -71.325932573980495 -17.060621626487034 20 26 26
-101.862748592050806 -70.728595653202746 -16.848561318811164 26 32 32
-101.865815670030912 -70.197134254469134 -17.074282408219943 25 31 31
-101.863742767190274 -69.632694043385001 -17.081084144476677 19 25 25
-101.869492510824173 -69.120098166289125 -17.416186548461127 11 17 17
-101.854536255027497 -68.468598531018316 -16.875753358397304 13 19 19
-101.847401597878772 -67.867852638676936 -16.663632563339434 16 22 22
-101.845502204700168 -67.302199321862958 -16.670363780275295 15 21 21
-101.841053488574133 -66.718131928871415 -16.567645244986920 13 19 19
-101.831456254576949 -66.096181997934877 -16.246061917153128 14 20 20
-101.821904703707830 -65.472561652855461 -15.924473929079369 13 19 19
-101.822799263870905 -64.924048778130555 -16.040550978052920 12 18 18
-101.826349738802122 -64.395505000888022 -16.266010779473504 13 19 19
-101.827357388487968 -63.848266686947753 -16.382020607112509 12 18 18
-101.807607551545658 -63.141437987395037 -15.622732409850386 13 19 19
-101.785303477961392 -62.410469131890657 -14.754055752474272 11 17 17
-101.791685702990151 -61.901205626160170 -15.088821277754818 9 15 15
-101.795529834860019 -61.372695771669548 -15.314140245518672 10 16 16
-101.799440018101606 -60.845220878349316 -15.539416961157372 10 16 16
-101.785181140876702 -60.169175637209833 -14.998902807827108 15 21 21
-101.789223966988430 -59.641859063407097 -15.224114437909122 14 20 20
-101.788124930735066 -59.071738386377270 -15.230508751618260 15 21 21
-101.779275813571218 -58.434989021692139 -14.908719865261901 12 18 18
-101.767888770635452 -57.774079733690130 -14.477534919202668 12 18 18
-101.761787666127375 -57.156390884603333 -14.265094078469417 9 15 15
-101.766193175070725 -56.629565475723176 -14.490127146520649 10 16 16
-101.770677875671851 -56.103757067930289 -14.715111861051156 12 18 18
-101.770025944546447 -55.531861950409244 -14.721310546406983 15 21 21
-101.774673371293673 -55.007535302567014 -14.946202160807474 14 20 20
-101.784623441988501 -54.532409607405100 -15.389768328237921 13 19 19
-101.776394207410632 -53.888803362071791 -15.067753473494321 12 18 18
-101.755203093487125 -53.120271007598184 -14.198931039996552 10 16 16
-101.736708884844489 -52.372200605076237 -13.439466676026484 11 17 17
-101.733963503237689 -51.771337450004964 -13.336106158559204 13 19 19
-101.736531208238119 -51.220751014738013 -13.451404124977898 10 16 16
-101.739194556225058 -50.670611199353111 -13.566651738836924 12 18 18
-101.749784468323398 -50.198928830584009 -14.009876364444779 12 18 18
-101.747425464231483 -49.597936581188407 -13.906332334131463 12 17 20
-101.750387230687096 -49.049390845047618 -14.021420776959474 14 20 20
-101.737797461535607 -48.340338242197575 -13.480447889403621 10 16 16
-101.738360804685243 -47.763922262794338 -13.486111727214364 10 16 15
-101.731206831144519 -47.105278041122155 -13.163737264721192 11 17 15
-101.742423141835602 -46.638371452239966 -13.606613063887863 10 16 15
-101.745925735019142 -46.089775682947071 -13.721443292079385 8 14 14
-101.752149738267846 -45.569785339476411 -13.945536041926289 12 18 18
-101.755882129205943 -45.022291431132523 -14.060244993651480 10 16 16
-101.759732825767443 -44.475206223989439 -14.174893141405136 14 20 20
-101.750676341310978 -43.783477960586630 -13.742910499353826 19 25 25
-101.749564037682717 -43.177264503356021 -13.638823796327245 8 14 14
-101.748579944759257 -42.570353141616735 -13.534682941620588 6 12 12
-101.758139552536321 -42.082061239862661 -13.867712546630628 1 9 11
-101.767825455872554 -41.595252532920334 -14.200666465008737 28 37 39
-101.795849193292554 -41.322569957085946 -15.298655713026108 12 22 24
-101.808386594984867 -40.871285858916977 -15.740738696641159 2 12 14
-101.815854823192993 -40.360169985204550 -15.964144864156992 6 16 18
-101.797477545722728 -39.537972845575226 -15.094528699537506 10 20 21
-101.813022217854126 -39.120374358374150 -15.645685157287090 20 31 35
-101.831295439112935 -38.737080928317624 -16.306042052220789 26 36 45
-101.849700421719078 -38.356889081236687 -16.966303986825835 16 27 33
-101.847495976931853 -37.721415925328152 -16.752182060242973 14 25 29
-101.853223980987380 -37.182360691571702 -16.865849453976352 15 25 27
-101.856514409543507 -36.610802871668398 -16.870158656000029 12 22 24
-101.857374703797035 -36.005913200658163 -16.765114642511719 9 17 20
-101.855812791254138 -35.366861705750360 -16.550722164346439 9 14 17
-101.859590668071831 -34.793831390732265 -16.554813329924542 9 15 16
-101.858369719842500 -34.152681213322644 -16.340279338393742 8 14 12
-101.847003292557474 -33.373311353528507 -15.688586134211818 7 13 11
-101.840991004125272 -32.659392517566445 -15.255375577928078 8 14 10
-101.848053779860265 -32.116885868529934 -15.368439948616583 7 13 9
-101.865587940347680 -31.714869270551617 -15.918484249742676 7 13 9
-101.872993058190190 -31.174057513646495 -16.031367398764218 6 12 11
-101.878008163797389 -30.597934415033713 -16.034898513905489 5 11 10
-101.880643466830392 -29.985666268379024 -15.929081292657742 4 10 9
-101.886038647096200 -29.408720839084918 -15.932439046047904 4 10 9
-101.906997904599962 -29.050056557695818 -16.591257430249044 4 10 8
-101.920443459169618 -28.584307367337857 -16.922195968180546 7 13 9
-101.931514787597791 -28.082941154051248 -17.143778066748894 8 14 10
-101.914691234946403 -27.172554811081518 -16.163467496353746 8 14 10
-101.918528700168281 -26.557146222776090 -16.057107490979035 8 14 12
-101.922581574280827 -25.940866540848479 -15.950653401333625 9 15 13
-101.942115653721771 -25.552233102975066 -16.499603188497360 9 15 13
-101.931347903816302 -24.705662889369272 -15.737456421189052 9 15 11
-101.953826728908595 -24.357217946246553 -16.395442656682008 8 14 10
-101.953685826258067 -23.661478868538698 -16.070095001101748 6 12 8
-101.956322238701503 -23.002916421311834 -15.853894894687386 5 11 7
-101.946574130191365 -22.145503045150566 -15.091371948549948 5 11 7
-101.974942465232871 -21.880126112902573 -15.967403371745945 5 11 7
-101.995930266833597 -21.498725781430689 -16.515583249213620 4 11 4
-102.004548049911449 -20.918172034211228 -16.517436462693723 4 11 4
-101.995842412548214 -20.053102377160407 -15.754493611878274 2 9 2
-102.007485859465490 -19.510666007403024 -15.865365881754428 2 9 1
-102.024372967970223 -19.050667283948023 -16.194598799635401 3 10 3
-102.046479458721308 -18.674773311234535 -16.742186820331227 3 10 3
-102.041392590191606 -17.842485682431086 -16.088034205945348 3 10 3
-102.046571410853403 -17.174343160996518 -15.870716432670406 2 9 1
-102.039629075239347 -16.293308431467914 -15.107094360853438 1 8 0
-102.062744902500270 -15.918431123934491 -15.654189053377223 3 10 2
-102.071256939818639 -15.288936015029778 -15.545737748367628 2 9 2
-102.082524096734232 -14.701506599309528 -15.546394285194992 0 7 0
-102.067011880856953 -13.636337852805777 -14.345331858976607 1 8 1
-102.076456483531274 -13.001161860380986 -14.236492894085188 3 10 3
-102.108244152206098 -12.760449046220710 -15.110634639633844 3 9 4
-102.145119597368691 -12.612177586748651 -16.203108634888764 7 13 11
-102.152932752937332 -11.934867104055963 -15.984624975254974 9 15 13
-102.163504412830477 -11.300682844039256 -15.875236621653386 8 14 12
-102.213183104320876 -11.386601370604090 -17.513469377180115 6 12 10
-102.224296341606717 -10.754694555300933 -17.403798491927745 4 10 6
-102.216449690941545 -9.756520475088358 -16.420097045672861 3 9 8
-102.235490699673420 -9.257839936158387 -16.637838831506372 9 15 13
-102.264417656310258 -8.944529307430116 -17.292378647822744 12 18 18
-102.284028355225203 -8.448049421785193 -17.509825243395625 9 15 15
-102.308708596021873 -8.045639643192674 -17.945596046481540 9 14 17
-102.352669048521548 -8.021354448116039 -19.255122115447961 10 15 18
-102.403891291756722 -8.145292776954868 -20.892225084186549 11 17 17
-102.426906164106811 -7.705577337467616 -21.218317714816720 10 16 16
-102.431405148065920 -6.883600447499753 -20.670332012763737 3 9 9
-102.438680703420502 -6.106300131653370 -20.231417014971868 26 32 32
-102.439373700385460 -5.180572152376907 -19.464602276292453 32 38 38
-102.461491316704610 -4.689089420147807 -19.680798132961684 47 53 51
-102.483943790945318 -4.198039636712232 -19.896829338189690 11 16 14
-102.490569087030465 -3.361991597015118 -19.347971257116853 8 15 15
-102.516067419220363 -2.919394632617898 -19.672905470055753 9 17 19
-102.569390522161484 -3.076814674656830 -21.308658750618406 21 29 31
-102.597722154651279 -2.689811789195028 -21.742524149543499 17 27 26
-102.640003313110640 -2.607319974985186 -22.831734967152954 16 27 23
-102.650812981810176 -1.818811980497996 -22.391244627917274 18 29 25
-102.727423834219067 -2.508361473861877 -25.118968502401657 21 32 28
-102.732182523460580 -1.567906241938708 -24.350360345482983 15 26 20
-102.811145138370918 -2.327165728548583 -27.187100469788476 22 30 22
-102.825557617546423 -1.594280803585093 -26.855172887093772 143 150 142
-102.862555339859057 -1.381160778842988 -27.615679249477267 141 148 140
-101.671228637510183 -152.922020516724416 -9.110015846046537 197 201 204
-101.683509928732988 -152.183284784261247 -9.887756890868843 196 197 201
-101.716795523230573 -151.273624641859811 -11.544080039181495 180 184 184
-101.731968467353639 -150.523301948619348 -12.431415882496594 117 121 120
-101.755114863053024 -149.713498359756841 -13.648126175409004 120 124 123
-101.749614526280197 -149.141172831715551 -13.656648751839327 139 143 142
-101.757295569505516 -148.465106177720031 -14.214227685387414 137 141 140
-101.765082589998130 -147.791839960734535 -14.771727093469167 70 74 73
-101.780847614935666 -147.060713954497999 -15.658582086209179 66 67 69
-101.788846676261201 -146.393856487236548 -16.215914086202844 57 59 58
-101.789055195708684 -145.788813053957028 -16.443760117061288 38 40 39
-101.784081395799774 -145.223727864693387 -16.451956271616496 37 39 38
-101.773909116897798 -144.696964600970688 -16.240527124031246 42 44 41
-101.766433074301318 -144.150315235534350 -16.138871688794694 49 50 45
-101.761658624581514 -143.584594446631741 -16.146979017449127 45 46 41
-101.756949572079677 -143.018929715521949 -16.155054483267605 44 45 40
-101.757591460265616 -142.417237481301157 -16.382658696431633 37 38 33
-101.753012575771749 -141.852222925978168 -16.390665197735274 26 27 22
-101.748494038261242 -141.287258220905159 -16.398642316115286 14 15 10
-101.741384085194852 -140.739565726104701 -16.296822482356959 19 21 16
-101.742283825529483 -140.140518438991933 -16.524276114167606 27 29 24
-101.743247532857779 -139.542603653208914 -16.751687486982718 27 29 24
-101.738960644860953 -138.978635616419979 -16.759543525822039 23 25 20
-101.734726170258284 -138.414708183890212 -16.767374072313260 22 24 19
-101.727882118575138 -137.866683701972534 -16.665430449554776 21 24 17
-101.723745994972461 -137.302560484936521 -16.673215960573003 22 25 18
-101.711664508092611 -136.784433141151993 -16.351752392757419 23 26 19
-101.699617895125186 -136.264708200892073 -16.030288586244751 16 19 12
-101.690273270454711 -135.728608178999224 -15.818559599654350 10 13 6
-101.686305386254688 -135.162443360897811 -15.826285640744373 10 13 6
-101.674363700707801 -134.639005371995751 -15.504809857588327 12 17 10
-101.665126022002667 -134.100004186735475 -15.293059571546621 13 18 11
-101.655920902278197 -133.559942773814072 -15.081304622856123 16 21 14
-101.654780130593849 -132.978570108203684 -15.198693609943831 17 22 15
-101.651000935928536 -132.410910805671165 -15.206344766086232 19 24 17
-101.636532834960121 -131.894766731418798 -14.775143646559911 19 21 16
-101.619402396570507 -131.389071472687675 -14.234249740302516 21 23 18
-101.604972917820604 -130.868350129908947 -13.803077260163633 22 24 19
-101.603994843976750 -130.285187736421591 -13.920406835730233 22 24 19
-101.597675207912303 -129.726159559158731 -13.818325600901318 23 25 20
-101.580622547793936 -129.212661245492370 -13.277474806549918 23 25 20
-101.566273806604741 -128.685220487212490 -12.846332868158044 18 20 15
-101.557326515020634 -128.133681688360497 -12.634572717868025 15 17 12
-101.556484837588400 -127.548976370372316 -12.751852923955823 12 14 9
-101.547582465137950 -126.996109350552544 -12.540084956551965 11 13 8
-101.538698553633083 -126.442169351762971 -12.328319202206529 8 10 5
-101.529832150576922 -125.887155627822068 -12.116556124271654 7 8 3
-101.523683953087044 -125.321456147559289 -12.014461544889457 8 9 4
-101.520257900588661 -124.745885481181432 -12.022025194672068 9 8 4
-101.516853036986276 -124.170326013378727 -12.029578592486899 11 10 6
-101.513468431687684 -123.594777086905836 -12.037122190291427 12 10 6
-101.504687093210904 -123.036286751263404 -11.825354204264045 13 9 6
-101.501337146313844 -122.460213591323253 -11.832886617806508 19 11 9
-101.498004823481224 -121.884149188575108 -11.840410509914790 21 13 11
-101.500114803606891 -121.292674697349071 -12.067207216565492 22 14 12
-101.491389724176898 -120.732044518798688 -11.855434342881011 22 14 12
-101.485389480037455 -120.163168965227840 -11.753301676041218 22 14 12
-101.476683161128975 -119.600650737141763 -11.541539262029858 20 16 13
-101.476141204732386 -119.017185120729792 -11.658663321730529 20 16 13
-101.475615280742943 -118.434268836434612 -11.775774057031043 20 16 13
-101.477826671556613 -117.845822613814349 -12.002491077666178 20 16 13
-101.474608700013690 -117.270082699437765 -12.009956924387609 19 16 13
-101.468676634373395 -116.699883058828618 -11.907805270680512 19 16 13
-101.457298788152187 -116.139672040568485 -11.586438271988129 18 18 16
-101.448649673545404 -115.572842948120211 -11.374692865527464 18 19 15
-101.445462792564811 -114.995490224001713 -11.382160440091326 19 20 15
-101.447746590050926 -114.409243775300126 -11.608820178244486 21 22 17
-101.450044430968532 -113.824087488631875 -11.835461976482776 21 22 16
-101.452355787890966 -113.240021124473927 -12.062086089590707 27 28 21
-101.460151161870797 -112.649777238262089 -12.507868025914803 25 26 19
-101.473438967997907 -112.054985751294737 -13.172786982106203 17 16 10
-101.475796839286744 -111.475818004346422 -13.399338418972889 21 18 11
-101.478166357421301 -110.897739377246481 -13.625873073170851 22 18 11
-101.477805712047285 -110.323296573992025 -13.742817517951210 22 18 9
-101.482938765951118 -109.744848846016353 -14.078892790370929 24 15 6
-101.477107878143556 -109.176047155013308 -13.976678343737916 25 15 6
-101.471278392567328 -108.606703916939324 -13.874468800698253 27 15 6
-101.468197312963099 -108.035358885113524 -13.881823920051545 22 8 0
-101.476115015007636 -107.459261627813774 -14.327401716690758 25 11 2
-101.473047124135718 -106.889006426338568 -14.334739308428425 30 12 2
-101.475485902041115 -106.317462445731053 -14.561173564590320 45 22 14
-101.469674269558126 -105.748126778547231 -14.458955402761120 53 29 22
-101.474881031848724 -105.177842045230392 -14.794911387536445 59 34 27
-101.469075193147091 -104.608508831932653 -14.692690428723012 77 50 43
-101.482571615723444 -104.041724662112799 -15.357221290135101 85 58 52
-101.496088086706266 -103.478201667165877 -16.021708991546944 91 61 52
-101.515145313370340 -102.919909701668857 -16.905209938660050 103 72 62
-101.528704526662708 -102.363452203445462 -17.569604463590366 108 75 64
-101.547810179910755 -101.813312302426667 -18.452998330296765 110 72 63
-101.555882446598361 -101.260320068225113 -18.898264352130781 109 70 61
-101.566734937009045 -100.711573644769203 -19.453015505123062 114 75 64
-101.577604378679794 -100.165544657546747 -20.007730576754369 109 72 56
-101.602336260035244 -99.635308070375459 -21.109945770252182 116 79 63
-101.618788059617557 -99.101845479842666 -21.883578678600344 116 80 64
-101.624174900061803 -98.559553406614981 -22.219160372091665 122 83 67
-101.612932772899583 -97.998311658610874 -21.897739055685719 121 80 64
-101.604459891217232 -97.439141929422036 -21.685830498324293 122 83 66
-101.604313347839167 -96.890805890690913 -21.802403787401573 125 83 66
-101.601395376092881 -96.338768341702320 -21.809482134894608 126 83 66
-101.601260220305875 -95.791247593792846 -21.926041583989331 125 82 65
-101.601131836805237 -95.244270173742905 -22.042592200498859 127 85 69
-101.598228471583312 -94.692775911348235 -22.049657967958893 125 83 66
-101.600896487622677 -94.151944851185903 -22.275666413864258 126 80 68
-101.611929637556983 -93.629010293328648 -22.830065445460320 121 77 66
-101.631341058497455 -93.126417146777058 -23.712823611321568 90 63 51
-101.639629813888689 -92.603583091207582 -24.157675632419000 119 117 102
-101.639568350789872 -92.063666304813069 -24.274121555788554 38 39 31
-101.631144311892456 -91.504221544646526 -24.062192463238262 37 42 35
-101.642265057425817 -90.992421224974223 -24.616434979092958 75 80 73
-101.650613649216496 -90.476102761860091 -25.061191306395756 84 87 78
-101.633828094946381 -89.894409954751808 -24.520914689701073 74 78 66
-101.614240450576276 -89.302221661713205 -23.871227733694155 51 45 36
-101.605834964515026 -88.738964943174736 -23.659329003933124 75 49 45
-101.597433107625235 -88.174619032492259 -23.447439749590757 97 59 56
-101.591835822898233 -87.617775455491127 -23.344990457170070 114 74 72
-101.583444417767296 -87.051521895019249 -23.133115839139776 131 90 88
-101.589074015058131 -86.529854158646756 -23.468369101927721 137 93 92
-101.591918991833950 -86.000405838806913 -23.694175722159002 144 100 99
-101.597587534248376 -85.481718654698739 -24.029379673411626 147 103 102
-101.592048386565907 -84.924855957746686 -23.926902765239305 150 106 105
-101.597754337414329 -84.408332689550775 -24.262066546151800 150 106 106
-101.597862925748188 -83.872446813625928 -24.378389625312394 146 101 103
-101.600800483976087 -83.347863741803081 -24.604101874452425 149 102 106
-101.603759187213228 -82.824361031017872 -24.829792887193577 150 101 105
-101.595484291100732 -82.256703138463337 -24.617876987143802 126 73 83
-101.575960821236492 -81.641629023845795 -23.968394905531596 105 56 64
-101.542357556505181 -80.964025344444934 -22.771997773142459 108 63 71
-101.528469445164276 -80.365302417061386 -22.341369214185704 117 75 83
-101.517410274195782 -79.776791888074143 -22.020141063425115 122 89 95
-101.509184888603713 -79.199308199760310 -21.808302619563847 114 86 91
-101.481225366762160 -78.530153164640026 -20.830836343622451 111 92 96
-101.433506481460597 -77.763619508131328 -19.087813052056390 43 37 39
-101.402716557030459 -77.069272945435202 -18.001101255139616 25 29 28
-101.380403332863736 -76.410740928284881 -17.242542231524936 26 29 28
-101.375058694299867 -75.832546415636315 -17.140191849952203 13 19 19
-101.355600679093783 -75.182303963271210 -16.491040460423363 14 19 22
-101.355959467183482 -74.630771290654806 -16.607404905217038 17 22 25
-101.362010650677689 -74.109447743846772 -16.942452939694306 10 15 18
-101.376593488854994 -73.635076250306582 -17.605512813505726 24 29 32
-101.371395540587727 -73.056252285376445 -17.503098735066459 22 27 30
-101.360561554469115 -72.445550872523498 -17.181991278560929 23 28 30
-101.349755335977079 -71.833197146615319 -16.860887546206328 16 22 22
-101.350321047374564 -71.283991571565807 -16.977129045614504 17 23 23
-101.342415573650086 -70.685889016440711 -16.765349797366497 15 21 21
-101.343057586432792 -70.136906343618548 -16.881552500008951 13 19 19
-101.343741224016270 -69.588440996759502 -16.997729964393329 11 17 17
-101.338787979192773 -69.005915930227786 -16.895236917963388 11 17 17
-101.336715771115379 -68.440377736650873 -16.902049623933152 11 17 17
-101.317635986689439 -67.767818951561168 -16.252947003319122 11 17 17
-101.315646487392755 -67.200586639034512 -16.259737580109118 8 14 14
-101.302328479341796 -66.559818532168919 -15.829269077846703 10 16 16
-101.297584995196203 -65.972782028138596 -15.726722121119963 12 18 18
-101.284352552863425 -65.328406254943019 -15.296249820033154 12 18 18
-101.282549680768724 -64.758581764635707 -15.302977797597521 11 17 17
-101.280799298105123 -64.188716854007481 -15.309681080464600 11 17 17
-101.281950959188904 -63.638545244356891 -15.425652207430801 11 17 17
-101.268915645079730 -62.988835920684835 -14.995140501791923 13 19 19
-101.255931369891798 -62.336904095775829 -14.564627256629763 11 17 17
-101.260101868328221 -61.806057933346374 -14.789814140538084 10 16 16
-101.258633670097453 -61.234602531389989 -14.796398799065997 9 15 15
-101.257227558182194 -60.663095099537095 -14.802954291283243 8 14 14
-101.253032879202749 -60.070165358714462 -14.700205450093023 8 14 14
-101.257461160995319 -59.541556020681178 -14.925245986570161 9 15 15
-101.259105408637495 -58.992064438309434 -15.040974461952885 9 15 15
-101.249403407301273 -58.354317181565570 -14.719603864265395 9 15 15
-101.236914327346668 -57.692415982708454 -14.288956339175257 11 17 17
-101.230203888209047 -57.073729575053108 -14.076817270411624 11 17 17
-101.229276945541812 -56.499889205600610 -14.083167543801778 11 17 17
-101.231282090996103 -55.949252257052116 -14.198735156737655 11 17 17
-101.230509801444271 -55.375540181575026 -14.205010124013143 11 17 17
-101.232673965815806 -54.825571188000964 -14.320494787247952 11 17 17
-101.246347896498122 -54.372434683024423 -14.872912011964189 10 16 16
-101.231536960000000 -53.678301239535251 -14.332848152851398 11 17 17
-101.219666618488915 -53.005994661778999 -13.902011733202983 11 17 17
-101.196452553011028 -52.231782949146677 -13.034215533281326 11 17 17
-101.199044610158396 -51.679755663659023 -13.149516681111550 11 17 17
-101.198871183127181 -51.102725406014542 -13.155539310325850 11 17 17
-101.204507235167370 -50.577053023312608 -13.379971822099861 13 19 19
-101.215954777470145 -50.104372063112947 -13.822796439360843 12 18 18
-101.221784639277445 -49.581224623742081 -14.047110242696419 13 18 21
-101.216283844572771 -48.952878859064100 -13.834491912796722 12 17 20
-101.213743079286530 -48.350150482943128 -13.731052707240281 12 18 18
-101.205592553597413 -47.692579220961548 -13.409143947365891 12 18 18
-101.214691777535620 -47.197442027656912 -13.742464260451044 11 17 17
-101.212471388826856 -46.593270895355452 -13.638886638852284 9 15 13
-101.213218913599519 -46.016340377676698 -13.644467661206818 9 15 15
-101.211223738088464 -45.411097435832474 -13.540793331060314 15 21 21
-101.220766698411850 -44.919006681258900 -13.873870003655526 8 14 14
-101.224714532843379 -44.370958090904033 -13.988481597572530 9 15 15
-101.220218155727480 -43.736303260426801 -13.775447700124801 10 16 16
-101.215846561130547 -43.100410695988494 -13.562366847765247 10 16 16
-101.217308506225066 -42.522378789158410 -13.567617431038457 9 15 15
-101.224602232920290 -42.003844632753449 -13.791183439590242 6 14 16
-101.232022375523954 -41.486248441812165 -14.014679316255098 32 41 43
-101.256674466762419 -41.151821936491288 -14.893199339691421 25 35 37
