ply
format ascii 1.0
element vertex 704
property double x
property double y
property double z
property uchar red
property uchar green
property uchar blue
end_header
-120.799651827201615 -112.975313767420872 -4.915449560657720 15 15 13
-120.814622860342084 -112.413890009457816 -4.581489831734103 13 18 11
-120.810304150212204 -111.841044249212629 -4.589452477040112 16 19 12
-120.812505993621741 -111.271216385439601 -4.483405762238590 17 20 11
-120.834114139841120 -110.709038102192068 -4.035419742955440 14 17 9
-120.862222369559319 -110.147151587806121 -3.473462217762972 14 17 8
-120.883940436633068 -109.580378056857811 -3.025470913912898 16 19 11
-120.905714434033499 -109.011441418973718 -2.577475119132657 18 20 15
-120.908228887778932 -108.435433761170231 -2.471342464342342 19 22 15
-120.917246919035577 -107.860258065799513 -2.251231071635345 22 25 18
-120.907023361877350 -107.280732454869906 -2.372946219498857 20 23 16
-120.909739607191753 -106.703399742508253 -2.266730667765870 25 28 21
-120.861070696094700 -106.121162022899384 -3.072019167794025 26 30 26
-120.825354366688231 -105.543293399096001 -3.649348454000176 27 31 27
-120.789723627356466 -104.968155460802393 -4.226608685890284 26 30 26
-120.786310163285336 -104.394393679852058 -4.234147693646008 26 28 24
-120.770115341467331 -103.821723073702032 -4.469507796967633 24 26 23
-120.760418354941834 -103.249330501063568 -4.590897611298914 27 29 24
-120.782901568327318 -102.672047538635326 -4.142648442933705 25 28 21
-120.824701834048668 -102.088508266598765 -3.352645807520645 23 26 20
-120.847293242486700 -101.506054027020241 -2.904398109566728 25 27 22
-120.850689298029010 -100.927134435186929 -2.797873673498486 27 30 24
-120.828486915169279 -100.356375917376440 -3.146946976264928 26 29 24
-120.838434658590685 -99.775002934680117 -2.926454604236739 27 29 25
-120.816378913953614 -99.206144025358469 -3.275438202155613 27 28 24
-120.839284038163910 -98.617957809219050 -2.827099425765823 28 29 25
-120.843015466488481 -98.037385122478426 -2.720431564644457 29 30 26
-120.853223059641579 -97.452722140312730 -2.499848747012635 29 30 25
-120.876311871951685 -96.859340032686902 -2.051475578786778 26 29 23
-120.886646564457806 -96.271935738941323 -1.830860174957394 15 20 14
-120.890640640854969 -95.687786661650776 -1.724103477482942 23 28 23
-120.881892923158631 -95.112336287274687 -1.845070640349519 39 44 40
-120.879621897996103 -94.532517363436384 -1.852125458461956 45 50 46
-120.909436139400214 -93.926822122100162 -1.289802728360769 45 49 47
-120.932909868528938 -93.323832439973387 -0.841344312839027 46 49 46
-120.962848672646402 -92.712929858359502 -0.279015594132147 39 44 38
-120.928851030284008 -92.159180204044716 -0.855274397678329 28 33 26
-120.894935474983569 -91.608134939758415 -1.431466093410307 33 38 32
-120.861101980529639 -91.059792941796616 -2.007590705436286 38 43 38
-120.859337389234398 -90.480119789799559 -2.014401746819743 43 48 45
-120.876836658586996 -89.879186294746063 -1.679639211930123 6 12 10
-120.894406082072521 -89.276593818393991 -1.344860192271767 7 13 11
-120.912046579723068 -88.672340930241717 -1.010064262429211 10 16 14
-120.923364701078640 -88.074322559665177 -0.789087645633998 10 16 14
-120.890000882916851 -87.532367704644599 -1.364921820060886 9 15 13
-120.875900318205154 -86.967783667539763 -1.599196798843792 7 13 11
-120.810739852035468 -86.473968830559940 -2.744041275901026 7 13 12
-120.828765309050851 -85.868749216784749 -2.409071133810357 7 13 12
-120.782951956256397 -85.354448966292097 -3.212294230036093 5 11 10
-120.813917864503011 -84.729552128551802 -2.649618198142861 4 10 9
-120.761882306946333 -84.229344166489440 -3.566531801715200 6 12 11
-120.805788170235147 -83.582311153010195 -2.776175428620490 9 15 11
-120.811432307579096 -82.993516697349477 -2.668677164858167 9 15 13
-120.810769873111951 -82.414757242310429 -2.674951533051114 10 16 14
-120.771856318062632 -81.901320870908606 -3.364006012424198 11 17 15
-120.771365451227950 -81.324109537400986 -3.370182367657236 12 18 18
-120.764572060397029 -80.758291687012090 -3.490115434841954 11 20 19
-120.745088914668912 -80.216396155991447 -3.837590762662813 12 21 21
-120.744860628837500 -79.640132066604025 -3.843631749584318 13 23 24
-120.757498781945642 -79.039301058814289 -3.622052586011165 12 22 24
-120.770227321270369 -78.437326029863542 -3.400441957966365 11 22 26
-120.757493505073086 -77.885418796938978 -3.633932600231077 13 24 30
-120.764018217048658 -77.295317446949298 -3.526026525103248 12 22 32
-120.815358222383452 -76.611168160003743 -2.621636855463692 16 26 36
-120.822074020427365 -76.017946420184487 -2.513671485155839 22 31 41
-120.867221619575631 -75.340746929859321 -1.723031588582728 17 26 35
-120.861356544112041 -74.773004579254589 -1.842540362725202 20 28 34
-120.938655747545354 -74.018010810356373 -0.483025599856092 24 29 33
-121.092743784766583 -73.079830326138548 2.241645664046871 24 30 33
-121.202221469342462 -72.233380889977241 4.169907527471821 3 7 10
-121.254303029479985 -71.514912287079241 5.074298688427490 0 6 6
-121.248979324144756 -70.931794417031924 4.954890635953092 1 7 3
-121.269331894317233 -70.285918612194095 5.290555566402929 0 6 2
-121.283407296240100 -69.654401338618626 5.512506435733428 0 7 0
-121.284812643707198 -69.054412141712987 5.507002758932117 0 5 0
-121.299120577951697 -68.421084559517936 5.729046236512119 0 7 0
-121.275181549833249 -67.887969494257050 5.268670726653738 2 9 2
-121.270540514330008 -67.305431978640684 5.149595234966711 2 9 2
-121.234037314236161 -66.810576471033599 4.461885123307582 2 9 0
-121.255218215410665 -66.159431788941561 4.797892089269055 2 9 0
-121.212548265045569 -65.686474945443749 3.996598354448167 3 9 0
-121.233979347546025 -65.034582655081579 4.332717310790969 1 7 0
-121.236343298612809 -64.436564290871871 4.327692513436915 4 7 0
-121.283644602183173 -63.706744452887847 5.118821087150650 3 8 0
-121.254264098041787 -63.202028948879125 4.545275839844919 1 8 1
-121.250618739369372 -62.622493940817677 4.426707582859393 0 7 0
-121.298345513890666 -61.886313493658406 5.217974227472126 0 6 0
-121.391073064594281 -61.006821401088658 6.805306104844249 0 6 0
-121.381454603522684 -60.442455656197495 6.573177596070764 0 7 0
-121.327106576981308 -60.022253309434916 5.545122368331789 1 8 1
-121.369038271168250 -59.295899452573678 6.222858931486314 1 8 1
-121.398310088884841 -58.608133465273603 6.673218487617191 0 7 0
-121.402086557663381 -58.003152536448056 6.668797764719471 2 9 2
-121.335436834487140 -57.635111129759579 5.413676596395732 2 9 2
-121.320242712175883 -57.098345250072427 5.068305924754043 2 9 2
-121.330870842248842 -56.474674812388898 5.177829517551032 1 8 1
-121.341659444304725 -55.850306577018920 5.287422696812428 2 9 2
-121.352611075748058 -55.225236705604381 5.397086646481768 1 8 1
-121.338024205641119 -54.691159471587625 5.052034157793713 1 8 1
-121.330016152061546 -54.135370322081769 4.820764345649195 2 9 2
-121.322165011486419 -53.580515891939321 4.589579221684232 3 10 3
-121.340204372720621 -52.931598502183931 4.813247327424961 3 10 3
-121.358424240835973 -52.281410284015465 5.036988705763719 3 10 3
-121.441206183537332 -51.386963830184563 6.397690935764388 4 11 4
-121.434060358716863 -50.829763528234935 6.166819085201780 3 10 3
-121.433526731783530 -50.248629944809629 6.049723015074903 3 10 5
-121.394494451156390 -49.818598355668783 5.250611380194641 4 10 6
-121.413645975413104 -49.163637828001036 5.474749335858888 4 10 6
-121.394286182221506 -48.661423020818773 5.016882588172592 3 9 5
-121.375092233327351 -48.161209488672313 4.559115779958972 4 10 6
-121.356065887318692 -47.662993763163783 4.101449716818649 6 12 8
-121.395358049533513 -46.928266478541332 4.666978460106378 8 14 12
-121.396094754395875 -46.351225229366776 4.550532236808493 10 16 14
-121.442299321750596 -45.585150013087812 5.229904055933503 9 15 13
-121.436980030154700 -45.034163437505349 4.999969973611741 9 15 15
-121.438328460534890 -44.456446061518960 4.883809437991829 5 11 11
-121.394530982958130 -44.074207091775932 3.972051217744564 6 12 10
-121.402743608467091 -43.470895254183432 3.969769917815341 7 13 11
-121.430629677722294 -42.782039737568482 4.308596436639164 5 11 9
-121.432798219879842 -42.206112227983205 4.192846663676420 5 11 9
-121.441674733090892 -41.601495719185046 4.190869535712125 8 14 12
-121.457274632745623 -40.967354908950306 4.302663829230710 10 16 14
-121.453604170850340 -40.421011439214013 4.073566335206976 6 12 12
-121.463161767972267 -39.815869805610319 4.071909630077670 4 10 10
-121.453420467108728 -39.300729823982749 3.729370175758504 4 10 9
-121.482985481816812 -38.604744296994973 4.068926503553485 3 9 8
-121.525861468742121 -37.845508314884775 4.635917455963067 3 9 8
-121.549454711352027 -37.175977186601614 4.862030331950763 1 10 5
-121.586377835074998 -36.442625523684562 5.315581010389224 4 10 6
-121.584382259972131 -35.895626639117850 5.087278029951818 5 10 6
-121.569542341019783 -35.412939439600237 4.631774582084233 5 13 9
-121.489462737041478 -35.252521260430449 3.039789120238908 7 13 9
-121.481559565100611 -34.744097342186137 2.698198152310084 5 11 7
-121.506673185354501 -34.074041980922217 2.925032975557826 5 11 7
-121.584578172616148 -33.139556266716099 4.061272172730895 5 11 7
-121.584054233746713 -32.596955854170510 3.833718493705362 8 14 10
-121.564063335346859 -32.155402035556058 3.265315356558972 9 15 11
-121.517974298720546 -31.851108011231894 2.242404303876100 7 13 9
-121.518164108092236 -31.313555414381433 2.015244039265383 6 12 8
-121.610913271886488 -30.297006507258576 3.379457691781312 7 13 9
-121.605124553200156 -29.791562499465670 3.038908944756969 6 12 8
-121.645833642937433 -29.043619978072918 3.494120625323347 6 12 8
-121.620775986131065 -28.644098215662474 2.812867340471797 5 11 7
-121.589324064025305 -28.282913972816623 2.018090803446285 2 11 6
-121.630971711277752 -27.532906405589095 2.473730230156633 3 12 7
-121.692889881113487 -26.672391075110038 3.270506148229231 2 11 6
-121.688823765439054 -26.169789286502109 2.930810744971041 3 12 7
-121.685037392093463 -25.668430178939659 2.591261961024372 2 11 6
-121.694844967615140 -25.094727969953894 2.479189581575554 3 10 6
-121.771602041483774 -24.150421912608923 3.503919650270461 3 10 3
-121.822153637891034 -23.349990410017277 4.074158541759260 4 11 4
-121.799657954633176 -22.960236965973124 3.394231446479694 5 12 5
-121.757350452561013 -22.687125642919998 2.373450446174587 7 14 6
-121.708549280877605 -22.456794427830555 1.239144368807558 6 13 5
-121.680046449214501 -22.116165201479859 0.445990249651857 6 12 8
-121.685346161151983 -21.585165301047642 0.221341995109356 6 12 8
-121.798523133057955 -20.430040428433429 1.815619578818854 5 11 7
-121.764241800215459 -20.131699854602260 0.909277457929903 4 10 6
-121.723448542395801 -19.876962729631913 -0.110589998263976 4 10 6
-121.757109919349091 -19.187921688120760 0.120138613345119 5 11 9
-121.892578202437122 -17.894484446388621 2.056233219979902 7 13 11
-121.920465977239601 -17.238242616486637 2.173678493951797 8 14 12
-121.962328288625187 -16.499348442974714 2.518676126071597 8 14 12
-121.943554771775283 -16.127448828383478 1.840713480878634 7 13 10
-121.959062411036143 -15.551767684552470 1.731347622214003 8 15 10
-122.036249386055005 -14.601605061123072 2.645364184648344 8 15 9
-122.202690714137873 -13.101683149557017 5.037586279088174 8 14 9
-122.048949369578736 -13.571337882628658 2.086540331001800 8 15 8
-121.949806693407012 -13.715520126994484 0.045135026257526 10 17 10
-121.946645289317104 -13.270879999767365 -0.404389822502168 11 18 11
-122.060537968526006 -12.096273505565897 1.079170734089644 14 20 16
-122.023891362824259 -11.866591534078243 0.061544927336882 13 19 15
-122.187255955843298 -10.376719021846473 2.341539680863633 11 17 13
-122.206647452980889 -9.796455785189130 2.233984680711188 7 13 9
-122.261049231058195 -8.995111677293139 2.695197207088285 7 13 9
-122.281398688543590 -8.413080855733257 2.588082297243233 6 13 6
-122.309144218960313 -7.786104519517487 2.594901881496327 6 13 6
-122.330427964953543 -7.203404832663398 2.488227047104431 8 15 8
-122.449687638907250 -5.985724102415407 3.973911770835372 6 13 6
-122.241826618823424 -6.904345571606629 0.114725516277304 6 13 6
-122.334197760808422 -5.867281493743212 1.145970496735686 5 12 5
-122.350268293789767 -5.332488677693233 0.926435923675456 4 11 4
-122.261503957298359 -5.495556260441500 -0.998951137744086 4 11 4
-122.408342720877513 -3.682897364451410 0.382944033858649 3 10 3
-122.433387799382714 -3.101638714610702 0.278083441365595 2 9 2
-122.395239577016596 -2.949099359324739 -0.850325550871048 11 18 10
-122.612747306189831 -1.074800660806456 2.116767311072948 6 13 5
-122.279017919346856 -1.024868790224239 -6.468676911447687 71 75 61
-122.257623961191868 -0.805784710222052 -7.368037929554362 83 87 72
-122.144543392905447 -0.527248311018764 -10.861627833431157 91 93 80
-121.960422744697283 -0.812705006345889 -15.491986452994496 93 96 79
-120.404876364147214 -129.535407318601671 -5.377282966688824 168 176 178
-120.354219160871594 -128.883149066916019 -6.184243415391876 151 159 161
-120.303704321333214 -128.234777409732203 -6.991095751101341 151 157 160
-120.259598237189223 -127.601193663725908 -7.683871055878399 138 143 146
-120.253217637486330 -127.034731925248778 -7.692754388145488 120 124 127
-120.171778794904739 -126.344031069776889 -9.069130801216943 105 109 112
-120.027907154017413 -125.559081086707096 -11.584933853817859 129 130 134
-119.921795211080322 -124.845064559537647 -13.416789333130509 148 149 153
-119.897163335219133 -124.263847565418914 -13.767132551371759 144 145 149
-119.872634769642644 -123.684317964479007 -14.117408977141253 116 116 118
-119.854456148512398 -123.115468325034911 -14.353678792124100 127 122 119
-119.817636278867880 -122.521591738252951 -14.931700786202214 104 85 81
-119.799654182527902 -121.955835007652965 -15.167844747534588 112 75 70
-119.794244080746566 -121.407566062665964 -15.176076529359932 141 94 90
-119.813863404082724 -120.890955274292480 -14.728572907011113 133 86 80
-119.839775836417715 -120.379836243493898 -14.167143268548244 122 75 65
-119.847044786769985 -119.843955265838858 -13.947464149881142 117 73 59
-119.860610991100742 -119.314108697127182 -13.613851446372735 115 72 56
-119.849330942979222 -118.755409625868282 -13.735857637856554 112 69 53
-119.863030530337099 -118.223455650809072 -13.402202816957413 109 66 50
-119.858124402782678 -117.671095278794070 -13.410235614353809 109 66 49
-119.859512781458477 -117.124764025938845 -13.304336195872708 107 66 48
-119.873405310022108 -116.589366761588451 -12.970624516068483 102 63 44
-119.893572327146273 -116.057816311922778 -12.523012660327566 105 66 49
-119.920006605182635 -115.529294180774528 -11.961512511524347 109 73 58
-119.977543703137172 -115.022607170244356 -10.830613695815941 110 77 64
-120.109609435156031 -114.566105217966197 -8.333237437972770 121 95 83
-120.204413347396766 -114.071474244472611 -6.519232897681292 44 27 20
-120.268199661887053 -113.547705887213908 -5.274661420164989 21 13 8
-120.301000941984526 -112.998885110798795 -4.599465378632402 20 17 12
-120.327648578483121 -112.443273948420313 -4.038142000879020 13 18 11
-120.317159108159288 -111.865328446530157 -4.159968095833364 13 18 11
-120.319135911341945 -111.293946970429516 -4.054045031617136 13 18 11
-120.314984721314318 -110.719312326413871 -4.061945949759803 12 18 8
-120.335671085878801 -110.154515231316068 -3.614427864406707 12 18 8
-120.362601387163565 -109.589738663186353 -3.053063604914144 13 17 11
-120.364828745165369 -109.014612886478972 -2.947059218098389 16 18 13
-120.360934550788940 -108.437318639142319 -2.954864567035486 19 22 15
-120.344739353758541 -107.857305960784373 -3.190300425494968 18 21 14
-120.359533324792750 -107.283861516560648 -2.856549137438435 26 29 22
-120.368203290680000 -106.707972911210589 -2.636611596351628 29 32 23
-120.327498690677217 -106.126613937060355 -3.327222066962719 25 30 26
-120.305414540520317 -105.549360568642285 -3.676305662369401 25 30 26
-120.258702805575339 -104.973731065871121 -4.480589834339412 27 29 26
-120.255301339338345 -104.400043766388450 -4.488122335697255 25 27 24
-120.227274559852773 -103.828522610335142 -4.950848744984114 25 27 24
-120.217840169282510 -103.256746037186460 -5.072106593518356 28 29 25
-120.251663194582576 -102.677923275481533 -4.396730578089404 26 29 22
-120.297870681051648 -102.093120922011167 -3.493773659988562 26 28 23
-120.325620171370076 -101.508850989610991 -2.932218158261350 27 29 24
-120.328759826953799 -100.929464422227241 -2.825821189868350 27 29 24
-120.307306882421372 -100.358227357423800 -3.174540889832400 27 29 26
-120.310579143749479 -99.778836693159874 -3.068080525477114 27 29 26
-120.289269784700352 -99.209771498227468 -3.416709178490521 27 29 26
-120.304994899060532 -98.624390898089530 -3.082635299507558 27 29 26
-120.308461421138702 -98.043896670700107 -2.976093361004899 28 30 25
-120.330464826233580 -97.452245020870578 -2.528221635398921 14 16 11
-120.352525604788184 -96.858406900199171 -2.080344968969285 35 38 32
-120.350023811014083 -96.278700503107871 -2.087509027700122 23 28 22
-120.353743768297804 -95.694631473983279 -1.980882643893949 22 27 21
-120.326765127841668 -95.133128405037908 -2.443004505858568 40 45 41
-120.330622519160343 -94.549307243771366 -2.336309822652737 44 49 45
-120.346847920334355 -93.954589381639153 -2.002092721301267 45 50 46
-120.381585450822612 -93.341898314650578 -1.326627833205151 45 47 44
-120.397934402660312 -92.743064090698667 -0.992393997419697 34 38 33
-120.371313089712942 -92.184480572975730 -1.454314862721588 27 32 26
-120.338622871834147 -91.634315363662381 -2.029911302383255 31 36 32
-120.336742556874555 -91.054199926828773 -2.036782258231057 35 41 39
-120.347223927622764 -90.460457029765649 -1.816161930461561 37 43 41
-120.351629589615385 -89.872677622012802 -1.709245700664184 3 9 7
-120.313101265651767 -89.335764757506595 -2.398357542143401 9 15 15
-120.311511992617767 -88.756373949996529 -2.405081805557955 8 14 14
-120.322280524897423 -88.161171448389666 -2.184339125138962 8 14 14
-120.320837738008521 -87.581181806248637 -2.190999474189510 8 13 16
-120.313329168450807 -87.009600679240720 -2.311334004727172 5 11 9
-120.275196634279666 -86.482084030260594 -3.000159781759635 7 13 10
-120.280124633123634 -85.894927998146741 -2.892987251084378 8 14 11
-120.248294099765815 -85.362723577437677 -3.467987541198141 8 14 11
-120.290209264518992 -84.718880346737507 -2.678550677422692 8 14 11
-120.283091514766724 -84.149585665379732 -2.798674705571358 8 14 12
-120.294467255852950 -83.550581116901512 -2.577680674919094 9 15 15
-120.281372652865940 -82.991827569784206 -2.811414388898612 10 16 16
-120.274497807700754 -82.423506184545914 -2.931412193699515 11 17 17
-120.243159260964774 -81.899248753896075 -3.506095316738850 11 17 17
-120.218042999323600 -81.366511042714819 -3.967030126784209 12 18 18
-120.199148739476755 -80.824473872034034 -4.314225191586104 9 21 19
-120.174204538093548 -80.295734106873951 -4.775036535727025 11 22 21
-120.167754775659049 -79.733185242855441 -4.894771562945891 12 24 24
-120.204341883071805 -79.085357692806028 -4.218783521060146 11 23 23
-120.241015995151500 -78.434205976474075 -3.542788073753457 12 23 25
-120.240965330201178 -77.856521576420818 -3.548758707425492 15 26 28
-120.228734017021466 -77.304925324389728 -3.782005752886505 15 25 27
-120.228865661931422 -76.727674120471946 -3.787884711040846 17 27 29
-120.247497670297690 -76.109511939400463 -3.452757621209940 25 32 39
-120.229409097785663 -75.572993103193966 -3.799510444963715 23 32 37
-120.229823437511712 -74.995559485425957 -3.805256040564444 20 31 35
-120.322380434233196 -74.201520824770185 -2.106267255609481 20 29 31
-120.476411012049880 -73.252137199017113 0.729120085267994 23 33 35
-120.618284577990067 -72.318999120516878 3.337141007072432 9 17 17
-120.698904677092202 -71.525779914401767 4.808709886338875 2 7 6
-120.705987527559131 -70.911722658985866 4.916636382838874 0 5 1
-120.707040627196349 -70.312842614804723 4.910975608949343 0 4 0
-120.702064084953136 -69.729956769163024 4.791736026451986 0 6 0
-120.709475988721238 -69.114840084153357 4.899809035682324 0 10 2
-120.772261922419062 -68.349506908879221 6.030556501512422 0 6 0
-120.755346050627665 -67.798241728380788 5.684212902234066 2 7 1
-120.756966396270073 -67.197024867991686 5.678799442865937 4 9 3
-120.721850977687879 -66.700358273127577 4.991734598694109 0 6 0
-120.723703569242105 -66.100594261250265 4.986447199873680 0 6 0
-120.707245124968352 -65.554694605250745 4.640377662390875 0 7 0
-120.703193634118875 -64.973814380515805 4.521601266172979 0 5 0
-120.699264551799160 -64.393378640102370 4.402888005076619 0 6 0
-120.738488845111249 -63.681730689193706 5.079480732210328 0 6 0
-120.728669404774521 -63.119342164872371 4.847276428169977 2 5 0
-120.755871700141100 -62.441807235966955 5.296751245326050 0 4 0
-120.770914963194286 -61.801226078207705 5.519071836990463 0 4 0
-120.823009371060948 -61.040018137141743 6.423029206777557 0 4 0
-120.807576167573103 -60.496247612168013 6.077472057187776 0 5 0
-120.786118783600713 -59.974446541349593 5.618400218010947 0 7 0
-120.795571556026673 -59.351089836782840 5.727364753150965 0 7 0
-120.842117069731074 -58.601067218299761 6.517923802214767 0 7 0
-120.827236446104109 -58.059795415454417 6.172656725538417 0 5 0
-120.800171251550765 -57.563123613542963 5.600301912269913 0 6 0
-120.785564009105087 -57.025412637666356 5.255202273594364 0 7 0
-120.851238696732651 -56.201974313018802 6.386733603910642 1 8 0
-120.886272272977067 -55.484747639189386 6.950405196845878 1 8 0
-120.890639581475753 -54.877842507608854 6.946247322859449 1 8 1
-120.808777722460675 -54.591629895096609 5.352114371017450 2 9 2
-120.782573284226231 -54.104215124310990 4.780266627893212 2 9 2
-120.812084831793825 -53.408183665900424 5.230655789316700 2 8 2
-120.823248434750468 -52.781014182526405 5.340399533070752 2 9 3
-120.871662415001396 -52.009028891575383 6.131626377304997 3 10 3
-120.870825421195860 -51.427350694886989 6.014379571528394 2 9 2
-120.901079918955105 -50.723214815364187 6.465040734899162 4 11 4
-120.906783414513797 -50.116060413877769 6.461519522361812 4 10 5
-120.906476759009479 -49.533835202563786 6.344520797914271 4 10 6
-120.918731842083787 -48.901187056305481 6.454730307386029 4 10 6
-120.863029087972549 -48.550122525210554 5.315879767969278 4 10 6
-120.844645141783118 -48.048714706925750 4.858488168885998 4 10 6
-120.832628112394389 -47.523089552562666 4.514752084690656 4 10 6
-120.845601999487869 -46.892939248372912 4.625331179084554 5 14 11
-120.877399509162686 -46.181720787230056 5.076657609496124 6 15 12
-120.909420928309686 -45.468079405585151 5.528066217093794 6 15 14
-120.904385532721051 -44.915927378241278 5.298255953068292 9 18 17
-120.868452834646121 -44.502629364581807 4.500799394955237 4 12 14
-120.876225599604965 -43.897861248085995 4.498292677036204 6 12 10
-120.915331845301552 -43.152116977518837 5.063619075128173 7 13 11
-120.942231191990516 -42.460215995377247 5.401942200751932 5 11 9
-120.944440514265821 -41.881210219565666 5.286180250717081 5 11 9
-120.946861775451197 -41.302503353174757 5.170522768355170 8 14 12
-120.974459207380093 -40.607076379364514 5.509143560761402 10 16 14
-120.958596293196564 -40.116435395499117 5.053068843183809 10 16 16
-120.942929110772823 -39.627738045165863 4.597107769805547 8 14 14
-120.889941301845226 -39.321483789602524 3.460017305535388 7 13 13
-120.949735475583950 -38.473990634930288 4.366770039873472 4 10 10
-120.984792282555006 -37.744328613999699 4.819465858113489 3 9 9
-121.032662368013334 -36.950322935242774 5.499346953109068 2 11 8
-121.030663570580927 -36.402231921556883 5.271031189286560 5 10 8
-121.054001546614671 -35.729060954673635 5.496984479931996 6 10 9
-121.077613459308424 -35.054465226034793 5.723054155148077 5 13 10
-121.051210503331433 -34.634648751248022 5.040948380114969 7 13 11
-121.050173749068549 -34.088623601571776 4.813114119423204 5 10 8
-121.017893785607185 -33.706291536703048 4.017723765095582 5 11 8
-121.099255185359041 -32.736017162543860 5.266106992421356 5 11 9
-121.105310673427283 -32.156944706388309 5.152184348544012 8 14 11
-121.067432045331401 -31.812003128145662 4.243641606387627 9 15 12
-120.985499416815514 -31.707041681282579 2.540481623039369 7 13 9
-121.011212615529445 -31.032487869532304 2.767556977756527 3 9 5
-121.075228824925148 -30.150912221117789 3.675978691251316 4 10 6
-121.076250480787422 -29.609833690057631 3.449180084938178 4 10 6
-121.083886226924108 -29.034669370140097 3.336053659513709 6 12 8
-121.091807643896274 -28.459667377346541 3.223065568952393 5 11 7
-121.074586176116426 -28.026316178285484 2.656071751605481 1 10 5
-121.013049048727979 -27.844931765440279 1.294458900867681 1 12 6
-121.130068034145125 -26.663692094773896 3.112023447777261 2 13 7
-121.171079911684814 -25.907628947259376 3.567296391306286 3 14 8
-121.174152355387065 -25.367855988138796 3.341492313774182 4 15 9
-121.177520280360426 -24.828759563470090 3.115836557378287 5 14 9
-121.232397091240458 -23.993871480496800 3.798648822674380 6 12 8
-121.262064419375804 -23.304499191956879 4.027463285327343 6 12 7
-121.195850586752073 -23.177833171850484 2.553317473819504 7 14 7
-121.129772505391372 -23.058009008116478 1.079307031915306 8 15 8
-121.134591813170971 -22.524999888126111 0.854408271764072 8 15 7
-121.184817064989872 -21.723357744470203 1.424478579383759 7 13 9
-121.241931719639140 -20.879636105879854 2.108270493242799 6 12 8
-121.247842432761857 -20.344257644109259 1.883869468841482 5 11 7
-121.254084037780217 -19.809482490951062 1.659632952147433 5 11 7
-121.163514658123304 -19.869267264290510 -0.267680777577368 5 11 7
-121.215691615959102 -19.060756384715638 0.303252516161564 7 13 11
-121.281330260021193 -18.168525016395961 1.101481827241059 8 14 12
-121.386513791751767 -17.029059849773951 2.581237684869961 8 14 12
-121.427198856876444 -16.288956423681565 2.925659678969510 9 15 13
-121.474866239218201 -15.505535635619879 3.383834987245280 10 16 14
-121.483813870811247 -14.967045337977204 3.160854782540554 9 15 12
-121.525854151079116 -14.221141173307119 3.505865397003078 11 17 13
-121.548708910266129 -13.598514444855319 3.510390025761836 13 19 15
-121.499764473973187 -13.438987990271430 2.265885355145343 12 18 14
-121.470739415641347 -13.157766242411464 1.362234030640764 10 16 12
-121.494670602572782 -12.538618341006588 1.367309428057183 10 16 12
-121.532236521811697 -11.832764378606521 1.599732895471249 6 12 8
-121.616563666663836 -10.821950961000837 2.627399866507005 3 9 5
-121.622086809583053 -10.328363658309160 2.292384722322851 4 10 6
-121.747406409090161 -9.045972117685478 4.002020162628668 5 11 7
-121.733987001905774 -8.681715408229367 3.326697577409448 3 9 5
-121.727551413243376 -8.275717826991819 2.765145252190990 3 9 5
-121.674773158196587 -8.185052178585227 1.408656429774055 4 10 6
-121.749161345776557 -7.244940962472606 2.210578641155479 6 12 8
-121.757253684750879 -6.753215882700044 1.876811760353604 5 11 7
-121.953638074514330 -4.985324726851541 4.724035710499521 5 11 7
-121.841927984683778 -5.313572060191625 2.345936217804166 4 11 4
-121.871634818507431 -4.683162886954001 2.353658746968392 4 11 4
-121.807347667263670 -4.702663876733033 0.771080338768854 3 10 3
-121.864959770306740 -3.887542008924306 1.233686852201373 3 10 3
-121.936775329849326 -2.975092368403894 1.923804176721063 2 9 2
-121.893804922567583 -2.863322567228451 0.682649044330645 4 11 3
-121.919143362803169 -2.280591289635022 0.577913636586686 6 15 5
-122.047365769535560 -0.978401629876174 2.177875093012602 7 17 6
-121.718016077125768 -0.655877319527521 -7.184292024068071 83 87 72
-121.553924996173293 -1.138218087542060 -11.027029746202317 90 92 79
-119.910097897748244 -129.045475421011446 -4.843014209754671 164 169 172
-119.843360458382705 -128.359847651174334 -5.990587532259866 153 158 161
-119.824905896289849 -127.766978972926097 -6.227236596485909 145 150 153
-119.794530585189506 -127.153997563609551 -6.691513306461871 134 138 141
-119.764270572645827 -126.543256866740464 -7.155711793224697 115 119 122
-119.686068718369228 -125.854061862682855 -8.530524141701392 95 96 100
-119.553988737405277 -125.083142161836548 -10.929682798949869 135 136 140
-119.464123712697770 -124.390516960466442 -12.531827846767754 155 156 160
-119.410412470628557 -123.761188206281687 -13.450872197245189 130 128 129
-119.374815530882074 -123.163257914086913 -14.028350872678118 118 106 105
-119.339327687755656 -122.568100625158010 -14.605748812746299 106 77 73
-119.327907968648233 -122.009516776820149 -14.727820636303647 159 115 109
-119.328547910774972 -121.467877432425027 -14.622230971131359 149 102 94
-119.347215636919771 -120.949451025418284 -14.175201278691787 141 95 83
-119.342010811180060 -120.398353094751528 -14.183363977333187 132 86 71
-119.342862362851605 -119.854654496167640 -14.077694275817890 127 81 65
-119.337807292186781 -119.303360614732696 -14.085787349164491 119 76 58
-119.344776716909706 -118.765733579694142 -13.866269495577598 116 73 56
-119.339865592427699 -118.213965736518460 -13.874298584290017 116 73 57
-119.352937744116261 -117.681042552544938 -13.540953903018618 113 70 53
-119.366068190080682 -117.146516847924545 -13.207597829515521 109 68 50
-119.379256475446240 -116.610387447097352 -12.874230593491859 107 68 49
-119.392502168530939 -116.072653187443649 -12.540852413430287 106 66 49
-119.393883225390141 -115.522951523483002 -12.434991191015769 104 66 50
-119.413205564331747 -114.987457192972812 -11.987824022768848 108 72 58
-119.515969662999211 -114.514712879641309 -9.948068296347117 116 84 74
-119.654450920443054 -114.058369675626977 -7.225903469214700 105 82 75
-119.733377859125440 -113.548065169828931 -5.641373524034492 22 6 1
-119.776615005381288 -113.007244685054630 -4.739384879041069 22 14 9
-119.790148052693652 -112.444355952059198 -4.406128157332546 17 16 12
-119.809683594525865 -111.883128175244210 -3.959123880843748 16 15 11
-119.805495251827963 -111.307733747184713 -3.967050393535345 15 16 11
-119.813258866209139 -110.737816897756062 -3.747484977618683 14 15 10
-119.821082120240632 -110.166828061669023 -3.527902064794944 13 16 9
-119.840841342073702 -109.599136189933475 -3.080857318736776 12 17 10
-119.830970167081077 -109.019717260182048 -3.202402790057135 15 20 14
-119.827103593592270 -108.442497172945309 -3.210194161889063 19 24 17
-119.793638914179652 -107.858448736684693 -3.786509878370310 23 28 21
-119.795843813236303 -107.283710166642820 -3.680512250124195 25 30 23
-119.780322484225636 -106.705966457346534 -3.915602376794510 24 30 20
-119.770800544110514 -106.129872540198193 -4.036946549321499 26 28 23
-119.737642807056872 -105.553214620889122 -4.613039351326620 27 28 23
-119.728263146409816 -104.979314076284140 -4.734292880358339 27 28 23
-119.718950808399967 -104.405964078300570 -4.855508535418323 24 25 20
-119.709705553588506 -103.833163545973122 -4.976686442180011 25 26 21
-119.700527171167067 -103.260911403612695 -5.097826712566132 25 27 21
-119.721005775998137 -102.683796491442010 -4.650534812236458 26 29 22
-119.771118899161266 -102.097734198249455 -3.634863535200623 28 30 25
-119.791693863312631 -101.514904824595519 -3.187584358725161 29 31 26
-119.800493947425437 -100.933694663754466 -2.967639346969207 27 29 24
-119.779791048835875 -100.362248945415061 -3.316002375300826 28 30 27
-119.794626055582071 -99.777774950408144 -2.982344988607309 27 29 26
-119.774059678785278 -99.207956585938376 -3.330625954210348 27 29 26
-119.783106893324600 -98.624828603422159 -3.110582457207443 27 29 25
-119.786306398244008 -98.043865834201938 -3.004173081734706 25 27 22
-119.807285312196157 -97.451755217526440 -2.556796193556067 5 7 2
-119.816510266884151 -96.865067513453326 -2.336704308277518 25 28 22
-119.813988957717058 -96.285435104333203 -2.343876941510104 54 59 53
-119.799728741332302 -95.714490414416389 -2.578293770500892 20 25 19
-119.791439883523310 -95.140002296444337 -2.699031511381719 39 44 39
-119.795019223751908 -94.556259363676972 -2.592469041619069 44 49 45
-119.822258506162058 -93.951295316822566 -2.031370636522240 45 50 46
-119.855452134789715 -93.338155697423261 -1.356648962959554 40 42 39
-119.853319649034532 -92.755994700976856 -1.363661612424266 28 32 27
-119.851255062872653 -92.173816608715484 -1.370641954932097 28 33 27
-119.813888795380677 -91.629149894960733 -2.059277686844013 32 37 33
-119.817860911347807 -91.042040680458626 -1.952561965343364 32 38 36
-119.816007206224242 -90.461165757581341 -1.959428008908191 27 33 31
-119.831900420986898 -89.859053173021223 -1.625445941989966 6 12 10
-119.800726342740816 -89.314037580689018 -2.200264058053619 10 16 16
-119.775521778265343 -88.764104535999039 -2.661418112078223 8 14 14
-119.785735083339162 -88.168990780741382 -2.440940136940611 8 14 14
-119.760681225190496 -87.621728964271696 -2.901994597281060 8 13 16
-119.776926447309975 -87.017581572725490 -2.567865076540386 6 12 11
-119.763800733146297 -86.455301229841567 -2.801649977080785 7 13 11
-119.791963926115997 -85.831229292181277 -2.240306263458137 9 15 13
-119.726005589035921 -85.352417850293122 -3.496236886661791 10 16 14
-119.742544146315126 -84.746237356431351 -3.161987963129690 10 16 14
-119.741498277831582 -84.167775080001036 -3.168442705833087 10 16 14
-119.740529592966865 -83.589276366301092 -3.174860899224882 9 15 15
-119.733753949352305 -83.021080754444810 -3.294809951695441 10 16 16
-119.721173402663496 -82.464004337487779 -3.528280479360689 9 15 15
-119.696905516139807 -81.929749375613568 -3.988825047481384 9 15 15
-119.660952866528206 -81.419949847617062 -4.676425603986047 9 15 15
-119.613317592868270 -80.936239959224025 -5.591064303864897 8 20 18
-119.624603288501163 -80.339808063741259 -5.370086869039142 9 21 20
-119.630088041816634 -79.754215334423989 -5.262631897072140 9 21 21
-119.676838836451736 -79.082284939216819 -4.360311914909914 8 20 20
-119.694258079532432 -78.468550549551409 -4.025719430353348 9 20 22
-119.694114856131023 -77.891511393302594 -4.031727701852503 12 23 25
-119.670527988118721 -77.366687285464593 -4.491849396533468 14 25 27
-119.682328141999434 -76.763949592394880 -4.270690755387704 16 26 28
-119.653037754714731 -76.255352793259533 -4.844232843218634 22 31 36
-119.670903107504330 -75.638340144242832 -4.509460686076835 21 30 35
-119.659445764940557 -75.090421536533185 -4.742299610807663 18 29 33
-119.706916552266819 -74.399218468772233 -3.839833569910297 18 27 32
-119.807439921227555 -73.571246375241302 -1.915665223812795 22 32 36
-119.913954084809021 -72.718950321159213 0.121977604071617 28 36 39
-120.008810864716352 -71.887257958618221 1.932537893871057 26 34 35
-120.109666061961363 -71.031234112380943 3.856576234699645 15 21 21
-120.151788491796069 -70.323813112258449 4.645457815460247 6 12 11
-120.182252662886995 -69.644629506334113 5.207335017041771 2 5 3
-120.183399724961774 -69.044345730260986 5.201704745142735 0 2 0
-120.214090241030078 -68.360901741387437 5.763646375123614 0 3 2
-120.209574869658297 -67.775972142803909 5.644606377814682 0 3 2
-120.216947721758089 -67.157177244272958 5.752622843161191 0 3 2
-120.194993783177125 -66.624920763501493 5.293205831174731 0 4 0
-120.220266521216359 -65.953090447360509 5.741816275164268 0 6 2
-120.210322635034572 -65.386868320242826 5.509512975458790 0 5 1
-120.188713400174663 -64.858151736073907 5.050297306484879 0 6 0
-120.167218943547283 -64.331521765708885 4.591158025588157 0 7 0
-120.175306191888126 -63.712965932371368 4.699518716465803 2 7 0
-120.183521174177258 -63.093757006830771 4.807933792220325 2 5 0
-120.209551947628484 -62.415844472844938 5.256844270428928 0 4 0
-120.223928720135731 -61.774876650723598 5.478842035170231 0 4 0
-120.267930911337913 -61.033216586608546 6.268270447439846 0 4 0
-120.241296849135239 -60.529648943610425 5.696050904053578 0 5 0
-120.232486802350834 -59.967365589623718 5.464330572999785 0 7 0
-120.194300247711922 -59.509642676330301 4.665338489823000 0 7 0
-120.221169308957627 -58.824717238859336 5.114577814700539 0 7 0
-120.224573291449417 -58.222532805693660 5.110007681374668 0 7 0
-120.263560320176197 -57.490975733500051 5.786281967357240 1 8 1
-120.249540843367797 -56.952317343328033 5.441453761536621 1 8 1
-120.294758890878086 -56.194282390445117 6.231295280340333 2 9 1
-120.310595138057920 -55.544075330680414 6.453896148647829 3 10 3
-120.332506582943651 -54.869986177005465 6.790016425244374 3 10 3
-120.277684235702651 -54.491940629090550 5.651309340296308 3 10 3
-120.264403484171638 -53.956930150575211 5.306872087903571 3 10 2
-120.292708728339662 -53.259188597356292 5.756666555050629 4 10 8
-120.338960047995727 -52.487884402057908 6.546865800728966 4 10 8
-120.308395367364284 -52.024686041144349 5.862322519339244 4 10 8
-120.313530296279652 -51.418910094212535 5.858543495593835 3 9 7
-120.271405510394956 -51.009427888713759 4.947305057007071 4 10 8
-120.353972488555854 -50.082661205763785 6.418430645274270 6 11 6
-120.371508945658263 -49.424755595120992 6.641765643129361 6 11 5
-120.401108395024252 -48.714794505424621 7.092053471779451 6 11 6
-120.318065778430977 -48.489954264047313 5.387128501285815 4 9 5
-120.312371124938750 -47.936032697847907 5.156984635786614 5 10 6
-120.283071773363901 -47.487848596019113 4.473201232791666 7 12 8
-120.295561781570342 -46.857371804166519 4.583545480483053 8 12 13
-120.343955869089442 -46.065573733686428 5.374558865209821 7 11 13
-120.416405661308630 -45.161559883050820 6.619360862893444 10 13 17
-120.423593356728432 -44.551687045580096 6.616521704255035 12 15 20
-120.377336244742992 -44.189874150230125 5.592938174261974 13 16 21
-120.378936272320487 -43.609891265234729 5.476874681856515 9 14 17
-120.428478615158340 -42.805111548799246 6.268303761388665 7 12 15
-120.460368006289883 -42.081472010338231 6.719546291185537 5 10 13
-120.444700688240815 -41.584909290396446 6.263504190723978 3 8 10
-120.423241690570961 -41.119273388961417 5.694150830942789 6 12 12
-120.461792325084232 -40.363700664532374 6.259110257336090 9 15 15
-120.452711747305045 -39.841268266081428 5.916811826165940 8 17 14
-120.419869699730612 -39.439418814764309 5.120951670461864 8 14 12
-120.357222659088961 -39.191544298275517 3.758123424989606 9 14 13
-120.402695865375307 -38.403710007726069 4.436921386404180 7 12 11
-120.484481042008952 -37.428495382620746 5.796315379573315 8 14 12
-120.536571799157088 -36.600866658653544 6.588728415463351 1 11 8
-120.534853000209495 -36.049706254887674 6.360515007182244 4 12 9
-120.551417063018789 -35.404968477862198 6.472661473146445 5 13 10
-120.574265211724793 -34.727625750311866 6.698337490049028 7 17 14
-120.591360770998449 -34.080870104899731 6.810717451166965 8 17 14
-120.572528017543121 -33.626998362474218 6.242741572014495 7 13 11
-120.511638590252517 -33.403580977203596 4.881005912282603 5 11 9
-120.535496448059263 -32.726597294667570 5.107168666388645 5 11 9
-120.583840905405566 -31.915641708893723 5.787102225361593 8 14 12
-120.541705823621697 -31.602103630563832 4.765987577430622 9 15 13
-120.505805308326373 -31.259537693847744 3.858415611329264 7 13 11
-120.536819633645678 -30.547454770851779 4.198499585769014 5 11 9
-120.598514030442772 -29.662106963282959 5.105771723346010 5 11 9
-120.539027430006371 -29.462377710397774 3.744951005019260 3 9 7
-120.570952129581485 -28.746926883056602 4.085435831851214 5 11 9
-120.566664657448513 -28.239898534157167 3.745588967613230 5 11 9
-120.526053027042195 -27.946318804555805 2.725408574909011 1 11 7
-120.510041771075109 -27.514801211762524 2.159012592975557 0 11 7
-120.604266277096443 -26.439072262262677 3.634181759170730 0 11 7
-120.705099630026027 -25.319429228017103 5.222919430259225 2 13 9
-120.683948499723655 -24.921155767092991 4.543547863691003 3 14 10
-120.644637028899979 -24.636096684968038 3.524077170179453 4 14 10
-120.636217465318978 -24.170418588543555 3.071820281557166 6 12 8
-120.677244822107681 -23.407923726088345 3.527034425432987 5 11 7
-120.595571127682177 -23.394852150900618 1.714085298956235 5 12 5
-120.606425981375509 -22.821982605482312 1.602522504819376 5 12 5
-120.642289224663642 -22.096510725313891 1.944788365732620 6 13 6
-120.703263128031054 -21.215043357993753 2.740896880122818 6 12 10
-120.746143706296252 -20.445325347091771 3.196923247305108 7 13 10
-120.715101987647955 -20.141040396655381 2.292069758287596 6 12 8
-120.671876529387632 -19.919353875602091 1.160520067288644 5 11 7
-120.690973102473961 -19.306962872841336 1.163352154165324 5 11 7
-120.716662348870614 -18.654164083992345 1.279781100635034 5 11 9
-120.767670872440789 -17.839647294054764 1.850093597573874 7 13 11
-120.794191380958310 -17.183464481884862 1.966885383540841 8 14 12
-120.889870219977382 -16.078245731364810 3.331587859400258 12 18 16
-120.929835987656119 -15.334634841269180 3.675629639978240 13 19 17
-121.007880321366542 -14.340997764182575 4.700467740401081 11 17 14
-121.036274010025352 -13.674191126134069 4.818046292950243 7 13 9
-121.014781499975967 -13.341038799423458 4.028322851109237 4 10 6
-121.043967219667309 -12.674109147321758 4.146279042343991 4 10 6
-121.035731570835651 -12.260524658354546 3.583787478658081 4 10 6
-120.996207904172238 -12.062707062564801 2.454254406908888 3 9 5
-121.001230769397452 -11.568944916696065 2.118998131842034 7 13 9
-121.000281581914876 -11.119507798987705 1.670482222091607 7 13 9
-121.063244066182392 -10.235938444663532 2.356661545039486 6 12 8
-121.050387634602600 -9.874546194379214 1.681637770737012 5 11 7
-121.133536928673308 -8.853659816352543 2.708637575954469 6 12 8
-121.108713048510239 -8.582276898163157 1.807097356701775 7 13 9
-121.135393836528650 -7.956961930211877 1.813424673139309 7 13 9
-121.175383695418247 -7.240861642614204 2.046902274401162 7 13 9
-121.209478812985097 -6.568134853136412 2.167147431904311 6 12 8
-121.198996707313896 -6.213183111958790 1.493325822373606 6 12 8
-121.285680995326487 -5.172684843562424 2.521814881536216 4 11 4
-121.338135062938392 -3.956329371662900 2.423529284846950 4 11 4
-121.394349588463470 -3.136934435685140 2.885423217148087 4 11 4
-121.425162677564103 -2.502521873490553 2.893633766151225 3 10 3
-121.417362585949192 -2.151242941613026 2.221133029023122 1 8 1
-121.455704599431201 -1.469176086698787 2.343313744989331 10 18 9
-121.194126934051440 -1.098322474292878 -5.545763440481693 75 77 64
-121.150737656917173 -0.705371058930536 -7.455166611904986 81 85 70
-120.970360699957325 -1.036308802791569 -12.304983872968080 92 94 83
-120.862441267071716 -0.575730068737247 -16.573990755006264 94 97 80
-119.349881333100782 -128.990360178716855 -5.665881647499191 182 187 190
-119.418417261186562 -128.563302750914517 -4.196324707097858 162 166 169
-119.342884412714042 -127.856561473697610 -5.570040824950610 152 156 159
-119.313596751819304 -127.241492557021829 -6.033818694558278 146 150 153
-119.284421998391196 -126.628662826409411 -6.497519500553921 132 136 139
-119.226585939305735 -125.967630845918407 -7.529722371508427 114 118 121
-119.140129600411782 -125.262484865254748 -9.130365598388266 94 98 101
-119.019343988094263 -124.507769917081390 -11.413095379809846 153 154 158
-118.938974906604216 -123.828899271634768 -12.899697133467583 165 163 164
-118.904704873873740 -123.229142274579729 -13.476559824323090 103 87 85
-118.876282211613358 -122.640881536924979 -13.939647931495131 177 140 137
-118.859435330088402 -122.071749588825824 -14.175283552760476 188 139 134
-118.842676313500235 -121.503750265956469 -14.410865481060739 177 128 118
-118.837469557350275 -120.952696023405622 -14.419028653500078 157 111 96
-118.820877579039518 -120.386412174252186 -14.654513013028293 143 97 81
-118.833008820201883 -119.858066419825875 -14.321571342345607 132 87 68
-118.833748072736370 -119.313943298666828 -14.215959734176693 127 82 63
-118.846000849570899 -118.782944718140541 -13.882987228116747 122 76 60
-118.841149646800986 -118.230711459363206 -13.890992441244094 120 74 59
-118.864960155927363 -117.709872028278056 -13.330668412602705 119 73 57
-118.865954542115830 -117.162340559175973 -13.224969833205819 117 74 55
-118.878441076017651 -116.625749313982951 -12.891943066673065 111 68 51
-118.879560568715675 -116.076642569488712 -12.786200851851788 109 66 49
-118.892162064678217 -115.537384161445019 -12.453146542310350 108 65 49
-118.893404468157613 -114.986697423125889 -12.347361791062724 107 66 51
-118.940347227302809 -114.472595315828727 -11.332466482962872 113 75 65
-119.089964505974464 -114.032197577564730 -8.272233431995403 121 90 80
-119.211032758346207 -113.556651000317757 -5.780314366611236 59 35 28
-119.269394376929881 -113.027113537003316 -4.538397429329166 26 13 4
-119.287903335917193 -112.466765465467546 -4.091875211306160 19 16 9
-119.295074004622379 -111.897706300172217 -3.872584629994805 16 13 6
-119.296610456470987 -111.324572848269867 -3.766890262314433 17 16 10
-119.292518188347898 -110.748180819309866 -3.774781082065971 15 16 10
-119.299868322602066 -110.176724885749550 -3.555429316190896 12 15 8
-119.307275751446340 -109.604195577859727 -3.336061189561548 16 20 13
-119.292000727054415 -109.022931152330102 -3.571069725447330 19 24 18
-119.293846281782592 -108.447697920821298 -3.465249098095200 21 26 19
-119.255982962226952 -107.862337704972347 -4.154541496670362 24 29 22
-119.240922236438905 -107.284649361250914 -4.389410702432087 23 28 21
-119.208897900925393 -106.705581347395324 -4.964986097339306 23 28 19
-119.199657621910006 -106.131460703088024 -5.086175212273048 24 25 20
-119.190482923778958 -105.557892497229048 -5.207327267009958 24 25 20
-119.181373514350057 -104.984875669061807 -5.328442412248052 24 25 20
-119.195014042271524 -104.411358702114157 -4.995243673935789 24 25 20
-119.197367460577240 -103.837282998126810 -4.889168171376724 22 24 19
-119.199779400474185 -103.262666712335914 -4.783070236769078 25 27 21
-119.207916452658964 -102.686429579695911 -4.563391227337348 28 31 24
-119.250099721485938 -102.100996777061283 -3.662365970692576 31 33 28
-119.264002962615592 -101.519327647463072 -3.329125465587509 29 31 26
-119.277959402106717 -100.936024987944762 -2.995876325312707 26 28 23
-119.258004382309977 -100.364096029063106 -3.343886545231015 28 30 27
-119.249438502510017 -99.788917398120319 -3.464763920279637 28 30 27
-119.229621081721149 -99.219704653744898 -3.812680353943819 29 31 26
-119.243814425717829 -98.634212675636022 -3.479340415121669 27 29 24
-119.258062209558076 -98.047081897513166 -3.145991301456775 14 16 10
-119.278019129822923 -97.454782144337358 -2.699105278432057 6 9 3
-119.269763704247566 -96.879303527367313 -2.819837221150635 16 20 13
-119.278529224123801 -96.292140002569681 -2.599970025772990 41 46 39
-119.247798494671642 -95.734298052660122 -3.174708073435283 46 51 45
-119.251039991225625 -95.151459550748783 -3.068297917167428 39 44 38
-119.248694547568036 -94.572954807947795 -3.075374809307164 41 46 40
-119.274650073084459 -93.968624602500199 -2.514884024659978 40 45 41
-119.278074276120421 -93.383296566126901 -2.408412088266175 35 37 34
-119.287206765186724 -92.791701657690098 -2.188414950543802 22 26 21
-119.307689446569640 -92.187042673649159 -1.741404624974393 27 32 26
-119.294370143906519 -91.617696921652524 -1.975354865394650 29 34 30
-119.286763546084330 -91.042897603872149 -2.095769418772335 30 36 34
-119.273584148096305 -90.475418904529178 -2.329633510764722 17 23 21
-119.294320020474942 -89.866597795923397 -1.882544902329840 9 15 13
-119.264358222014820 -89.321642118976385 -2.456782451160109 10 16 16
-119.262668604709191 -88.741320812492134 -2.463564297023623 8 14 14
-119.232856454925042 -88.200401438162189 -3.037688706749833 7 13 13
-119.242584736344867 -87.605075381756592 -2.817444950588083 6 11 14
-119.252380590416891 -87.008632505116211 -2.597180363892903 7 13 13
-119.273517444495866 -86.393666533246943 -2.149963179351516 6 12 12
-119.266543035736589 -85.821365582419332 -2.270049578702356 9 15 15
