ply
format ascii 1.0
element vertex 678
property double x
property double y
property double z
property uchar red
property uchar green
property uchar blue
end_header
128.821989397747984 -2.208016653685136 -49.535434354677648 140 137 122
126.805645932253398 -2.327856166379306 -51.230202222017056 140 137 122
124.111070967643329 -2.760175566925896 -53.484161031864289 139 136 121
122.857696391008531 -2.568417293125822 -54.549408068661108 139 136 121
121.265260232161040 -2.536560192053846 -55.894238803316796 139 136 119
119.588071557732491 -2.553083518818049 -57.308885105898241 139 136 119
117.995716783821820 -2.541695747919922 -58.653544073730330 134 131 114
116.064155389136062 -2.695768333629449 -60.277660129997827 137 134 117
114.471851756171944 -2.705685639426508 -61.622124259626247 139 136 119
113.303718268768549 -2.528707021017708 -62.617139321991260 138 136 117
112.220529024864732 -2.319358604314878 -63.542265732956565 138 137 117
109.864835322780237 -2.716103935490612 -65.515274819293296 138 137 117
107.678731639331787 -3.047500529303870 -67.348370086780733 139 138 118
105.237971145139952 -3.514453859526269 -69.390819710074680 141 140 120
104.918717798478355 -2.977226990604401 -69.687055489063965 139 138 118
103.750990752648235 -2.852454670531641 -70.681727606029511 139 136 119
103.856601238270372 -2.114656201448192 -70.628986945708618 139 136 119
101.925188721822096 -2.374994670838556 -72.252080376690458 139 136 119
99.739026099495931 -2.773424278321998 -74.084457443536564 139 136 119
97.467846275726700 -3.228083061574206 -75.986442662394097 141 138 121
95.281450629181222 -3.654865053304214 -77.818416405918356 141 138 119
94.793455541915492 -3.240508892637252 -78.254379714516858 139 136 117
93.881023699017391 -3.044148071554157 -79.039344423128853 137 134 115
92.374128221417635 -3.156647321764114 -80.312752709121895 139 136 117
88.998258381022112 -4.237995638652739 -83.120972684360510 137 134 115
88.850599863773937 -3.673611017789401 -83.277860620106026 139 136 118
87.258710887307785 -3.860622696887053 -84.620700198632790 139 136 119
87.111527055048654 -3.302064323118350 -84.777755249561778 139 136 119
86.199726338339801 -3.146623002449677 -85.562600681805407 139 136 119
85.713090032129031 -2.771674795374693 -85.998808380739888 139 136 119
81.996158519327039 -4.120975008209874 -89.084542997170274 139 136 119
80.489320842128848 -4.309345981555701 -90.357197948916337 140 137 118
80.087936385435498 -3.910961067026044 -90.723572201324089 139 136 117
79.516728353833415 -3.607057466840533 -91.229448663810984 139 136 117
80.476788471069412 -2.470526307707472 -90.480989285126014 139 136 117
81.012139798071402 -1.560649708881368 -90.081312032324604 139 136 117
79.250849320869975 -1.915935232824832 -91.563096156181786 139 136 117
76.808733669325306 -2.660873861361427 -93.602036034519841 139 136 117
75.132271788798619 -2.993424073399281 -95.013777009324400 138 135 116
74.306894121507696 -2.857993954738452 -95.728902061900669 138 135 116
72.034497157878917 -3.546219223993853 -97.627900788047214 138 135 116
70.442966078337761 -3.861642515321162 -98.969589778002984 138 135 116
70.298973582362009 -3.358788545917509 -99.127598159853335 139 136 117
68.537186175899535 -3.787690011837992 -100.608386788583118 139 136 117
71.289766077511473 -1.614578229515314 -98.400096192257962 142 139 120
69.215434519612700 -1.650343811497732 -100.178847055082088 140 138 116
67.198390029052732 -2.254857371216708 -101.868290560987703 139 137 114
66.715319696739556 -1.964062124864185 -102.305337980912157 139 137 114
219.355112668332595 -3.143210419501554 25.228168653786867 142 141 136
213.515097793422967 -3.934327236346187 20.380892055354025 146 145 140
214.207375879189300 -2.684401101325985 20.923713553801150 145 144 139
210.572985553052945 -2.820497504768827 17.896862285246556 150 147 140
204.817357694441938 -3.668398698234161 13.120658622505999 148 148 138
201.437236688420853 -3.774446864638802 10.304433135933238 150 150 138
197.463064663178329 -4.098754033004573 6.998634075827312 149 149 137
196.543623089649429 -3.427490733909762 6.212134388545053 148 148 136
194.775713989263238 -3.048347253687481 4.725956744647362 148 149 135
192.159218687130050 -2.969537538375427 2.540242468067589 149 149 137
189.882186682712813 -2.790700990969174 0.634536026693269 151 151 141
188.453907550476401 -2.331797971870262 -0.571504895132648 150 150 138
185.497927500984815 -2.417112909984675 -3.036556954407530 148 148 136
182.881422042545921 -2.401303432242172 -5.221617879151552 150 150 138
177.803185461187638 -3.280358533016654 -9.434691444844759 149 150 136
175.441177164621706 -3.214260410378011 -11.409443931008894 151 149 136
172.994271241386684 -3.194058042852499 -13.453968140436245 150 148 135
172.330253828637183 -2.536267587508407 -14.029946533204310 148 146 133
170.732464756763079 -2.227728784823034 -15.375064476363946 146 144 129
167.521473435426003 -2.530741830166294 -18.048455796074990 144 142 127
165.584092232541423 -2.375375252525004 -19.672972888806044 142 140 125
164.241183416547130 -2.006891046117843 -20.808065066115205 141 139 124
161.794365249598542 -2.069103044805101 -22.851782925376398 142 140 125
158.583157309774322 -2.441723861315654 -25.524354107789151 143 141 126
157.070518404990878 -2.174310547758543 -26.798925388774876 140 138 123
155.812782188154131 -1.816536499101133 -27.863794715619292 139 137 122
154.215380575177704 -1.600988860868785 -29.208140813017025 139 137 122
150.579237460093793 -2.208116876572161 -32.229304988336139 144 142 127
149.066802897688547 -1.985261161649872 -33.503515372268652 141 139 124
147.809333253985301 -1.668728614644130 -34.568087707291937 142 140 125
145.277465686910318 -1.880365062085299 -36.680439009062610 142 140 125
142.065751675955369 -2.387868746014211 -39.351379671667388 142 139 122
140.808398881757057 -2.105503639337138 -40.415656204465819 140 137 120
139.551156541541076 -1.831025558810273 -41.479904392948498 139 136 119
137.359120838551945 -1.958132674088585 -43.312264656849663 141 138 121
135.082061621110824 -2.135278600557127 -45.214293773172784 141 138 121
132.804960305293946 -2.326951375144601 -47.116153217631876 138 135 118
131.292904892615809 -2.203556220261529 -48.389521187984997 137 134 119
128.930749669802935 -2.458694369049291 -50.360896738819179 141 138 123
126.143411245547966 -2.914804404941642 -52.681091823498292 140 137 122
125.481687314068907 -2.452426717988102 -53.256155928052721 139 136 121
123.034385100043025 -2.786407676077289 -55.296844766427171 138 135 120
122.032737254291064 -2.489873295080135 -56.151018866776241 137 134 117
121.201334460528912 -2.122965649644027 -56.865644233968538 140 137 120
117.733298686530944 -2.956700545098514 -59.743180036747702 134 131 114
115.796162487373891 -3.113574684870267 -61.364600287861606 136 133 116
115.220171833288660 -2.656799796383225 -61.869762341112420 139 136 119
114.304074861977568 -2.361040175674896 -62.653996826632863 139 137 118
113.217958011458890 -2.150274968440633 -63.577737264365282 139 138 118
111.451198569045033 -2.265938928194392 -65.059371599146687 139 138 118
109.003605710659969 -2.714735568603230 -67.098739538759332 138 137 117
106.385654966874512 -3.260260203354767 -69.277330949937635 138 137 117
105.129456261943020 -3.169807211158367 -70.340184147282685 136 135 115
106.171817862680257 -1.978065909173736 -69.520806937013873 138 135 118
104.149785572707046 -2.268006077749011 -71.211102358720126 139 136 119
99.913896207484129 -3.653499859495145 -74.713350068326946 140 137 120
99.935204957498300 -2.970440168851786 -74.730575177828968 139 136 119
98.679408473933236 -2.919844099162095 -75.793210529171176 140 137 120
96.997829425862619 -3.089520983717106 -77.204180005543179 139 136 117
94.975510128709317 -3.440927007493187 -78.893705425072881 139 136 117
94.316154617385209 -3.116514305547695 -79.468482430812827 138 135 116
91.100990482707189 -4.095867146936424 -82.132915585640177 141 138 119
90.271338733078380 -3.874955892688984 -82.846875832146935 138 135 116
88.589652804914422 -4.098012576811366 -84.257244712355970 139 136 119
87.419312624649834 -4.066699625680243 -85.249704690530649 139 136 119
86.590015956948974 -3.864844520135009 -85.963638652503079 139 136 119
87.636389538992660 -2.683684448220231 -85.146071842422742 139 136 119
86.381347846102443 -2.710769111932645 -86.208268676224293 139 136 119
84.017841518124925 -3.334732499744896 -88.175201359511760 139 136 119
82.080525917260232 -3.745965728191039 -89.793917539584811 138 135 116
82.616589536623479 -2.839129418394618 -89.394549749785256 139 136 117
81.617697492205451 -2.759129551503980 -90.247813317515124 139 136 117
80.192349460083463 -2.917513677119477 -91.448902420909832 139 136 117
80.814853905875395 -1.963279464207070 -90.980516631686328 139 136 117
79.816486635255487 -1.897698363984494 -91.833882829793765 139 136 117
78.391488440459455 -2.074776894055504 -93.034946863269766 139 136 117
77.564027683242855 -1.927703886195809 -93.749195218873240 139 136 117
74.858490945358966 -2.838948974519299 -95.992980131264204 138 135 116
71.725640055247638 -4.008636135003173 -98.583973568463364 138 135 116
68.250672879502943 -5.392644101913088 -101.452529175247804 137 134 115
68.960283109729886 -4.411158424061945 -100.915236122822449 138 135 116
71.806151044286992 -2.198551360523560 -98.641121861543439 139 136 117
71.235760772555338 -1.938839946435622 -99.146934645177595 143 140 121
71.691040343999546 -1.087073427476461 -98.819212067656764 139 136 117
70.352111849377721 -1.279416246158614 -99.950435542762619 139 138 117
66.876194815080183 -2.734850166882588 -102.817801517247290 139 138 117
66.391850125209430 -2.446543931205826 -103.254213668247047 138 137 116
221.747693586664525 -3.752826975717222 25.974442276644140 124 125 120
219.549315556678209 -3.383189235231560 24.140002915895138 139 138 133
215.989624339914656 -3.455051664190656 21.187613541816461 143 142 137
213.025467569097714 -3.360688361582631 18.724623679601876 142 140 135
209.210361037933808 -3.557897797848155 15.563137721395577 146 143 136
205.395144109075090 -3.779481040176019 12.401955468898279 148 148 138
200.984117244206089 -4.220142628429202 8.752049536549549 149 149 138
199.977047476953373 -3.565478975742741 7.896782860359366 148 148 136
197.438186281566743 -3.427642324140291 5.784179984232196 147 147 135
196.090878383463462 -2.905061335890007 4.649606117138035 147 148 134
193.041371334780024 -2.969176088608237 2.118219944613969 148 148 137
190.502524398833771 -2.877635102258836 0.006086791358797 150 150 140
189.495896747162533 -2.272000817171010 -0.848886707499133 149 149 137
186.871978516664541 -2.237578616083732 -3.030592977610553 147 147 135
181.013003235481136 -3.360140470464719 -7.865387252397824 149 149 137
178.048323062088230 -3.490691842445178 -10.325811560881220 149 150 136
175.339002487019116 -3.548483635566341 -12.576571322038291 150 148 135
173.991979360998329 -3.130244269654624 -13.710207382385164 148 146 133
173.326269192127654 -2.471632564370660 -14.285384419965283 148 146 133
171.553719377618449 -2.225038866592589 -15.767977560635586 146 144 129
168.674143291003958 -2.401179876739123 -18.157787210552954 144 142 127
166.390655733888764 -2.372171413807551 -20.058863081903695 143 141 126
165.044039686313766 -2.003415385151395 -21.192184530334970 143 141 126
163.697530582414089 -1.643117944366921 -22.325470071759781 142 140 125
160.732695840566720 -1.913643863201810 -24.784379606896437 141 139 124
158.790000011303647 -1.806709790975694 -26.405855660476334 139 137 122
156.676952923029177 -1.778699726256612 -28.166741621044167 139 137 122
154.819504072781029 -1.663352292359305 -29.718227255220313 139 137 122
150.832036605735851 -2.406232936604113 -33.013357234480395 143 141 126
148.122443946375483 -2.662645683955509 -35.261942326184680 142 140 125
148.650889354122086 -1.628724284266634 -34.860238160733019 142 140 125
146.197009665235896 -1.805143405033761 -36.899402220823816 142 140 125
143.316951766236230 -2.172004338018404 -39.287018197372447 142 140 122
141.203861359379289 -2.240097172816469 -41.046894199056197 141 138 121
139.857898088559807 -2.001957520638801 -42.179183433670630 140 137 120
137.489107912662831 -2.201775339887810 -44.147954285634569 140 137 120
136.143264958727627 -1.983829144811577 -45.280093218035802 137 134 117
134.627005319587795 -1.847011008945156 -46.551588070346895 138 135 118
130.893976036623229 -2.671974145773293 -49.635018833637730 138 135 120
129.036603264226926 -2.709054647323232 -51.184971845884718 139 136 121
128.117282071713674 -2.348920945168438 -51.968326509792803 138 135 120
126.260003325281133 -2.406470737950599 -53.518113803041018 138 135 120
123.976279483294164 -2.664458419874963 -55.416122441025522 138 135 120
122.801354498978725 -2.442816636202561 -56.408348214944027 135 132 115
120.346975812082803 -2.802861119955669 -58.445383407990676 134 131 114
119.257483650332986 -2.561449145749595 -59.367824570967770 135 132 115
116.035134693509775 -3.298004277280073 -62.031319770307050 137 134 117
116.310941269518494 -2.451027306821215 -61.839406395563969 140 137 120
115.819107379297066 -1.956531284992923 -62.274358153836545 139 138 118
112.767235166324554 -2.655437306236713 -64.798078614453090 138 137 117
112.104937870077435 -2.254918411170222 -65.372231679647740 137 136 116
111.186770738249862 -1.979079337019690 -66.155270755280014 139 138 118
106.256524294628235 -3.613499828334332 -70.209649170329953 137 136 116
105.252906787537142 -3.402859125751219 -71.061996844664634 136 135 115
104.676343358434636 -2.992977237900321 -71.566402191097950 140 137 120
103.673041226101788 -2.793293553514785 -72.418787953543330 140 137 120
101.047257293213619 -3.391049972249133 -74.593094345913329 140 137 120
99.958649735669070 -3.250973739092548 -75.514915600820729 139 136 119
98.443063419683114 -3.328669535793572 -76.784524468950252 138 135 118
96.500359831596413 -3.628355666026074 -78.401811264723165 137 134 115
95.241083160929350 -3.598239364867907 -79.462570897939287 139 136 117
93.810986370069998 -3.662086197078771 -80.662361331283904 140 137 118
92.124553293118566 -3.864923030605425 -82.070667324864644 140 137 118
90.523558732424419 -4.034824272213766 -83.409326949436718 140 137 118
90.290174081743814 -3.512449870239874 -83.635630249426072 140 137 120
86.210204927127180 -4.979363554160042 -86.989913787541298 141 138 121
87.772409518343977 -3.538078646087535 -85.756643050219850 139 136 119
88.565795970069018 -2.488692769420283 -85.149268300934438 139 136 119
87.649396006093710 -2.334204065196138 -85.931903663291081 139 136 119
83.996229634024004 -3.635442305114033 -88.937779145590184 139 136 119
84.619489261144054 -2.680375366901171 -88.469763204185398 140 137 118
84.473336419947131 -2.133616042996635 -88.627190024156960 139 136 117
81.760673743237007 -2.972435032753070 -90.868311430055428 139 136 117
80.759145631582427 -2.899671198535861 -91.720239428135613 141 138 119
78.901886500790582 -3.300469064424143 -93.266502880589570 139 136 117
77.558091489125616 -3.430955351201074 -94.396034950979953 138 135 116
77.412842445353107 -2.907469465793255 -94.553654579347437 138 135 116
78.723512806504090 -1.575171674010322 -93.531505524172701 139 136 117
76.866525143365308 -2.005368417745713 -95.077596228402996 138 135 116
72.525664861798774 -3.844521308668339 -98.635815355252134 137 134 115
69.811443997653924 -4.791440818177780 -100.875078596667976 137 134 115
69.752643174631189 -4.244733892296773 -100.963434898436844 137 134 115
69.694235075653921 -3.697824519857957 -101.051981161926960 138 135 116
71.007403061494728 -2.361443270101706 -100.031068994927011 142 139 120
70.778589968486131 -1.908695448190993 -100.258842611070662 141 138 119
69.692873283822493 -1.955929033434338 -101.180118775598061 137 136 115
67.149655266604995 -2.863214749333291 -103.279879393542188 137 136 115
66.578381486861261 -2.625852470931911 -103.785039459090910 136 135 114
221.432365220004954 -4.147316695337481 24.466471693450444 120 121 115
219.057075158115708 -3.834419327532212 22.495532729679127 128 129 123
215.060461107221585 -4.044269207443940 19.199291691351561 137 136 131
213.453178955379201 -3.523773453496466 17.856533425731840 138 137 132
212.784739069366879 -2.713485594270185 17.281100996627487 143 142 137
204.350046605812736 -4.413522662380432 10.358698687926193 145 145 137
202.572055828948123 -3.997972998133959 8.876969336357604 147 147 139
200.367366860766396 -3.734101009689913 7.046637806827135 149 149 139
198.589492079078070 -3.342389860350941 5.565098345373229 148 148 136
195.531263870186052 -3.391455273429276 3.037729435586328 149 149 137
193.241268620149526 -3.199777894231387 1.138092389349680 148 149 136
190.268330224928093 -3.256095261725830 -1.319145342017919 150 151 138
188.405202060209348 -2.948351079575204 -2.869894448000025 150 150 138
185.346829820062624 -3.068645879177452 -5.396461253870314 148 148 136
180.409960095733254 -3.868566418141726 -9.456261041358658 147 147 135
177.949059584093959 -3.821837107298105 -11.494363342816456 149 149 138
177.110599396385965 -3.210142474961993 -12.208132192362314 149 147 135
175.845317538935092 -2.757782952087223 -13.270365326403038 147 145 132
174.323947890138385 -2.406662762406514 -14.541621486305957 145 143 130
172.204820951864036 -2.284778046539334 -16.300565166416618 146 144 130
169.829479362994903 -2.271275862258793 -18.268397654830125 145 143 128
168.052042446999081 -2.049316354799169 -19.748399250804709 143 141 126
166.445506376827012 -1.774153965416447 -21.088989099771794 142 140 125
163.984778311904279 -1.833920531760328 -23.126077683584839 141 139 124
161.865750407974787 -1.778271319093515 -24.884386946078365 140 138 123
161.455485509518695 -1.075369947283664 -25.249647366457111 139 137 122
157.200510811862785 -1.873750958056966 -28.748808165138740 140 138 123
155.423276714177149 -1.725375983737957 -30.228149346132426 138 137 120
150.997010100626028 -2.637885094437283 -33.865907671364653 141 140 123
149.476075294693430 -2.418066563154589 -35.136020304673110 142 141 124
147.955219157669603 -2.207797509623578 -36.406072275346048 143 141 125
146.947271625491908 -1.798940573685237 -37.258388819786632 143 141 125
143.033229030205689 -2.585145025446274 -40.477340167381499 139 138 120
141.854405785196747 -2.268628711496491 -41.468677617947378 138 137 119
140.162765106270285 -2.172557619668614 -42.877569122027580 137 136 118
137.017731914036546 -2.695667886731946 -45.469390128425118 139 138 120
135.753590396938421 -2.445241398214617 -46.530090199216744 138 137 119
133.719971804040256 -2.529846171541123 -48.216956393693124 136 135 117
131.600825351313802 -2.663947625280654 -49.973255743916638 137 134 119
129.567173384319602 -2.774569744468720 -51.659838162728931 138 135 120
128.303271158007419 -2.563419792278446 -52.720248416293089 138 135 120
127.467156981042493 -2.172840218992053 -53.432863540955481 138 135 120
125.005884067382652 -2.504384744347666 -55.466893923938699 138 135 120
121.603450809274690 -3.269770796687538 -58.265658409510223 133 130 113
120.168596428560505 -3.176154144471766 -59.464793678924082 132 129 112
118.305980979567266 -3.284390072850034 -61.011506174103687 134 131 114
118.069252989755626 -2.666199894860820 -61.237196312028999 137 134 117
117.490481054211372 -2.205708315056239 -61.741066067534177 140 137 120
115.285739486382170 -2.497413182501059 -63.565653601898020 140 139 119
112.567337594025432 -3.041261384590918 -65.807065669201592 140 139 119
111.560856769024511 -2.803086501684513 -66.658326965212922 140 139 119
111.924329567847565 -1.927109915385885 -66.397792433663113 139 138 118
108.520857474344425 -2.831630611973076 -69.194627761153953 138 137 117
105.973354589540236 -3.349921076484803 -71.296342636668925 138 137 117
103.853874488689527 -3.679032630293477 -73.050475033848784 140 137 120
102.590779036213519 -3.607914480279258 -74.109829827564994 140 137 120
102.441299456189185 -3.003194704665027 -74.266261763130956 140 137 120
101.692477056972464 -2.692550856828061 -74.908955271558170 139 136 119
98.373604194851339 -3.652785642592376 -77.634830203331603 138 135 118
96.853728450444237 -3.741995842462723 -78.902268500071131 134 131 112
94.648322320638400 -4.182967813971262 -80.725001628975889 140 137 118
93.985435016713424 -3.862946917040444 -81.298043830186288 138 135 116
92.551337430377771 -3.936902967989687 -82.495816237421707 140 137 118
92.746005874316694 -3.191000514593492 -82.374905132555568 140 137 118
90.540558099035579 -3.672718344325110 -84.197198920820028 140 137 120
89.192385751358799 -3.726623543841254 -85.325425176268851 141 138 121
88.273025656070757 -3.566587888054394 -86.106701519510892 139 136 119
88.554514548972278 -2.785548513270301 -85.916827816895591 139 136 119
88.579126103695828 -2.137263955810737 -85.935275018934107 139 136 119
86.802617440476155 -2.440122184775594 -87.410318475248175 139 136 119
85.283428774700127 -2.617413949515878 -88.677178800254183 141 138 119
84.965551113786432 -2.161745454003913 -88.973233181280904 140 137 118
82.674119319064488 -2.769778495010462 -90.863951168368885 138 135 116
79.524145202566615 -3.857159763108769 -93.447600128655495 142 139 120
76.802918279514770 -4.731216363520101 -95.684261710031535 138 135 116
76.056005225213170 -4.541015520962254 -96.326628862162721 137 134 115
76.167954806993805 -3.882010767262003 -96.276109740420452 138 135 116
77.139139853380712 -2.745592000132917 -95.532971332800827 137 134 115
76.650838080081016 -2.416357756523493 -95.967911721198078 135 132 113
73.757447140817789 -3.438981822744386 -98.342399117628929 136 133 114
72.753809551740517 -3.413997566852872 -99.192826129738677 138 135 116
70.031644780498979 -4.370370054727308 -101.428191728973815 137 134 115
68.426340224952042 -4.706773300709282 -102.763075578007317 136 133 114
68.712042668824310 -3.967905434672905 -102.574783531208823 140 137 118
69.600068414795047 -2.879095206102203 -101.902230825632984 141 138 119
68.081185174967118 -3.181375390320969 -103.167950696775108 138 136 115
67.164242381062081 -3.141802707984233 -103.949143482811934 138 136 115
67.021569431149430 -2.653280873691902 -104.107635603109230 139 137 116
223.078506957328443 -3.939518326303559 24.563695235178869 118 119 113
218.471470175294542 -4.311769036319272 20.785137817958741 124 125 119
217.373189601778904 -3.617820070088871 19.862242810452301 134 133 128
214.306529126589169 -3.551573850530632 17.337720907396459 137 136 131
209.699179758407638 -3.995579100249201 13.560051635841518 140 139 134
205.947595385517559 -4.193483468543866 10.479042933057741 143 143 135
204.250281102903159 -3.747671979380258 9.069265607930134 145 145 137
201.354596084194355 -3.705784432500022 6.684918138444203 147 147 137
199.229340679288185 -3.426989836974303 4.927291143547507 147 147 135
197.532178946151589 -3.018434274488156 3.517824333241634 148 148 136
195.407013766633668 -2.765111176629955 1.760416365749762 149 148 135
190.542029179370388 -3.459127847610671 -2.224004261703584 149 148 135
187.218041054717446 -3.653851129784304 -4.955311863881832 149 148 136
184.921508192702220 -3.512871361399351 -6.851299482980522 148 147 135
181.597377474324787 -3.746508640637246 -9.582138307489231 147 146 135
180.585382910952575 -3.183612752875509 -10.434104366392063 148 148 138
178.631458651760568 -2.963127022040466 -12.051377621847337 153 151 139
177.191464929568070 -2.569963101741367 -13.251137638424098 146 144 131
174.895041582077170 -2.496889768920910 -15.146478653841370 146 144 131
173.112566559990398 -2.250035529041596 -16.624326291117995 146 144 131
170.387858505053288 -2.362626391173807 -18.867160660304108 145 143 128
167.920100483133865 -2.396684325255539 -20.901150768653423 144 142 127
166.137702216730986 -2.188692831995328 -22.378635091812242 142 140 125
164.098323557512458 -2.089361166175047 -24.064639040474674 141 139 124
161.373495256363924 -2.264963244747810 -26.306767278180502 139 137 122
158.305841840615642 -2.589975839950870 -28.826786738344680 139 137 122
157.294752640816768 -2.135015646990182 -29.678074883748849 139 137 122
155.598208428676912 -1.954987940718984 -31.085484761956280 139 138 118
152.016182521315045 -2.530588442357025 -34.022004067571316 141 140 120
150.405339934267005 -2.343802270405290 -35.359623992823970 141 140 120
149.994619440842683 -1.685306706236905 -35.724209366845969 142 141 121
145.897991340323415 -2.520901141792024 -39.077021808514445 139 138 118
143.944333492859187 -2.508432334939368 -40.692281291729813 140 138 124
143.019528011857204 -2.085338620889917 -41.473660369854287 136 134 120
141.237455200075715 -2.023128288354642 -42.949799790666930 139 136 121
137.911927190109623 -2.616495707934934 -45.676267272621715 140 137 122
135.272243965496898 -2.942437617567380 -47.846722214763531 140 135 119
134.176184407674896 -2.630775870614372 -48.766744674172145 136 132 116
132.651411731239307 -2.509034351306910 -50.034011727433153 136 133 118
131.126704732927521 -2.396833018759851 -51.301211998948531 140 137 122
128.830012069261727 -2.628844639024061 -53.193283781747141 137 134 119
128.249063437720508 -2.126118500372476 -53.696546954879466 136 133 118
126.381369146655373 -2.192943349801835 -55.241256014459509 137 134 119
122.883380606156436 -2.993918579312875 -58.104799728112710 134 131 114
120.071606729839161 -3.510849158769516 -60.412678919874395 133 130 113
119.490981589852311 -3.042661886826249 -60.915741324351671 135 132 115
119.168059885341833 -2.461311765060447 -61.210676356327241 136 133 116
117.472036827373643 -2.507855815636285 -62.616003335990968 139 136 119
114.831751433040850 -2.998616035466078 -64.784473644538224 138 137 117
112.620561428528646 -3.307707564296843 -66.605797299256437 138 137 117
111.697182784488859 -3.031204260101845 -67.386350042563464 139 138 118
110.945698221364609 -2.679816324098935 -68.028189380270078 139 137 117
110.194405650524828 -2.332926858650218 -68.670074261410150 139 138 118
107.983253441891335 -2.684371382141546 -70.490980036896758 140 137 118
105.600209058846019 -3.132030691294469 -72.450380568059813 140 137 120
103.217019468901967 -3.594844465107370 -74.409555640222578 140 137 120
102.895571258320402 -3.073066176018347 -74.704582383843018 140 137 120
103.261777347317590 -2.217458609763045 -74.445145780387747 139 136 119
99.589672278835067 -3.343308559935296 -77.443766415013243 138 135 118
97.807803211921495 -3.557765644317306 -78.917155429964225 132 129 110
95.682094497317095 -3.954592821528429 -80.667611048745044 135 132 113
94.415860634768976 -3.934270972829867 -81.724941565993078 139 136 117
93.837454764234721 -3.575028177519174 -82.227944241142467 140 137 118
93.517218824814293 -3.088229294577872 -82.523190870531408 140 137 118
92.337375573286280 -3.042191888566953 -83.511256178198494 140 137 120
90.899619097545752 -3.136029912809953 -84.707073530145294 141 138 121
90.235986827185215 -2.838534113149256 -85.279527479824623 139 136 119
91.034942750907746 -1.783931083733840 -84.674870849626359 138 135 118
89.278911174049796 -1.425305933758273 -86.166519454586478 141 138 120
86.292786015030160 -2.371537523460145 -88.608288349209744 141 138 119
84.855466594474606 -2.510772056394122 -89.803847497789747 140 137 118
83.332077771037362 -2.705184293209509 -91.068522252147915 138 135 116
79.398141047237786 -4.210415078876810 -94.270555017590624 139 136 117
78.046579771561596 -4.338449365343863 -95.396396973569551 138 135 116
76.178347925187168 -4.757194169270005 -96.937226379651150 136 133 114
74.826742848602152 -4.903822881260795 -98.062855979662459 137 134 115
75.370218053873984 -4.011264680599195 -97.666886895406719 137 134 115
77.292700202771329 -2.347994811624972 -96.164821169787871 135 132 113
76.975876053550579 -1.924357784989471 -96.461049831196988 135 132 113
75.539057211389292 -2.132512521306984 -97.656139024488994 136 133 114
72.636956700252426 -3.178786388437643 -100.026216352307983 131 128 109
67.493025586158794 -5.519460491600929 -104.192816700076662 134 131 112
68.297016136453138 -4.488912674164661 -103.590321005591932 142 139 120
69.619093319635880 -3.154507854237916 -102.573650623677025 142 139 120
69.562076014108143 -2.609444590807165 -102.662843235058801 142 137 118
69.850529485041349 -1.863235290439834 -102.475942839248120 142 137 118
222.769887480294670 -3.281392924274543 23.041680045948823 122 124 118
217.462956332082001 -3.885759766944250 18.713467903066231 131 132 126
214.301718849097654 -3.848983105832254 16.123635776405365 135 136 130
211.998842254674855 -3.559535458479869 14.229154722683887 137 136 131
207.049760439276071 -3.135457419589988 10.162597925457703 143 143 135
203.201567038894041 -3.396257116972383 7.017595178575789 145 145 135
200.469396107387809 -3.312725549111589 4.776312237264364 144 144 132
198.080649519426089 -3.131904968312675 2.813170362159326 145 145 133
193.459376984189646 -3.717838993517245 -0.956377169816221 149 147 135
191.585755635502323 -3.399167074456977 -2.502218857241076 148 146 133
188.252305383109103 -3.593086403261851 -5.229008085437698 149 147 135
186.292839047283678 -3.332358777067198 -6.844044260472941 148 146 134
185.364036513988907 -2.723841822882806 -7.625419817040665 147 145 134
182.803489508380153 -2.696441133348652 -9.726511503054525 149 146 137
180.844180637882715 -2.471292828596985 -11.341256773133807 150 148 136
178.627216854641688 -2.350959202213433 -13.164238560746242 148 146 133
176.238456661664657 -2.306805409534988 -15.125967147352952 144 142 129
173.935595959469367 -2.246331038055705 -17.018098866906769 146 144 131
172.491878259240849 -1.883782054552552 -18.215762210231759 145 143 128
168.470668988540751 -2.488262009988164 -21.496174854096978 144 142 127
166.167742219684328 -2.474081429486068 -23.387798442339971 142 140 125
163.692944563044705 -2.539385975098242 -25.418099176499595 141 139 124
160.960304553185892 -2.718590886954125 -27.656453233761795 139 137 122
158.657300813912514 -2.749887945006193 -29.547571875441491 138 136 121
157.385644534599123 -2.395955015957167 -30.605742353537323 140 138 123
156.543869721091994 -1.881975109391180 -31.316919670702447 139 138 120
152.693712186655489 -2.558383459493061 -34.456704713938905 141 140 122
151.594187747876504 -2.166750548027119 -35.375892769544748 143 142 124
150.494802831599088 -1.781900280299137 -36.295077755077784 144 143 125
148.277857482885025 -1.854847473641593 -38.116078825131382 138 137 119
145.544991140604537 -2.151585837167205 -40.353114774877099 139 137 123
144.359836497554682 -1.831165317533533 -41.341463494272830 139 137 123
143.260804297320476 -1.482545810527192 -42.260444276531047 138 135 120
139.323824919080579 -2.322139348529565 -45.467873185096551 137 134 119
136.504666316465318 -2.717774492136341 -47.773468103964802 140 134 118
135.405695728237475 -2.404150204041983 -48.692118137827350 137 132 116
133.446630828190109 -2.463627269406082 -50.304050330615553 135 132 117
131.487561846718734 -2.535420330484490 -51.915853796133632 139 136 121
130.130745759737295 -2.359205143163813 -53.042313661071574 137 134 119
127.053133056393889 -2.940764948605553 -55.554927862874678 135 132 117
124.577678516900761 -3.277659018947999 -57.582118739115799 136 133 118
122.876649702194015 -3.288000344687753 -58.985423634747491 135 132 115
120.142842696602401 -3.768630538554691 -61.220116683400448 134 131 114
119.302511966881383 -3.417811868574262 -61.930305344725582 135 132 115
118.720602803468665 -2.955489777905978 -62.432693103539862 136 133 116
117.364103418786527 -2.848824788831688 -63.558588562642683 137 134 117
114.888403132842200 -3.263031016889359 -65.584866061746283 138 137 117
114.048595127923491 -2.938648495867346 -66.295032672263517 139 137 117
113.553423409125230 -2.459414927875622 -66.728230520681478 139 136 117
112.111136717150615 -2.425845407591165 -67.923192102570056 140 137 118
110.496642839998046 -2.482330069654395 -69.256561154249056 143 138 119
109.312874526322062 -2.344815874846294 -70.243690342179633 143 138 119
106.923113190053598 -2.789994628353289 -72.199903039549923 141 138 119
104.705521934310909 -3.167567232769557 -74.017459447508173 141 138 119
103.952673020348854 -2.850923437466767 -74.658288445556309 141 138 119
103.200018036017823 -2.538758573929815 -75.299164114980528 141 138 119
99.775757088883637 -3.540044819574806 -78.085058069745230 138 135 116
98.764603741002958 -3.373080547764861 -78.933351040233816 136 133 114
96.977724822328227 -3.597381335239138 -80.404242033093567 136 133 114
95.880532723784484 -3.488353854797012 -81.321636872603079 139 136 117
93.662505005949129 -3.949654861566480 -83.138122620085284 139 136 117
93.686482621838238 -3.290472786726959 -83.156378721579188 139 136 117
92.158385564643680 -3.421216267359444 -84.419456447538181 139 136 117
91.665388164239815 -3.031070163919649 -84.852777460396737 140 137 118
91.862799761191184 -2.287771655480978 -84.733151866815462 141 138 119
92.750885811174896 -1.184496076338868 -84.060776909592875 140 137 118
91.654900648172145 -1.111133432963204 -84.978382026843747 140 137 118
90.127515793307310 -1.271173843866282 -86.241498899935266 140 137 118
88.341185373191166 -1.577639107451424 -87.711806532396849 142 139 120
84.310316461896903 -3.089043732238760 -90.978262606090794 141 138 119
82.091829872982146 -3.656448116761692 -92.793436655852503 140 137 118
79.355032983598690 -4.516888759560725 -95.022789774596674 137 134 115
78.863264640368172 -4.178943360071822 -95.456161436124944 134 131 112
78.026263419371460 -4.031924658681180 -96.165845107554190 136 133 114
77.362199466412918 -3.795216909322994 -96.737466819819247 137 134 115
76.093556011138858 -3.895754614353674 -97.792400528065428 138 135 116
77.849377336508198 -2.327069816745353 -96.431348993922199 137 134 115
78.396197489997888 -1.420956022080077 -96.037119655967132 135 132 113
77.301277577601098 -1.431952984288530 -96.954366029657621 137 134 115
74.045136950038597 -2.669188274916928 -99.596541657145650 133 130 111
69.404934140520908 -4.712707824596865 -103.342029350761095 137 134 115
69.866003331030029 -3.874401282331168 -103.016937956853980 140 137 118
72.057548812192991 -2.039367122102874 -101.312782608494530 141 138 119
71.914522536734722 -1.537379142557924 -101.471244312859824 139 136 117
70.214471434280938 -1.939857791496190 -102.870980476221462 139 136 117
220.976871337695712 -4.128334231986553 20.360686497515076 121 124 117
220.561387603301654 -3.218203291695175 19.995789632308856 130 131 125
213.775608643483906 -4.308023761617743 14.495449187840308 134 135 129
215.598618153171344 -2.714163935565086 15.934957870613374 135 136 130
211.998000184562216 -2.843593230292389 13.002740279000989 140 140 132
207.966780653368886 -3.134832333370393 9.723892163991422 142 142 134
206.174126964854850 -2.721240151248883 8.249197648442561 143 143 133
200.506654664461337 -3.595210053584745 3.652806776979929 142 142 130
197.680590334639788 -3.560055417016029 1.346081198718679 144 144 132
193.734959942157843 -3.918560292588448 -1.862161181567160 148 146 133
192.286709773351276 -3.455613851417816 -3.058689648927583 148 146 133
190.494055378873782 -3.119536354286323 -4.532585929153328 147 145 133
187.926284709498276 -3.062295513293965 -6.630528998851162 148 146 134
186.219854446978815 -2.721118644758103 -8.034868213725133 149 146 136
183.049102729040897 -2.905447851067871 -10.617872809228857 150 147 138
180.050549345096755 -3.048668907436060 -13.061961874466107 150 148 136
178.516481949612370 -2.686617004934038 -14.327256001489530 147 145 132
177.499440617528080 -2.147470674508558 -15.176563237414967 145 143 130
174.931653422230909 -2.179508636334824 -17.273579409601297 144 142 129
172.191499305279478 -2.291030943980606 -19.509035434832555 144 142 127
169.795972825385206 -2.292078319586893 -21.467061774638694 143 141 126
166.452479917741215 -2.662511800758320 -24.187229682143283 139 137 122
164.746311866914766 -2.436828782137399 -25.590505501976111 140 138 123
162.954019285304298 -2.254564306666389 -27.062991597536268 140 138 123
161.247971882937293 -2.050467781538077 -28.466102934556829 138 136 121
158.507591176348853 -2.256795503873023 -30.700474680322884 139 137 122
156.887801240435579 -2.043726558316052 -32.034084766339504 140 139 121
156.647464761665617 -1.298890397326862 -32.259352246240496 142 141 123
153.562214533847595 -1.682027276326034 -34.770355149375149 140 139 121
152.115074698305591 -1.430687966683182 -35.965236617856306 138 137 119
149.719498237961488 -1.569994594533140 -37.921815875247688 136 135 117
146.461510726385626 -2.074106196631062 -40.570654370170047 138 136 122
145.273168960429587 -1.752835282455066 -41.557487134430261 141 139 124
145.033697805121562 -1.048089888399043 -41.782755907705422 137 134 119
141.689283082470837 -1.633519007711097 -44.500269763962649 138 135 120
138.775971939635639 -2.059724085138376 -46.871366643552250 142 136 120
134.999813253980392 -2.867938844565363 -49.934336847893292 138 133 118
132.344956282797710 -3.223851151798604 -52.097224221328929 135 132 117
131.674508703797414 -2.747486770448291 -52.668258934883085 138 135 120
129.882481980293733 -2.758609897107960 -54.138881580311903 136 133 118
127.486382084703592 -3.043238510257354 -56.093714555877654 135 132 117
125.176497601330709 -3.305223606078047 -57.979166885304920 136 133 118
123.643355561966857 -3.239509280371744 -59.241853347979429 137 134 117
121.678660020064015 -3.374869435250512 -60.850310758243438 136 133 116
117.901022796266020 -4.332861116644896 -63.911031905905730 134 131 114
117.749184696915989 -3.682579970777305 -64.066804519982696 133 130 113
117.252268848992884 -3.189482370888595 -64.499310692450706 136 133 116
115.201229569299755 -3.408847170823551 -66.176455737426011 140 139 119
114.531925499342549 -3.005851053332223 -66.747282285389815 140 138 119
114.294684960963338 -2.406879204283552 -66.972529397923012 141 138 119
113.021193390737466 -2.292206272794219 -68.027359055788367 139 136 117
111.056690101810304 -2.509740314006670 -69.635062582124306 142 137 118
109.264928719492460 -2.657967260161040 -71.104400887377807 141 137 118
107.645959095009147 -2.735206111214549 -72.435415123582089 140 137 118
105.854171851216719 -2.905319752981514 -73.904515766041925 140 137 118
104.494479736783958 -2.878322276808816 -75.028063776443986 140 137 118
103.480587330323814 -2.691943275001322 -75.875246236265838 140 137 118
100.651514639080688 -3.398581850242362 -78.172896974560672 137 134 115
99.724146897487714 -3.187932712981878 -78.950863477249271 136 133 114
97.672907917488999 -3.539222153705869 -80.626555019681973 138 135 116
96.486297672110453 -3.472669502663738 -81.611594194409435 138 135 116
95.559230989360657 -3.283323409179377 -82.389485439685274 139 136 117
93.075417117830725 -3.885159184691051 -84.409950062066855 139 136 117
91.888949984637122 -3.843871557848312 -85.394797635586855 139 136 117
92.951980713795052 -2.660386950873873 -84.585223475197154 141 138 119
92.631235879032658 -2.181345877703473 -84.880146795765711 142 139 120
91.445420672515368 -2.151692569113911 -85.865186490890636 140 137 118
90.432790696635777 -2.039188619825321 -86.712212460147754 140 137 118
88.641244916718406 -2.340958245181285 -88.180073416920408 140 137 118
87.801916067010069 -2.152024314098666 -88.889075013268069 139 136 117
85.750582904772642 -2.610951178262848 -90.563613533168763 140 137 118
82.313547891870328 -3.822147161741845 -93.341235712274710 140 137 118
79.568821257637055 -4.683570697073884 -95.566785150856987 137 134 115
79.422344169447200 -4.159269200955831 -95.723825682475336 136 133 114
80.402468308382836 -3.023542906312231 -94.984956578123246 136 133 114
79.996954309546922 -2.638371455539124 -95.349219258904498 138 135 116
77.685235093154972 -3.303361328613413 -97.229645527719924 138 135 116
76.153290568510229 -3.551773302465316 -98.489671417526438 137 134 115
75.921587661157062 -3.086550925165160 -98.716190963258384 136 133 114
74.303048747903460 -3.398321942976735 -100.044997092827316 139 136 117
74.505408267516131 -2.695623267586036 -99.927320654010003 137 134 115
73.494086615317997 -2.678096874519837 -100.773994869132935 140 137 118
71.788942773610529 -3.061665237305637 -102.171489336567134 141 138 119
73.293651451170874 -1.618510799437999 -101.021590880161767 138 135 116
73.150673536268556 -1.113720651831503 -101.180104564174826 138 135 116
70.491320352427962 -2.066277968867614 -103.334699398072019 138 135 116
223.398773283541800 -3.679120172447018 21.082033965874871 116 119 112
221.342064244241044 -3.271736310507702 19.401149875633365 127 129 123
219.544420657051859 -2.796249143907620 17.928205394338136 129 130 124
214.811212659096668 -3.259067234866024 14.100081224964725 135 136 130
214.049735959386851 -2.484862308921715 13.458669823468028 139 139 131
209.920753936387257 -2.800092284983721 10.115979014623974 141 141 133
206.223388366560300 -3.000904815925799 7.119921042400847 142 142 132
202.612261591482621 -3.196643827723615 4.193413387010736 141 141 129
195.632822249270760 -4.532000368943446 -1.433470938045019 144 144 132
194.698705718225369 -3.887654779298264 -2.212673098447254 147 145 133
193.678373669879534 -3.278230173182621 -3.061129476589230 148 144 132
190.930634710523805 -3.264309990680982 -5.294248181780915 147 143 132
188.614770158513068 -3.118971224732831 -7.181032456000906 148 144 133
186.471687402670710 -2.928125397476104 -8.929225606463348 149 145 135
184.933376200645625 -2.538694763454695 -10.192771334021700 150 146 137
179.507274834361084 -3.534055306738676 -14.570807043401658 150 148 136
179.264959106537958 -2.713593268379454 -14.795906112486847 148 146 133
177.467550408725060 -2.454434332039224 -16.266736188906549 146 144 131
175.151723875167477 -2.394802700962850 -18.152656424429409 145 143 130
171.798872915205493 -2.729622855134999 -20.868714057647253 143 141 126
169.137273730746813 -2.830072666509015 -23.031005583165268 142 140 125
166.648477735296979 -2.882817788375735 -25.054738840478279 141 139 124
165.369732896000897 -2.496345336003992 -26.109853121435947 140 138 123
165.301275392589247 -1.659071030347798 -26.196580656415563 140 138 123
164.109298168907230 -1.251486039066934 -27.182562704317064 138 136 121
160.756149323201555 -1.684145230168479 -29.897470723658955 139 137 122
157.835126866320394 -1.969985872726652 -32.266323378682245 142 141 123
155.259851139184093 -2.138737475062735 -34.358349800724540 141 140 122
155.105682400166472 -1.367597226581621 -34.514251508230871 137 136 118
152.703399293778659 -1.492119843239872 -36.467774508397468 139 138 120
149.782170767473247 -1.839909055969116 -38.835890912761528 139 138 120
148.677096282984678 -1.471607917483443 -39.752183679863691 140 138 125
145.842239987396368 -1.815129844138268 -42.050805303742379 138 135 121
143.785785495650799 -1.856734506017063 -43.727189504233621 139 136 121
142.767440130933778 -1.481516399787966 -44.574185499855275 137 134 119
140.451499911347724 -1.653776984225252 -46.457664365304879 140 134 118
136.491554250106844 -2.531457639261951 -49.653714232975574 137 133 118
134.261894847649671 -2.701424147872755 -51.467634274748207 135 132 117
131.080264744080523 -3.291478436136418 -54.041258355766615 138 135 120
130.235145459977730 -2.897334329220218 -54.749602159576511 136 133 118
128.265015916129130 -2.995450630032208 -56.355843331635498 135 132 117
125.342701348211293 -3.521178236506299 -58.721608568139374 137 134 119
124.411267751709076 -3.190623308337756 -59.498864230317309 137 134 117
122.614234047554788 -3.248815135317384 -60.966607051587687 137 134 117
120.384282377048947 -3.511171327262748 -62.779436259904486 135 132 115
117.028548658458519 -4.292838152967342 -65.489515174009171 135 132 115
118.781952269139779 -2.785997516533934 -64.126670420427615 136 133 116
118.370808845477484 -2.253161023695127 -64.489759994126473 138 137 117
115.881109645410078 -2.675588752515969 -66.509255832660358 138 137 117
114.344152041879923 -2.673838890133708 -67.769458524162360 139 136 117
113.933489700027934 -2.158130442798889 -68.132601938173565 139 136 117
110.143982574464559 -3.226094794275251 -71.186512561579264 141 136 117
109.040284691029356 -3.052457354215752 -72.101460118668200 140 136 117
107.156749254780308 -3.255552976454305 -73.637188125170042 139 136 117
105.793197555112727 -3.222085572457061 -74.758956321442611 138 135 116
105.556564801660343 -2.655275449789773 -74.984163139395179 138 135 116
105.060172714514323 -2.215425487372284 -75.416371772541908 138 135 116
103.436929977383258 -2.327438963898611 -76.744983813613175 138 135 116
99.732632484653138 -3.470031504438166 -79.728031362931631 136 133 114
97.068495755372950 -4.122662824819257 -81.883425054040629 138 135 116
97.699884489040059 -3.154967696546408 -81.419428037647776 137 134 115
98.158318892672156 -2.269414821456208 -81.093562500968261 138 135 116
94.713399285284964 -3.344687300461443 -83.868811846012449 140 137 118
93.697375473103406 -3.211810130497460 -84.714423927410849 140 137 118
94.069866261202577 -2.377585662972442 -84.457773795486617 139 136 117
93.141067471147707 -2.207957258898871 -85.234633442482505 139 136 117
90.563292233780970 -2.894855378825989 -87.320130564998124 140 137 118
89.113738568539617 -3.012206828913641 -88.510062146420779 140 137 118
88.966490326999235 -2.458196062663039 -88.667039573361620 139 136 117
87.517134721632516 -2.589251069211055 -89.856924848358744 137 134 115
85.373039177850288 -3.096719644419774 -91.597445383594646 139 136 117
84.184164580374855 -3.109405219517429 -92.580585661172904 140 137 118
82.647890984684992 -3.315372435873556 -93.838977443441621 138 135 116
81.980394662234886 -3.063046017652321 -94.409117892711862 137 134 115
81.747587638016640 -2.579189361716895 -94.635301044711184 137 134 115
80.472256049655087 -2.664625669496648 -95.687190619281438 138 135 116
78.849286558041399 -2.948510187894467 -97.014164225097119 139 136 117
76.704649272778965 -3.530175176341004 -98.753661852111293 137 134 115
74.125040452591307 -4.366593437023568 -100.836742708969098 136 133 114
74.327781849066099 -3.667085992973599 -100.719216109786288 137 134 115
74.270098999385340 -3.112027061111836 -100.808193217563058 139 136 117
74.560792713184938 -2.360354583934197 -100.622420781484180 138 135 116
73.459977657314084 -2.396233945483885 -101.536590811707242 142 139 120
73.316441251930016 -1.892403752709073 -101.694827434490833 139 136 117
73.086279439638872 -1.438837582156769 -101.921964251626434 137 134 115
69.113437651010486 -3.147124889741284 -105.103294804623488 137 134 115
222.209096022602751 -3.298215594025065 18.875778524448123 124 126 121
216.092781819359175 -3.149229046882837 13.929287851581591 135 136 130
213.251046145127134 -3.034644963095102 11.629241783567352 137 137 127
209.629865327767220 -3.188204211722547 8.707109770051090 140 140 130
205.835360505123276 -3.420684270897857 5.646989968266183 139 139 129
202.127332138608210 -3.648641826727032 2.656312458807292 139 139 128
196.513640161306967 -4.529939372496835 -1.854872422843783 143 143 132
195.577078364199053 -3.885319379278593 -2.632907600917235 146 145 132
193.861055708111877 -3.509117619885483 -4.033018376384973 147 144 131
190.932298488814126 -3.556056076029986 -6.400629887799624 147 143 132
188.176748870085845 -3.561882305954837 -8.629808740577317 146 142 131
187.500493328073844 -2.864690057136568 -9.200338036708956 148 144 133
187.084363799189532 -2.080704391507262 -9.563627479362594 149 145 134
184.328931903468742 -2.124297331989667 -11.792473898699427 148 146 133
179.667052879933919 -2.863565594361249 -15.541017079528814 147 145 132
177.258040636459953 -2.823292224807586 -17.493017211451502 147 145 132
174.675682475239000 -2.860859210864231 -19.583005770461000 145 143 130
172.353295574086019 -2.819604731936265 -21.465598383354404 143 141 126
169.424166117911227 -3.016436615326880 -23.831488889576377 142 140 125
166.754989985054465 -3.135001555579064 -25.989969160830526 143 141 126
166.339623664018234 -2.425545135326755 -26.352856552539691 140 138 123
166.184573105109479 -1.620167380722079 -26.508688824282757 140 138 123
165.076107493531168 -1.178968045855904 -27.424109665565226 138 136 121
161.106521007176013 -1.844059613917232 -30.617735681815049 139 137 122
