ply
format ascii 1.0
element vertex 692
property double x
property double y
property double z
property uchar red
property uchar green
property uchar blue
end_header
-114.099683949250107 -50.316268710827167 0.435615192528417 10 17 10
-114.118935032081680 -49.591296992960466 0.991656771083740 12 18 14
-114.122636507151967 -48.991334919114678 0.987251833048617 8 14 10
-114.113910253243944 -48.494635339111582 0.534528905110818 7 13 9
-114.127349413267893 -47.817049767082580 0.866560079279395 8 14 12
-114.128362118988335 -47.243267340827423 0.750279438547352 7 13 9
-114.145282201085536 -46.536461284172930 1.194533977697319 5 11 7
-114.152922582743230 -45.908141818361123 1.302580387111590 5 11 7
-114.170195603946837 -45.197402678841456 1.746963285922561 4 10 6
-114.165555471894734 -44.676802225061707 1.406808005894561 2 8 4
-114.135798869269337 -44.379885228625575 0.170068499267813 1 7 3
-114.115647637547255 -44.004659148347116 -0.730305250820891 0 6 2
-114.124107405278409 -43.378676373873184 -0.621842797179909 0 5 1
-114.135915491559885 -42.723334355383287 -0.401221843948491 3 9 7
-114.128899479203795 -42.239953799572149 -0.852989498783160 4 10 8
-114.106186141043921 -41.904330923123631 -1.865040181058021 5 11 9
-114.162970788970455 -40.837706907505108 -0.075111738222574 4 10 8
-114.210502328329227 -39.851156737454730 1.378637634747804 3 9 5
-114.232859932899743 -39.097054446102192 1.935865507027870 2 8 4
-114.214060595694420 -38.733290704815502 1.036256486255496 2 8 4
-114.198597329947461 -38.343164338455459 0.248830951810874 4 11 4
-114.202429096490931 -37.771803125101286 0.133923862874326 7 13 9
-114.247967625889885 -36.796643617857015 1.475978151605347 11 17 15
-114.252242307166426 -36.222283651335836 1.361252083886114 12 18 18
-114.259921825429558 -35.616573006018179 1.358691055144845 12 18 18
-114.271019958139945 -34.978676736033400 1.468293061954228 12 18 18
-114.282343908855367 -34.339948986295504 1.577994540484383 10 16 16
-114.287475310980128 -33.765316507181154 1.463675519973322 9 15 15
-114.292824252575187 -33.190946678369926 1.349463273190707 10 16 16
-114.337020908558429 -32.220587839909477 2.580066145054133 10 16 16
-114.336417617985632 -31.709995051499480 2.241945090079724 10 16 16
-114.345707494130153 -31.100029457547461 2.240110652705283 11 17 17
-114.355237334317067 -30.489745732258161 2.238387738620531 11 15 16
-114.387662979735609 -29.640228438295676 3.021167742418612 12 16 17
-114.378271958670624 -29.233788832751920 2.347338113570459 13 17 18
-114.375567133762345 -28.760972633638289 1.897741660263847 11 15 16
-114.382828919873418 -28.185144000198562 1.784429495532152 10 14 15
-114.419633474679500 -27.292344750471635 2.679717716578438 9 14 15
-114.437220355679131 -26.607850921639088 2.902803151166466 6 12 14
-114.474685064834404 -25.707083471075215 3.798325167096493 7 13 13
-114.483071445289738 -25.126173267848628 3.685498697293724 7 13 13
-114.517928906800265 -24.254586864310106 4.469214905143275 7 13 12
-114.500642816355153 -23.964858419457769 3.460233014011862 8 14 12
-114.532843632572792 -23.126039679352296 4.132156700959825 7 13 11
-114.542352509883656 -22.543812324944163 4.019853671706358 7 13 11
-114.568635215794004 -21.774358344611009 4.467942391446115 7 13 11
-114.562216553505806 -21.379766560597588 3.795656684427172 6 12 10
-114.582511919308175 -20.683833366392399 4.019920097726526 5 11 9
-114.616406194611784 -19.833081450643121 4.692531095524885 7 13 11
-114.667305653251745 -18.785542529311098 5.925546111839083 7 13 11
-114.688693692998882 -18.081231195929018 6.150246016212833 8 14 12
-114.697082238839059 -17.531938629512506 5.926887153621294 9 15 13
-114.682362734779232 -17.259333843779132 4.919309371044619 9 15 13
-114.694653868698026 -16.673558008545442 4.808300837519795 9 17 16
-114.697190460315497 -16.207836406734071 4.361284888167091 8 18 19
-114.740391188361016 -15.260490773699928 5.259071543241760 8 18 19
-114.746953141443242 -14.754295148637080 4.924423578482816 10 20 21
-114.757198570061746 -14.208412523892534 4.701988142490137 10 20 21
-114.737271408594466 -14.033255666616320 3.471204345100375 9 19 20
-114.761678513347846 -13.325438391811891 3.697312471408395 13 19 19
-114.817119057310450 -12.240693707757936 4.932116949769124 14 20 20
-114.818505784538615 -11.820753807084857 4.374163278362062 14 20 20
-114.785970115215065 -11.825650140941173 2.695765452297621 16 22 22
-114.794711196414625 -11.327945133730610 2.362247373155384 15 21 21
-114.851920864471566 -10.231761892884251 3.597780451607548 15 21 21
-114.858000285333702 -9.775373395582180 3.152555449954946 12 18 16
-114.822918783367570 -9.841376909262680 1.362709828259710 4 10 8
-114.791402574677136 -9.872171855781838 -0.314933703901829 5 11 7
-114.746099027535820 -10.086733167109644 -2.440716991691858 6 13 6
-114.756595285125115 -9.603464594914794 -2.773246798987572 5 12 5
-114.760447520518511 -9.210318816385222 -3.329745174380008 7 14 6
-114.845231763603735 -7.788427541031679 -1.308360995729601 5 13 2
-114.937833052202393 -6.265318397924236 0.937438714180502 2 10 0
-114.996017966209379 -5.183993950871251 2.062732411060665 0 5 0
-115.044241298126579 -4.233250407496080 2.852028001292979 4 12 2
-115.043393563861102 -3.921327036216636 2.072399469725411 10 17 9
-115.021489419879757 -3.890221203224322 0.620434910394465 8 13 7
-115.064007329207115 -3.027997329145487 1.186194453599853 15 20 14
-115.132170159336297 -1.834262136474178 2.536822220917486 2 5 1
-115.193894765489162 -0.727043702872988 3.663542754575701 38 41 34
-115.120273404970277 -0.577329303081877 -1.916162783494485 30 32 18
-115.067590778675068 -1.017348673057784 -4.375732099161667 39 41 27
-115.080861511071120 -0.589733768140741 -4.817220620985154 46 50 33
-114.852072858982950 -1.448870576595786 -21.435802654310265 85 88 77
-114.136379292343577 -174.443592268472628 -17.336853189846266 50 37 21
-114.101681721418117 -173.710375099991893 -17.915294186097896 50 33 18
-114.108246008665120 -173.388213352112956 -17.139457831847238 58 35 21
-114.128555755761269 -173.197357355082431 -15.912258560982451 86 55 44
-114.135371580483792 -172.866993701454447 -15.136386298401789 97 63 54
-114.105104745501350 -172.168385101976810 -15.601492517458524 102 69 60
-114.085284270530863 -171.570979229093410 -15.727982848426478 103 70 61
-114.092672543582609 -171.235249009295330 -14.951891969288880 101 73 62
-114.083396314985947 -170.734360551144164 -14.739767811936815 40 18 7
-114.064275269780751 -170.136563012422698 -14.865927569715751 68 51 41
-114.025341257838392 -169.349061107270046 -15.668671814734410 98 84 73
-114.033468345721843 -169.006559887582000 -14.892297186417039 60 50 38
-113.981788314953278 -168.098732399582445 -16.145813194504967 83 73 63
-113.950432337710254 -167.382892467216749 -16.722476711172050 73 63 53
-113.939264145001857 -166.854038319644474 -16.622404412776376 96 78 68
-113.941535113427307 -166.446420822635304 -16.071219376329708 79 55 46
-113.967062452047827 -166.247008673977348 -14.730753215410544 92 63 55
-113.969579127274514 -165.832468827368956 -14.179521888894243 101 67 60
-113.952515036944376 -165.238156893727080 -14.304661727427487 115 81 72
-113.952079030030802 -164.791009040343027 -13.866037489441226 118 82 73
-113.935424985068423 -164.196944506041291 -13.990978617070397 116 82 73
-113.915719625933690 -163.574969892331296 -14.228525660329211 113 80 71
-113.889716929221478 -162.897467656691248 -14.691374671847797 106 73 64
-113.876983128792276 -162.335073092930799 -14.703255488092879 79 49 39
-113.851446226163702 -161.661362315474037 -15.165842637934702 77 47 37
-113.852094127197958 -161.210988242949412 -14.726733071195838 78 46 33
-113.852881796327623 -160.758633824937021 -14.287577024570169 97 63 51
-113.853807397736205 -160.304295299578513 -13.848375415028670 109 75 63
-113.825839242849113 -159.606900379134345 -14.423228345319473 111 79 66
-113.794888182247860 -158.885961765149943 -15.110609519464759 102 73 59
-113.780252264161859 -158.299706920742295 -15.234504793052537 93 65 51
-113.765800739761971 -157.714203843391971 -15.358304115016864 70 47 33
-113.751530602046188 -157.129447610806324 -15.482008974564963 47 30 14
-113.750230414434114 -156.647070326046332 -15.155019676818029 39 23 8
-113.800145060301119 -156.565379318395372 -13.025662754419159 36 20 6
-113.850024514644801 -156.473427016400990 -10.896428292181895 32 15 3
-113.874412445164580 -156.174536848581766 -9.668390082337709 58 40 26
-113.892495126736492 -155.821161702074448 -8.665646893075120 76 58 44
-113.901130029766463 -155.390912335494789 -8.000791448409672 91 72 58
-113.894025927161110 -154.838735724230872 -7.899014973074173 86 64 51
-113.902879290378380 -154.403609986495098 -7.234105212741923 93 70 58
-113.896038662483321 -153.849295284024947 -7.132224700455026 109 87 74
-113.886185430381119 -153.271654385540160 -7.142884400868695 114 92 79
-113.876479642668983 -152.694169803858330 -7.153471955344088 120 98 85
-113.895214492285788 -152.318342608410376 -6.150647881342934 120 98 85
-113.917150892822974 -151.959846307252008 -5.035254915833804 116 94 81
-113.926599611054002 -151.508650224638274 -4.370225759836501 107 85 74
-113.907958599050019 -150.860202700335378 -4.718395006964300 90 72 65
-113.892606782463304 -150.234831433424546 -4.953894293848606 51 43 36
-113.861795092853527 -149.505592276945379 -5.752153119963509 33 32 26
-113.831173639847336 -148.780317669727509 -6.550280128442239 30 32 27
-113.813194937589742 -148.140892392881796 -6.898039658332095 33 35 30
-113.801587174717099 -147.543631000343311 -7.020599568774543 38 40 37
-113.793217792940339 -146.966963204418647 -7.030539383645163 44 46 43
-113.769460103593701 -146.292155136413243 -7.603145543834842 45 47 44
-113.770647036006039 -145.775222339000493 -7.275322113644364 46 48 45
-113.747173288657748 -145.103922276110495 -7.847756327296423 47 49 46
-113.739306315283358 -144.529621957237339 -7.857431422078861 49 51 48
-113.709943745580091 -143.825520119618432 -8.654738243146767 48 50 45
-113.705410609611263 -143.271626118399467 -8.551749504142492 50 52 49
-113.694819879230707 -142.681262048796725 -8.673751872116924 53 55 52
-113.675114715035335 -142.038325674850427 -9.133232361886741 52 54 51
-113.655542728947665 -141.397668598023586 -9.592625677756104 54 56 55
-113.648378803841396 -140.828057334662304 -9.601916169852984 54 56 55
-113.635184154815036 -140.224696246894808 -9.836156913339607 56 58 56
-113.603726528970597 -139.522635097835973 -10.745303881172163 81 83 80
-113.557122423188801 -138.743157600034095 -12.216788183059606 58 60 57
-113.556539230850717 -138.212365332178223 -12.000813121894367 33 35 30
-113.549930516328288 -137.648904677471705 -12.009774691846332 62 64 59
-113.543413237057123 -137.085520325811729 -12.018691734061917 36 41 37
-113.527845899908399 -136.476363800706849 -12.364986103681815 67 72 68
-113.524559276700302 -135.928953104547503 -12.261334301329555 62 67 63
-113.521352997319426 -135.381066712288856 -12.157648959344698 41 46 42
-113.509113030201959 -134.789310881709383 -12.391313527536312 31 36 32
-113.478760725712874 -134.113563785947719 -13.299660849651559 35 37 32
-113.457631686492604 -133.483998354555865 -13.870543767444445 46 48 43
-113.454784078946048 -132.939096748095523 -13.766656114183832 70 72 67
-113.464112980103579 -132.447203498701043 -13.212962079566438 77 79 74
-113.464421287033588 -131.913339777263730 -12.996592144221864 71 73 68
-113.467814645173860 -131.391270557625205 -12.667766039300375 63 65 60
-113.459195190959321 -130.817397036277356 -12.788655610016576 59 62 55
-113.468744318755938 -130.317822184921681 -12.234935290317850 57 59 54
-113.454239666036543 -129.719485603714276 -12.580609900231337 62 64 59
-113.451860302665679 -129.169787667286329 -12.476547611595890 55 57 52
-113.437516239457423 -128.573727818502618 -12.822121960487038 55 57 54
-113.441283193997947 -128.046511938580750 -12.493170105488048 57 59 56
-113.463114355096195 -127.583236149623886 -11.489764918990829 58 60 57
-113.466968532186655 -127.051206536061528 -11.160820887201481 46 48 45
-113.467875424463017 -126.507208291374823 -10.944268910417918 42 44 41
-113.447872889243612 -125.891429087113934 -11.514471003996647 34 36 33
-113.436933831642747 -125.307909075020575 -11.747428446117681 34 36 33
-113.435035435382559 -124.754196424354859 -11.643177389935602 33 35 32
-113.427217114578141 -124.181400058226856 -11.763672613474654 28 30 27
-113.434389258233566 -123.654261978438385 -11.322232041918767 26 28 25
-113.423702679702899 -123.072519263040220 -11.555050404310293 26 28 25
-113.413082206202048 -122.491898111046865 -11.787825597466593 27 29 26
-113.399548088521712 -121.904198042868970 -12.132926419772161 27 29 26
-113.395011469649134 -121.341942370043526 -12.140884302783945 25 27 24
-113.396477420219895 -120.795025718834466 -11.924094915053018 26 28 25
-113.395015877104726 -120.239665906002557 -11.819651824891395 27 29 26
-113.387662497658852 -119.669567556502471 -11.939896850037712 30 32 29
-113.386300636776781 -119.113716526362168 -11.835411128583985 33 35 32
-113.376087886818567 -118.537646737665156 -12.067944418726199 37 39 36
-113.362969487813828 -117.956394691448608 -12.412779989913048 40 42 39
-113.352874106602826 -117.382820238378869 -12.645231445505829 37 39 36
-113.348754559316390 -116.821856480739555 -12.652976504568414 43 45 42
-113.347640368158281 -116.266391884918093 -12.548368321005057 41 43 40
-113.337701675814117 -115.694784402026812 -12.780724570168843 46 48 47
-113.336678660992476 -115.139086738619753 -12.676075167240413 47 49 48
-113.329793429991099 -114.573538714298437 -12.796049392992614 42 44 43
-113.320006865784734 -114.004161710496533 -13.028309905134932 44 46 45
-113.304375675514180 -113.427652591487544 -13.485157650638286 43 45 44
-113.288803037378472 -112.853334871143204 -13.941954827833712 43 45 44
-113.285066487372845 -112.295504687022486 -13.949484406863576 43 45 42
-113.281372557180177 -111.737688305032265 -13.956993454648739 42 44 41
-113.283602769476403 -111.185945573703165 -13.739888123995115 36 38 35
-113.282928408848562 -110.630368851513168 -13.635070681186818 35 37 34
-113.276416900758846 -110.069286853679898 -13.754820148124878 35 37 34
-113.269949785151340 -109.508759448619401 -13.874542669149633 30 32 29
-113.257658483008456 -108.944900840658178 -14.218803520635163 29 31 28
-113.251282260149708 -108.386024210074495 -14.338465566629480 36 38 35
-113.247879924517477 -107.829098531254161 -14.345825948121245 43 45 42
-113.238658927086405 -107.269927158016827 -14.577710843374604 45 47 44
-113.229483680518456 -106.711850500398683 -14.809562583114058 42 44 41
-113.223279699033881 -106.155450680496145 -14.929116734368819 41 42 44
-113.222966184269509 -105.600222135827536 -14.824123080170125 36 38 37
-113.213919925567225 -105.044337613685656 -15.055890547805035 30 32 31
-113.216602917624371 -104.488613301020834 -14.838609593282712 31 33 32
-113.219318017214036 -103.931804819280018 -14.621324438523715 31 33 30
-113.227901487620130 -103.372357999040972 -14.179541263183950 32 34 31
-113.216094669302663 -102.818078634610956 -14.523471735302138 32 34 31
-113.213080308851190 -102.261470488599841 -14.530643242272589 30 32 29
-113.210103988576648 -101.704863122700004 -14.537796542922678 29 31 28
-113.210077980511116 -101.146391453492143 -14.432698729614884 31 33 30
-113.207176337386812 -100.589511693467543 -14.439819108861826 35 37 34
-113.207222279431861 -100.030222438438130 -14.334695290689325 33 35 32
-113.204395578388244 -99.473067552398021 -14.341782649912062 38 40 37
-113.198700472215734 -98.918862094416610 -14.461070769292178 39 41 38
-113.184330355201993 -98.374869093742689 -14.916980516931346 38 40 37
-113.175817507870718 -97.826055628072396 -15.148420016458346 39 41 38
-113.167348551944045 -97.278325139678074 -15.379827370858692 34 37 35
-113.167627972560325 -96.719557685421847 -15.274586486180510 31 35 34
-113.167943888513946 -96.160240255184021 -15.169333803437041 29 31 28
-113.162498705654670 -95.609539342961980 -15.288466286310779 28 30 27
-113.159993301532708 -95.054519183207177 -15.295377964377451 24 26 23
-113.160424298441939 -94.494363233333090 -15.190078858603158 36 37 32
-113.152207146987635 -93.949852635818559 -15.421332606652697 30 35 31
-113.146929419991153 -93.400748643474984 -15.540368541317093 32 37 33
-113.144587934026362 -92.846234657696385 -15.547196591196240 30 35 31
-113.156747186912995 -92.260632869263560 -14.993113115080746 1 4 1
-113.151592458157580 -91.711222837433823 -15.112093358026414 4 7 4
-113.140702838505121 -91.175862236383352 -15.455390305111763 18 24 20
-113.121196522749599 -90.663213343424033 -16.135152321817884 65 71 68
-113.116183862875801 -90.117297710565296 -16.254028629893526 55 61 58
-113.102557215971331 -89.594636217516452 -16.709363128056822 2 8 5
-113.106296074064630 -89.027051343826400 -16.491699137554804 4 10 7
-113.092768235848908 -88.507076504792508 -16.946958710900674 6 12 9
-113.087944226764051 -87.964086138337407 -17.065714657848872 7 12 13
-113.086050634284135 -87.412957675498404 -17.072293588131743 10 15 16
-113.095730625358797 -86.826068252362589 -16.630268321560237 11 17 17
-113.102569813164209 -86.246188985916504 -16.300388811391372 10 16 16
-113.092171698928041 -85.721531887561142 -16.643340447440067 11 17 17
-113.093344134878009 -85.159478533700636 -16.537706170702535 11 16 17
-113.077294266487684 -84.656998422969650 -17.104851077532572 8 13 17
-113.075690459215849 -84.105736193227060 -17.111292752495132 11 15 18
-113.056876828963723 -83.617854508252563 -17.790468449517050 16 20 23
-113.058256344841425 -83.057332251844187 -17.684719346096699 19 23 26
-113.051060924997742 -82.529573685358315 -17.915311864174981 17 21 22
-113.058294993718690 -81.945953819486306 -17.585281948198656 20 17 18
-113.065579395459068 -81.360670654437783 -17.255245074252343 18 14 15
-113.055675137933463 -80.845293762576063 -17.597864925116113 22 12 15
-113.054449151726359 -80.294915166333595 -17.604116756092822 20 6 9
-113.041791722968142 -79.794394095450869 -18.058759681129402 31 14 18
-113.046426743033578 -79.219544805470605 -17.840741746097962 68 50 55
-113.053989996223436 -78.630552586079958 -17.510609649733624 15 6 9
-113.058740015461368 -78.053178451336393 -17.292562688987744 17 13 14
-113.060679541224758 -77.488237705318525 -17.186591160490792 21 20 21
-113.042592775350400 -77.019551094302173 -17.865221543546852 19 20 22
-113.038921297960485 -76.483557323902303 -17.983354103804743 17 20 21
-113.035315380540979 -75.948064584125859 -18.101450143037653 15 21 21
-113.040382024070936 -75.369117607067679 -17.883267900371834 14 20 20
-113.034041290598068 -74.848729037588811 -18.113375676338364 12 18 18
-113.044978526914264 -74.238205307911798 -17.670992227742886 15 21 21
-113.050247908353754 -73.656389197015287 -17.452742529391969 17 23 23
-113.058455258640052 -73.057690556876750 -17.122402212249369 14 24 23
-113.060999172977048 -72.489330513126518 -17.016176742879765 15 27 27
-113.066484154411441 -71.904084167401052 -16.797859211360588 15 27 27
-113.066309597727724 -71.350807683531727 -16.803637871470471 13 25 25
-113.063344647960250 -70.814303387605051 -16.921437686431318 12 24 24
-113.051856321615418 -70.329594731494993 -17.375358551751958 18 29 30
-113.060518180097020 -69.725369741655697 -17.044857684940297 23 32 38
-113.089332684872716 -68.995900730312229 -15.929992866406224 23 32 39
-113.123966875298805 -68.225067435384858 -14.591051943714888 26 35 42
-113.152954111515257 -67.484008379372980 -13.476223793203701 28 37 44
-113.187767414973209 -66.700487721182441 -12.137327780855486 30 39 46
-113.239883149701953 -65.797905002430099 -10.126226600773293 32 41 47
-113.274890059934506 -64.999500643304813 -8.787391173018364 28 38 40
-113.298523601994290 -64.271610576538748 -7.896706426259982 22 32 34
-113.330865603735433 -63.480594908452282 -6.669928711004644 22 32 33
-113.374792088892193 -62.604161853344038 -4.995052722984326 17 27 28
-113.407352988816228 -61.799869186110762 -3.768306954410605 12 22 23
-113.440027672131151 -60.989477956861549 -2.541569527815284 4 10 14
-113.444110145515936 -60.379492635843121 -2.435036486960598 2 7 10
-113.451172748494926 -59.747939240308384 -2.216440888428508 3 9 8
-113.449730676202947 -59.178784016731335 -2.333848256425767 6 12 10
-113.457017380385835 -58.545660470173672 -2.115161610999138 6 13 7
-113.458673098456259 -57.954824780752006 -2.120451289711184 5 11 4
-113.460444295094973 -57.363879632594944 -2.125686850585680 6 11 4
-113.468083807967773 -56.728241184015154 -1.906857309841030 3 8 1
-113.475846653357479 -56.091393420824069 -1.687981215325834 4 9 2
-113.483735281923558 -55.453332866917464 -1.469057430434248 5 10 3
-113.468725395695088 -54.998943099217513 -2.146068680224005 5 10 3
-113.459587590843597 -54.500942078124346 -2.599001889109417 6 11 5
-113.467852404687150 -53.863052859730658 -2.379896374828064 4 9 3
-113.510834291144150 -52.936754307077287 -0.816844455124880 6 11 5
-113.510738010251004 -52.365739570672098 -0.933627142029593 6 11 5
-113.525197097198145 -51.672735103643411 -0.490407867828452 7 12 6
-113.528262039221602 -51.076409785197256 -0.495079886141070 5 11 5
-113.554566341044904 -50.279717587770769 0.396174328039478 8 15 8
-113.560816200650180 -49.655599912082316 0.503598767606746 13 19 15
-113.570105782311074 -49.005202823661790 0.723065777509703 8 14 10
-113.565089863490513 -48.482798561162383 0.382712154870376 8 14 10
-113.574684176486471 -47.831255671376077 0.602313152890389 11 17 15
-113.567065033596805 -47.336838558250015 0.150143357647067 9 15 13
-113.579870201298561 -46.657734668877119 0.481855603258765 6 12 10
-113.592845661878798 -45.976807812776336 0.813630551687510 6 12 10
-113.603093129525519 -45.321274913231441 1.033502945478773 4 10 8
-113.598994895328104 -44.801941563794884 0.693619950468474 2 8 6
-113.583427257377608 -44.395152772672148 -0.094027029989149 0 6 3
-113.588354505545510 -43.795693615959578 -0.097840385597294 1 7 3
-113.573080383476551 -43.394284998501043 -0.885291568232958 0 5 2
-113.581250099912609 -42.767753599906960 -0.776973521400947 3 9 7
-113.560447930519459 -42.429179038057448 -1.788140290269439 4 10 8
-113.560204852593984 -41.891319863174623 -2.015510802441042 5 11 9
-113.586418726734507 -41.089547814524330 -1.235211022934976 4 10 8
-113.627472723101761 -40.135211409389441 0.104912223215933 3 9 5
-113.651225787683572 -39.353872807294771 0.773386206673877 2 8 4
-113.645914830599764 -38.871478940963271 0.322444400927509 1 7 3
-113.652504255897910 -38.268953997381693 0.319394667476644 0 7 0
-113.665162803820209 -37.604583869636727 0.540329547777986 1 7 4
-113.675097387759180 -36.969935710984643 0.649408351285132 8 14 12
-113.694068873029664 -36.240422172653751 1.094410535165423 12 18 16
-113.695604919652141 -35.698207901694452 0.867846320887480 12 18 18
-113.712082125940753 -34.997306074935310 1.201090880052590 12 18 18
-113.714034792186538 -34.455377809735793 0.974728919175305 10 16 16
-113.733926738078168 -33.719527492340845 1.420106220611473 11 17 15
-113.739272349293287 -33.144849856327177 1.305889212172360 9 15 14
-113.786325699409275 -32.108271018263373 2.758894850835929 8 14 13
-113.792165950594651 -31.530229473617503 2.644879850061670 8 14 13
-113.813090058192202 -30.784605574796764 3.090650329736548 8 14 13
-113.807502299874571 -30.341034839147294 2.529116844295430 9 13 13
-113.819993667599050 -29.695193866140837 2.639303591140646 8 12 13
-113.826769004841410 -29.117265011926950 2.525737092310067 7 11 12
-113.842750754058670 -28.435528857482847 2.748083023483161 8 12 13
-113.841040096356778 -27.962059539159078 2.298955453476225 9 13 14
-113.854539724972582 -27.314306229927503 2.409604864238446 8 13 14
-113.838273788356588 -27.020737013279689 1.401071476208529 9 15 15
-113.867307313779037 -26.194991345942682 2.071614509802032 9 15 15
-113.887627414014190 -25.473732164830363 2.406487947783802 8 14 14
-113.923343470423802 -24.568693875282111 3.301129452343048 7 13 13
-113.917081711564094 -24.171544857945765 2.628892484499232 7 13 13
-113.923152510636157 -23.629733388735012 2.404501826490105 6 12 10
-113.941625178723982 -22.939903548508475 2.627956092339048 5 11 9
-113.987777482167516 -21.911384758731248 3.858895869648137 8 14 12
-114.006928232002380 -21.215967155017587 4.082617009823963 9 15 13
-114.023347278507813 -20.557019091136080 4.194547826864266 9 15 13
-114.037021270701416 -19.935370617102542 4.194690477826555 8 14 14
-114.075525011261931 -19.004617341346034 5.090400903657070 8 14 14
-114.086795597092134 -18.418676351150797 4.978902443401836 8 14 14
-114.113761593327325 -17.637111525021261 5.427193383871128 9 15 15
-114.097909650699094 -17.404750606420095 4.308629211985703 10 16 16
-114.110074630393896 -16.820177763093305 4.197572709712659 11 17 17
-114.125653742882932 -16.195683035036641 4.198597465771599 12 18 18
-114.126035375389591 -15.772018024575130 3.640124616068505 12 18 19
-114.145363544209246 -15.107356428191398 3.753388334992025 11 16 19
-114.146323010424084 -14.686591604373398 3.195221772032369 10 15 18
-114.128781754504899 -14.514792880655328 1.965613950634349 9 15 19
-114.152194611204010 -13.810512706031121 2.191282841230191 12 18 18
-114.182282993940987 -13.021188700535403 2.640987651568224 16 22 22
-114.212796588815209 -12.229034122845230 3.090866745433630 17 23 23
-114.199491331907410 -12.025466215636651 1.973817280198176 14 20 20
-114.218081473623798 -11.401691704044385 1.976289915868421 14 20 20
-114.243402835127313 -10.691692663794752 2.202812961464076 15 21 21
-114.285073478958822 -9.764463429265776 2.989215812770396 18 24 23
-114.266539223264999 -9.656866463418387 1.648934919709347 16 22 20
-114.232154773166712 -9.773791423940832 -0.250911959648960 13 19 15
-114.217134439734934 -9.636055434894319 -1.478963155530437 10 17 12
-114.179738648342493 -9.813591678621250 -3.490485632775830 0 6 0
-114.229695967773907 -8.798670051657433 -2.479303356274130 5 12 4
-114.280236202370588 -7.777933195009410 -1.467902074235894 5 13 3
-114.337876767238939 -6.661173117126820 -0.232374663946672 4 12 1
-114.373318416406335 -5.855067837970640 0.219718392622212 0 8 0
-114.428915904077698 -4.771949701799995 1.343755810269215 3 11 0
-114.462168837893799 -4.004032377851171 1.684335995802826 11 18 10
-114.495929997077084 -3.233639901540235 2.025133836623354 7 12 6
-114.550047153376738 -2.181579550630740 3.037923877281628 9 14 8
-114.594870503984723 -1.264003061800580 3.715075448343356 2 6 1
-114.626979383994481 -0.530589311107015 3.944604600149631 44 47 38
-114.377367765768938 -1.243332429113337 -16.011212520212297 79 83 66
-114.344217010050187 -1.564722789094257 -18.019223424257490 78 82 67
-114.300467830607744 -2.050207803612312 -20.363192123931896 78 82 68
-114.313319983775358 -1.718665531537841 -20.914750853671393 77 82 74
-113.671386290199450 -175.378274430972596 -16.330235361041559 42 30 14
-113.634699277794780 -174.605980905417425 -17.020889216771764 56 44 28
-113.604704845337579 -173.905947426951741 -17.485879786389347 37 21 6
-113.597106108650564 -173.446418454894797 -17.161668503769619 51 28 14
-113.608578687549226 -173.187820558199974 -16.161111975124044 74 45 34
-113.604481734364470 -172.757419066996533 -15.724066742566663 94 61 52
-113.584936321351407 -172.159389476992715 -15.850431905070678 100 66 57
-113.581253880464118 -171.726616764005740 -15.413212779428051 104 71 62
-113.583977937744706 -171.357140520100131 -14.750559494826916 106 74 65
-113.568229307828204 -170.790765822318576 -14.763923564683694 41 17 7
-113.540335986090113 -170.096565246780841 -15.227848929135206 59 41 31
-113.506561809614226 -169.341383973761168 -15.916933149129591 77 61 50
-113.519328831997058 -169.062073258680300 -14.915970570603065 61 48 39
-113.470712228472195 -168.153979079007513 -16.168023790789533 41 31 21
-113.443947505137501 -167.468773155031670 -16.631316651166316 55 45 35
-113.429700057678318 -166.908674038689099 -16.643897962768790 92 74 64
-113.430934867772905 -166.500723050234711 -16.093212053710829 92 70 59
-113.453638260744285 -166.300953792435109 -14.754100534614366 89 60 52
-113.442959003448252 -165.766798692371310 -14.653848896560305 102 68 62
-113.423378047372111 -165.143728145101306 -14.891347706817015 110 76 67
-113.419160749377525 -164.668357001295192 -14.565681826949685 107 71 62
-113.412088371818697 -164.162592679628347 -14.352553544527865 107 70 61
-113.393137369198271 -163.541117549062847 -14.589734564785061 107 73 63
-113.359372822253192 -162.778802226497277 -15.389746497321255 100 68 58
-113.349896969884583 -162.245884379326270 -15.288906418809233 76 45 34
-113.334609596691948 -161.656875623853693 -15.413141693677062 80 49 39
-113.340445324010858 -161.261917578537833 -14.749262093778356 63 26 17
-113.331479388674552 -160.727201368453962 -14.648196584158853 105 69 57
-113.325661681314784 -160.219211168951773 -14.434490983893227 108 72 60
-113.302170267935651 -159.549630948260727 -14.896057060793652 106 72 60
-113.281866660142541 -158.908970232936355 -15.244941534511497 102 71 56
-113.273612430511974 -158.375096358114746 -15.143526876741902 96 67 52
-113.262562831271353 -157.814912736312181 -15.154579218575066 77 51 36
-113.254631158911820 -157.280605838524053 -15.053014707835615 62 43 28
-113.249798920795001 -156.771346294000665 -14.838850728468003 44 27 11
-113.245108708472912 -156.261172344461556 -14.624628216877255 37 19 5
-113.284573199304830 -156.122953809199885 -12.722570248906607 31 13 0
-113.335741759241031 -156.073906966715811 -10.370559665683004 52 33 19
-113.360539797868356 -155.794720267558006 -9.031263558904357 65 46 32
-113.370778997507045 -155.388944488035236 -8.254529820393827 77 55 42
-113.372360817491327 -154.908214964133492 -7.815285933940771 85 61 49
-113.376966540966677 -154.448941075233648 -7.263515683872697 99 75 63
-113.364243601138227 -153.847817352588635 -7.386648848052346 109 85 73
-113.354577953854360 -153.270336786284844 -7.397217158152188 114 90 78
-113.342161031278806 -152.670346836810978 -7.520192254230153 113 89 77
-113.364595990225595 -152.339722329548636 -6.293414996790119 115 91 79
-113.387074416891608 -152.003215994327320 -5.066677489152170 115 91 79
-113.392298076015706 -151.529780187033253 -4.514757396528267 109 86 75
-113.371707119120586 -150.859641434828234 -4.974941654234129 97 79 71
-113.357033456771376 -150.234416827070618 -5.210115004819386 44 36 29
-113.333897138700479 -149.547361485710240 -5.782549970457808 29 28 22
-113.313797552149438 -148.883918579536527 -6.242430234568445 32 34 29
-113.293857178951740 -148.222790671561427 -6.702210502117168 35 37 32
-113.279789871727829 -147.604371410559992 -6.937023723635974 41 43 40
-113.263005915680509 -146.967240004269144 -7.284188079072123 47 49 46
-113.240663680842403 -146.292561460946160 -7.856115757414102 48 50 47
-113.232711352630687 -145.717621900521777 -7.865838265692560 47 49 46
-113.202129217850015 -144.989950700875369 -8.774830018717239 48 50 47
-113.185916536635901 -144.360917871151685 -9.121637715514368 52 54 51
-113.167000595857019 -143.715069124101291 -9.580770622026449 50 52 47
-113.168047940602520 -143.199504166535945 -9.252999890234577 53 55 52
-113.152208145141742 -142.574324088745698 -9.599589541454378 55 57 54
-113.136493958779099 -141.950877467601629 -9.946101258372067 54 56 53
-113.129368700982312 -141.381559660815014 -9.955370231464684 56 58 57
-113.130799750516644 -140.863910621677746 -9.627437389115642 58 60 59
-113.115418621261767 -140.243189828078187 -9.973761714342402 59 61 59
-113.102966318166111 -139.640838423203206 -10.207636928907107 77 79 76
-113.076578814929235 -138.957789034158452 -11.003303784946127 59 61 58
-113.078384454361355 -138.439653967403700 -10.675196743000413 53 55 50
-113.052239055975036 -137.761672534167786 -11.470695609893738 39 41 36
-113.037423999158619 -137.149808512981394 -11.816657960798580 38 42 41
-113.011530357765153 -136.478520959209931 -12.611967484545460 36 40 39
-113.013697099055989 -135.961225955126196 -12.283679045521154 36 40 39
-113.001979161175015 -135.368674149957599 -12.517102070081705 53 57 56
-112.990355800861224 -134.777279013069716 -12.750467942890623 65 69 68
-112.973256427398525 -134.158653384720338 -13.208451588588758 66 68 63
-112.953477966061129 -133.528350559742535 -13.778695984914492 59 61 56
-112.950478061077519 -132.982717471780802 -13.674888719732309 52 54 49
-112.944772986425392 -132.423222561643740 -13.683377170066677 47 49 44
-112.944689287961310 -131.889988616025960 -13.467188286159995 48 50 45
-112.950209322061866 -131.381379050992848 -13.026347354841874 39 41 36
-112.947476718022074 -130.832970543098867 -12.922440782595999 38 41 34
-112.942044665407707 -130.271783497786089 -12.930816038120753 42 44 39
-112.931157150727216 -129.686620938240026 -13.163765729851434 42 44 39
-112.923108365223101 -129.114336183657770 -13.284365940638224 43 45 40
-112.923404200226713 -128.577046233977313 -13.068037239708929 44 46 43
-112.929265779920556 -128.061102990514229 -12.627108403385932 48 50 47
-112.946182244077775 -127.586717722275381 -11.737027631430749 52 54 51
-112.949372856085702 -127.054763206845536 -11.408400273879607 53 55 52
-112.949863971718003 -126.510837246475106 -11.192046459158576 54 56 53
-112.942171315685314 -125.935542494938204 -11.312507282237704 52 54 51
-112.926315121107081 -125.331327773017108 -11.769747856719505 47 49 46
-112.926980441863790 -124.786699538687586 -11.553317931722773 38 40 37
-112.922218169053920 -124.222438396318552 -11.561404410110157 34 36 33
-112.925721156234573 -123.685264342296009 -11.232681340679846 32 34 31
-112.915597951256544 -123.102763035268211 -11.465237995659663 30 32 29
-112.900075732117159 -122.504435542956642 -11.922258197224409 29 31 28
-112.887354634903176 -121.916516917110542 -12.266972323049487 29 29 27
-112.880154125773899 -121.346118536034055 -12.387147303936132 28 28 26
-112.883910371998468 -120.806920426327068 -12.058323910869262 28 28 26
-112.887705210116962 -120.266116918208695 -11.729498580745002 29 29 27
-112.880654524949463 -119.695255940452071 -11.849606648101854 31 31 29
-112.879095298476997 -119.138645637116866 -11.745223161250465 29 29 27
-112.866713832580473 -118.555240678180368 -12.089728347176475 29 31 28
-112.851677862097603 -117.967194468696491 -12.546410098641701 32 34 31
-112.842130645977548 -117.393395774010585 -12.778601622165439 33 35 32
-112.835348568277823 -116.826458822789789 -12.898540796654061 41 43 40
-112.834033757386976 -116.271047126953491 -12.794028044357077 41 43 40
-112.824639435718737 -115.699485037217485 -13.026123401200891 44 46 45
-112.820707103657796 -115.138902358999189 -13.033774974499380 49 51 50
-112.822224686586324 -114.587666248302583 -12.817005348391859 43 45 44
-112.812973005011557 -114.017788524203823 -13.049015128682271 46 48 47
-112.798372521873617 -113.440773261635414 -13.505374997416283 45 47 46
-112.778433514941696 -112.858251381248252 -14.186063249858819 45 47 46
-112.774732096600147 -112.300467206030191 -14.193575548428242 45 47 46
-112.773765430937473 -111.746001056326293 -14.088886511666118 46 48 47
-112.770143342189982 -111.187970750973847 -14.096363392770797 35 37 36
-112.771942064466131 -110.635473912752403 -13.879472247864868 30 32 31
-112.773773354403076 -110.081900363117455 -13.662576605833038 30 32 31
-112.767575855993982 -109.520598435889767 -13.782178115459999 29 31 28
-112.758735189771286 -108.957904875336837 -14.013917317210399 31 33 30
-112.747255969226700 -108.394634711687829 -14.357783614489961 41 43 40
-112.751916840075140 -107.841411560222639 -14.028671818904257 44 46 43
-112.743203734602673 -107.280917797045660 -14.260327352409433 42 44 41
-112.731855851797704 -106.720661024403469 -14.604099799817135 42 44 41
-112.717877635829936 -106.161456259716687 -15.059978645667940 43 44 46
-112.709300232254208 -105.605059310932916 -15.291527089282312 38 40 39
-112.703439844869749 -105.049796379286832 -15.410905163735407 32 34 33
-112.702964072195215 -104.494620894026781 -15.305988586997557 32 34 33
-112.710534547250390 -103.937398712625424 -14.864667125836235 30 32 29
-112.718129275174704 -103.378004102356215 -14.423356424087160 28 30 27
-112.712408534358119 -102.821665861807773 -14.542678760795525 31 33 30
-112.712060048693758 -102.263237285219276 -14.437734776091645 31 33 30
-112.711744921881888 -101.704265708059296 -14.332780422004674 28 30 27
-112.706135984115207 -101.148473616320274 -14.452043650733174 28 30 27
-112.697904011544139 -100.595358256389900 -14.683393062296346 31 33 30
-112.695035572069912 -100.038518587231749 -14.690497144355476 32 34 31
-112.692203519950752 -99.481677090687626 -14.697583837638916 36 38 35
-112.694724039542308 -98.918934810293379 -14.480452848854526 39 41 38
-112.678678912683381 -98.377649116618343 -15.047994932711703 37 39 36
-112.675960706803366 -97.821613868641180 -15.055018863223012 38 40 37
-112.667971273829991 -97.273103836492282 -15.286204839721620 37 41 39
-112.670635146370685 -96.709529250349107 -15.069013838718945 30 34 33
-112.665376732958023 -96.157787179423408 -15.188067688899139 27 29 26
-112.657508165932768 -95.611162966549870 -15.419176431857295 28 30 27
-112.649682374914335 -95.065619179395370 -15.650253589555774 22 24 21
-112.649842873249455 -94.505781921655000 -15.545080608913935 32 33 28
-112.650039353066774 -93.945392178310001 -15.439896101866196 30 35 31
-112.647626833719613 -93.390117460958663 -15.446765964464220 31 36 32
-112.645253469251784 -92.834832626399148 -15.453617199643674 29 34 30
-112.648205838953828 -92.267112679251341 -15.236330852871191 2 6 3
-112.643267817064768 -91.717745521705112 -15.355206982668250 0 4 0
-112.630449910874262 -91.189177879801377 -15.810215377003260 0 4 0
-112.620321400160080 -90.655744702032521 -16.153128372245334 0 3 0
-112.615518073365934 -90.109329444665605 -16.271909678979199 25 31 27
-112.605483339741539 -89.578587137468972 -16.614750113100371 36 42 38
-112.592860473733936 -89.057304951124848 -17.069590208026483 4 10 6
-112.580288518012338 -88.538182196571640 -17.524383719530022 5 11 7
-112.578306498455021 -87.987666675747235 -17.530998643703583 12 13 15
-112.594804429351981 -87.376513994124053 -16.753384797237999 14 15 17
-112.611333888999610 -86.761534095431415 -15.975795262994097 13 17 18
-112.609472987939725 -86.207153106807283 -15.982392033695504 11 16 16
-112.597134526800474 -85.690654760983634 -16.437046827833768 11 17 17
-112.598000595614195 -85.127570870938342 -16.331569723910746 10 19 18
-112.588395664474987 -84.603999976873752 -16.674130723038274 9 19 18
-112.589357961130133 -84.040869092696994 -16.568608067779962 19 24 22
-112.561463843790008 -83.593374883932782 -17.695147649799793 27 27 27
-112.559904034556070 -83.042933782320858 -17.701559823967472 26 18 19
-112.553142718172481 -82.514682339922487 -17.931949741857835 14 4 6
-112.562188365664412 -81.919208277165538 -17.490316309090105 44 26 28
-112.547658520093336 -81.426401410170939 -18.056634470656462 78 56 59
-112.530564833449233 -80.948210264836320 -18.734887602959077 91 64 68
-112.529273617047153 -80.400071855853469 -18.741147580464684 123 90 96
-112.528037566105468 -79.851900669613315 -18.747381504395889 134 96 103
-112.532102094456661 -79.278212838363245 -18.529624535166846 135 96 104
-112.541464886122796 -78.677373791213341 -18.087894606192776 109 77 85
-112.553502878148961 -78.061034463391977 -17.534185537791444 91 69 73
-112.552492286075136 -77.509724571265593 -17.540343911249494 17 4 8
-112.535821552073486 -77.041356787792211 -18.218293587659304 23 18 20
-112.524457405082117 -76.548010377582045 -18.672243958745071 16 18 17
-112.528875222305047 -75.970550855967872 -18.454356801234439 14 20 19
-112.530736537008082 -75.406605501925867 -18.348412442571032 14 20 20
-112.524806605752048 -74.886828879827675 -18.578317393083410 12 18 18
-112.529417484459884 -74.307327105604898 -18.360358897552118 14 20 20
-112.547184907277227 -73.649365523476703 -17.582619558031013 17 23 23
-112.567635695829551 -72.971803067314553 -16.692939382262637 15 24 23
-112.569830876249640 -72.401894088944033 -16.586896689965670 14 26 26
-112.569480516032087 -71.847668002342672 -16.592769228621478 12 24 24
-112.569203741842188 -71.293386254083899 -16.598607136927285 8 20 20
-112.582087655955490 -70.654913203588151 -16.044721215825575 11 23 23
-112.563642400659432 -70.218847159245101 -16.834046204032688 15 27 27
-112.558360795599356 -69.699676449962567 -17.063634760550144 18 28 32
-112.571477876492480 -69.058021273320435 -16.509670048483173 21 30 35
-112.597761810092877 -68.323988431508781 -15.396062824324986 24 33 38
-112.616278377773540 -67.639004268423392 -14.618243253469871 25 34 39
-112.627029134206239 -67.005520219309219 -14.176185358313660 29 38 43
-112.656190328014958 -66.238634340862006 -12.950680950623791 31 40 45
-112.667120092081944 -65.598729918956423 -12.508603506951374 31 40 45
-112.685996203239398 -64.898722766677139 -11.730766570904080 33 42 47
-112.739007033067793 -63.940615299633492 -9.498090954680748 35 45 48
-112.789507408592499 -62.991336069456324 -7.377384342634656 34 43 46
-112.829643355249857 -62.111998357106835 -5.704351634335723 23 33 36
-112.854174874523949 -61.346618727033302 -4.702764312343788 21 28 35
-112.878817245563184 -60.576232580484344 -3.701175493836558 12 19 25
-112.890470743558325 -59.905430450432128 -3.259069863965323 4 11 14
-112.910099113130087 -59.168769270198467 -2.481250348394212 0 8 9
-112.924601600424140 -58.471113008256225 -1.927199309957302 1 9 8
-112.941844636464538 -57.748881929938783 -1.261231278403784 2 8 5
-112.935600602139132 -57.221369287967470 -1.602225010407125 2 7 1
-112.934715598938283 -56.650815933346358 -1.719380270125868 2 7 0
-112.941821277701365 -56.013020645615782 -1.500828315218342 2 7 0
-112.951676108678257 -55.351183201446233 -1.170349768388519 3 8 1
-112.951151452066611 -54.780006063745383 -1.287339060446726 5 10 3
-112.942865519064597 -54.279389135854402 -1.739891663602123 6 11 6
-112.950470775241897 -53.638919807371764 -1.521128237816839 6 11 6
-112.966099135744315 -52.925447794041638 -0.966701384970406 7 12 6
-112.968714001052888 -52.330104257491989 -0.971578612466402 9 14 8
-112.968829690741117 -51.759097112962927 -1.088259815224603 10 15 9
-112.984881449620190 -51.040012202442888 -0.533688186416583 11 16 10
-113.001085047352944 -50.318043718715160 0.020926399511069 10 17 10
-113.001623709364253 -49.744958941046846 -0.095573840859203 10 16 12
-112.999664513803964 -49.197838976780581 -0.323860663782256 6 12 8
-113.000484537052486 -48.625815461334184 -0.440215377795880 5 11 7
-113.014656602503905 -47.923591374755475 0.002771684129954 10 16 14
-113.013133989448832 -47.377360694646242 -0.225297125370560 9 15 13
-113.022337434464092 -46.725393234850081 -0.005887487565076 9 15 13
-113.026410492262414 -46.126036729734764 -0.010108428273639 5 11 9
-113.041237176733176 -45.417641739654428 0.433128280937439 3 9 7
-113.032384155059020 -44.954277205090222 -0.130171042816897 4 10 8
-113.031633036586058 -44.410179253314951 -0.357848818709613 0 6 4
-113.028384744979249 -43.895029045019164 -0.697282144924770 2 8 6
-113.017320298075674 -43.466275427362639 -1.372142024294362 3 9 7
-113.009059227691026 -43.012032503419121 -1.935064267260373 5 11 9
-113.003610087502892 -42.531472037410055 -2.386053307219669 6 12 10
-112.995652991127216 -42.082043816855808 -2.948780569901061 5 11 9
-113.019853480143240 -41.282180582596048 -2.169424338551835 4 10 8
-113.057620742316061 -40.329795900866181 -0.830853364704012 3 9 5
-113.076931566533943 -39.580334875192385 -0.275035286821947 1 6 2
-113.080408050085921 -39.009334081427156 -0.390108631943917 0 5 1
-113.105496076451047 -38.194516878350939 0.389518265517665 0 5 0
-113.128140162142259 -37.406390472788893 1.057391847004538 0 5 1
-113.129546495492662 -36.863251801011963 0.830756063019919 1 7 4
-113.128455342543717 -36.352307782814805 0.492398000972344 11 17 15
-113.149075559539000 -35.589799179168061 1.048708182596272 14 20 18
-113.156467796238829 -34.983746271677305 1.046006196263363 14 20 20
-113.139794717485856 -34.666978035180172 0.037039233665240 12 18 18
-113.166490219654392 -33.835719702156311 0.817265905231324 8 14 12
-113.179931316502532 -33.163936371286582 1.038498846432589 7 13 11
-113.231528568123011 -32.028718807537885 2.825239588806824 6 12 10
-113.248214431718424 -31.316979576549524 3.158472414066296 6 12 10
-113.270587593970490 -30.536160223491120 3.715432716950261 5 11 9
-113.252429808013659 -30.259763655483624 2.595312156459272 5 9 8
-113.248050044537109 -29.818038376298926 2.034375567819865 5 9 8
-113.254784164107804 -29.241208644340094 1.920800664413974 6 10 9
-113.283620259977141 -28.387274108589885 2.701817971122978 8 12 11
-113.268962204346622 -28.088214512273034 1.693997272609181 10 14 13
-113.251730661258847 -27.829032524674194 0.574497021855819 7 11 10
-113.253889720047511 -27.326560644653863 0.237781057936985 7 13 11
-113.292054328126810 -26.360285029106468 1.354681364503534 8 14 12
-113.325065722047896 -25.460188957232674 2.248079840528334 9 15 13
-113.350138587941231 -24.664266073065399 2.806176204147420 9 15 13
-113.353395719015140 -24.158081928093250 2.469947342037983 8 14 12
-113.340259972588001 -23.874534571087139 1.463014586300886 7 13 11
-113.363422156925125 -23.112377052685623 1.909685565364384 7 13 11
-113.409182449361651 -22.047969266520713 3.250927267403000 8 14 12
-113.441419629601825 -21.165090492863435 4.033273703635956 9 15 13
-113.448872692148839 -20.619961264298759 3.809510164371488 10 16 14
-113.450996825168858 -20.152094359517019 3.362274813558372 10 16 16
-113.464604371086040 -19.531741396108359 3.362399012191474 10 16 16
-113.484145634027229 -18.833233389835186 3.586275161432809 10 16 16
-113.489921338742704 -18.328794804137317 3.251269144239018 10 16 16
-113.512934063809439 -17.589097485305565 3.587240931696613 10 16 16
-113.527805483043068 -16.966310354127167 3.587944706880393 10 16 16
-113.545841591629994 -16.303057242039046 3.700604806853761 11 17 17
-113.521508904891618 -16.242564988780394 2.136317066885482 11 17 17
-113.531564892738515 -15.703005311458451 1.913856088351253 11 16 19
-113.547651869671739 -15.082416786585570 1.915164013531154 12 17 20
-113.546863549706757 -14.707902493332156 1.245778510678889 12 17 20
-113.546329580576327 -14.336236533890514 0.576544007724863 11 17 17
-113.577784379864170 -13.509093182694768 1.137372098453511 11 17 17
-113.595208808801289 -12.888305066569046 1.139317801594586 11 17 17
-113.607191221605106 -12.351409621518584 0.917805842437758 11 17 17
-113.593323635529487 -12.197698435348165 -0.309858323789086 10 16 16
-113.617567531686689 -11.493257352903495 -0.083793523070028 10 16 14
-113.656849301544241 -10.571669641612345 0.701524570148223 14 20 18
-113.679023148433970 -9.905689143817042 0.816136075591515 9 15 11
-113.704543849248950 -9.194862731329300 1.042745967872435 5 11 6
-113.647808219259360 -9.712453720214913 -1.861399346909451 8 15 8
-113.673929190180303 -9.006039426762580 -1.634456871309737 3 10 3
-113.667795787700001 -8.787392917072376 -2.637371672679819 4 11 4
-113.724502644045870 -7.632595982577649 -1.291823592900045 7 14 6
-113.748948928043987 -6.966109779301606 -1.176130166813977 8 16 5
-113.785836477047184 -6.116899916984776 -0.612930208927622 1 9 0
-113.817224746494233 -5.355415535893510 -0.273175854924204 5 13 3
-113.867236988369541 -4.315860770322813 0.737779135016098 0 6 0
-113.951236772311958 -2.761924364819209 2.979146594084000 1 5 0
-114.020895604695738 -1.428288226087656 4.661626627795812 13 19 11
-114.036354891682166 -0.927640578327743 4.331292225196506 7 12 2
-113.892035350324747 -0.518612913902350 -13.257663893365617 76 80 65
-113.882680917012365 -0.522698763623251 -14.592403583539891 77 81 66
-113.698146274870453 -3.295903527538204 -21.968824738786651 78 81 68
-113.704652394945214 -3.070792724853312 -22.744041606265313 77 81 68
-113.767974161663645 -1.849309834026755 -22.615463142211183 29 34 27
-113.831876223050685 -0.739345094937443 -21.487729190534679 29 34 27
-113.130931071101529 -175.124187506541830 -17.367414924131367 55 43 27
-113.104883335009959 -174.457788740975076 -17.719312303818811 54 42 26
