ply
format ascii 1.0
element vertex 683
property double x
property double y
property double z
property uchar red
property uchar green
property uchar blue
end_header
-107.708852674957470 -25.744256983682284 -2.542091989021799 17 23 23
-107.716553351324137 -25.283852109134600 -2.986582730186882 11 17 17
-107.723580971212243 -24.972501955068175 -3.873296703829567 17 21 24
-107.731679690408015 -24.516952430053319 -4.317547044117703 20 24 27
-107.740901478918218 -23.913864761589050 -4.319343256440817 21 25 28
-107.749673180003271 -23.423297012304062 -4.652773219753442 21 25 28
-107.755587913942080 -23.426815248249376 -6.423649575068708 22 27 31
-107.760643758061761 -23.591603494859477 -8.636712326776490 18 24 28
-107.771679823519150 -22.844013154712677 -8.195692494136466 11 21 22
-107.780752007226354 -22.442486325959877 -8.749779934508325 9 19 20
-107.789524685622467 -22.121392510559915 -9.524900489622723 11 21 21
-107.799014278796648 -21.725197262502185 -10.078733362097864 10 20 19
-107.811118398991880 -20.975157313519013 -9.637227790786625 13 23 22
-107.823537264274535 -20.222457888039038 -9.195599021832010 14 24 25
-107.833781203530265 -19.828345206777314 -9.749049580821151 10 20 21
-107.845664511592432 -19.234491571573091 -9.749477480770395 8 17 19
-107.855235108494767 -19.006486728175151 -10.744975872694710 10 19 21
-107.866461038817164 -18.578168133022224 -11.187449864258355 11 20 22
-107.878832002519545 -18.027844695173108 -11.298055278152248 15 20 23
-107.892712543754641 -17.311439994525038 -10.966212533517108 19 24 27
-107.904427036336131 -16.927446944980371 -11.518855418382884 19 24 28
-107.916700803748455 -16.503667270333157 -11.960781406885474 19 24 27
-107.931511431129337 -15.784934967465670 -11.628517671405120 20 25 29
-107.949335627837243 -14.722657131669608 -10.411477462077471 19 24 28
-107.961516025380547 -14.426743672834606 -11.184708581972956 9 15 16
-107.975307260224881 -13.961316670468396 -11.515478431203064 7 13 13
-107.987966758972917 -13.671096614035616 -12.288421745673361 4 10 7
-108.004104270710457 -12.990102631464323 -12.065993658696499 3 9 5
-108.019868887807903 -12.395571263707955 -12.064571729948938 3 10 3
-108.035220344008295 -11.889190018118375 -12.284157852308965 4 9 3
-108.047427537051277 -11.785182626422733 -13.498836307456685 2 8 4
-108.059807616584393 -11.686822146526834 -14.713373927800262 1 9 4
-108.077563907876893 -11.006301358815870 -14.490166551400677 0 11 5
-108.096934569603050 -10.187524334787028 -13.935033351852155 4 15 11
-108.112579314011185 -9.823120802562435 -14.485594372973168 7 19 17
-108.128503663768612 -9.460925355817920 -15.035998902920426 14 24 25
-108.147753089366091 -8.776439810292171 -14.812118027431239 12 22 23
-108.168301357583189 -7.996862679968146 -14.366876845696197 14 23 20
-108.182509526342145 -7.918233206410264 -15.580336813260061 10 16 15
-108.199209499321768 -7.609141863051544 -16.240682545423510 8 17 17
-108.220432645577802 -6.875281084792253 -15.905506807890674 8 17 17
-108.231027810489849 -7.238108954442385 -18.113881046192063 10 18 17
-108.239657057118833 -7.804009965598397 -20.764540978882621 20 27 27
-108.262757482666686 -6.980454022902730 -20.207672664916913 27 34 33
-108.281241629926228 -6.639791682197163 -20.756630945435660 26 32 31
-108.300553131159333 -6.252318809909400 -21.194816382046042 20 26 24
-108.319659586311701 -5.915618256669331 -21.743436171933297 18 24 20
-108.343434232337245 -5.184881617085244 -21.407007647327703 17 23 19
-108.365477282320086 -4.650845307133210 -21.512818316708774 16 23 16
-108.385659535738355 -4.316972611643303 -22.060894339832771 16 23 16
-108.408479143539438 -3.783624488778206 -22.166326422760022 17 23 19
-108.428172196830275 -3.554099568224782 -22.935280143321819 17 23 19
-108.448144760199028 -3.327800569324364 -23.704066941188245 14 25 19
-108.466552463225128 -3.258510243473892 -24.804562848494101 15 26 20
-108.493330055019982 -2.523964636516993 -24.466736932540357 19 26 22
-108.520006292920911 -1.838619304084722 -24.239311945720743 27 29 26
-108.542628798812842 -1.516181422209033 -24.786102856144907 28 30 27
-107.917090028390433 -173.635947468474740 -13.336343599444490 42 36 22
-107.908575654646256 -173.586760716689554 -11.567180991876683 32 28 16
-107.883604575105323 -171.803512259140490 -15.699261684993587 29 25 14
-107.865709503083124 -170.718916736942361 -17.492729071401413 27 23 12
-107.856867435398314 -170.571554034326965 -16.057310460634312 24 20 9
-107.848360722974292 -170.449006963612987 -14.510617092373934 16 12 2
-107.841315574641115 -170.476247886214423 -12.407388249197737 18 14 3
-107.822484833262223 -169.183936900546797 -14.979453570674735 16 12 1
-107.816731003594342 -169.325911993774923 -12.430990408937674 15 11 0
-107.809294813823485 -169.271714811892224 -10.550504691806310 15 10 1
-107.800018877486210 -168.995965996934160 -9.449191839826767 13 0 0
-107.787479176190146 -168.324030179980326 -9.794684017621194 121 95 88
-107.776921912446696 -167.862558721940616 -9.361049194267849 190 151 148
-107.765767574692831 -167.310561817912003 -9.261208487727544 132 83 81
-107.754302935285622 -166.699757934115780 -9.383839328060361 132 85 81
-107.743970748107458 -166.205608719358025 -9.061292082335996 131 101 91
-107.734244993020781 -165.767418584453537 -8.516160936816334 20 10 4
-107.724867642678589 -165.355113885138479 -7.859737778948499 7 7 0
-107.714719625382514 -164.827145704450032 -7.648309427509759 13 14 0
-107.705583052133136 -164.409762707841594 -6.991823356171182 11 11 0
-107.696343846259168 -163.961691014755871 -6.446561163018430 8 9 0
-107.683718636195223 -163.046634155218385 -7.792326779223401 8 10 0
-107.666937424374950 -161.543365275811169 -11.585030842486333 8 10 0
-107.656528797831925 -160.862072412612292 -12.040458723121674 9 10 0
-107.653420732392220 -161.163521448817221 -8.380499442234196 10 10 0
-107.646600781880792 -160.948822361000879 -6.833947699861795 10 10 0
-107.558449946871079 -154.960364430782789 -7.602914272516244 127 128 132
-107.551047097900508 -154.470891241264724 -7.168058623836941 103 108 108
-107.542482314659964 -153.772934933133087 -7.733634826286703 96 95 95
-107.533938565176143 -153.055176776270855 -8.410263681556444 93 93 91
-107.525555707241054 -152.340821887129323 -9.086780535316393 95 99 96
-107.517974102598913 -151.740446819744420 -9.207446396081224 125 131 129
-107.509259814694971 -150.922304293302972 -10.439484567693796 97 105 103
-107.501218652775620 -150.196563246738208 -11.226814043609835 60 69 66
-107.493450988585380 -149.496051303995102 -11.902894098389595 69 75 72
-107.486634619496456 -148.946086770077329 -11.800957202302783 73 79 75
-107.479691021384127 -148.354176978771676 -11.921230705591370 92 99 92
-107.473506947511652 -147.885777902339782 -11.374716187729575 68 73 67
-107.466018689684745 -147.152084687659453 -12.272721896804711 62 64 61
-107.458984776005863 -146.482646533450094 -12.837272184818914 56 58 55
-107.451580058224749 -145.717732321137817 -13.957277071876177 58 60 57
-107.445195124418291 -145.132837080688631 -14.077211107780016 60 62 59
-107.438346918063900 -144.433891302968931 -14.863694060679848 57 59 56
-107.432351056970290 -143.889570981671170 -14.761306537664638 51 56 52
-107.426173449938943 -143.289080310156891 -14.992160805676832 52 58 54
-107.420683746303908 -142.817824506506952 -14.445343509201905 40 46 42
-107.414594617743290 -142.199734684837750 -14.787195491231046 41 47 43
-107.408919091142764 -141.654353147122293 -14.684665644926042 33 39 35
-107.403088713443310 -141.056063228429593 -14.915331146161691 36 42 37
-107.397493713565439 -140.493341140816426 -14.923800156060338 37 42 35
-107.391903687162213 -139.913751635949097 -15.043299296385470 35 40 33
-107.386120334102358 -139.268129202637425 -15.607006173306928 33 38 32
-107.380763335459747 -138.707231114216512 -15.615342548890396 31 36 30
-107.375287955203845 -138.098045606991491 -15.956809259252623 30 35 31
-107.369957318357422 -137.506394292967229 -16.187167351684394 31 36 31
-107.364878013901262 -136.962599556524452 -16.084335941006515 34 39 33
-107.359859567319646 -136.418313289348959 -15.981480475702881 30 32 27
-107.355006698890691 -135.903586115246441 -15.656523761943390 26 29 22
-107.350151581090969 -135.372521056792465 -15.442595183246738 26 29 22
-107.345348434399966 -134.840414995838728 -15.228652457311483 26 27 21
-107.340550053988011 -134.293056917843359 -15.125723332798515 21 23 18
-107.335762149883820 -133.731261889201591 -15.133796688161794 20 22 17
-107.331155584936582 -133.210505392751514 -14.808784206504697 19 21 16
-107.326513301089193 -132.661371670828885 -14.705798683525273 19 21 16
-107.321921261885791 -132.111733866342803 -14.602794312455416 19 21 16
-107.317343609066313 -131.548741831336798 -14.610779405712577 22 26 20
-107.312818099903694 -130.985787125087256 -14.618739169379438 27 32 26
-107.308313196249657 -130.410563786174947 -14.737674247561301 24 29 23
-107.303946543247775 -129.872016742484789 -14.523589004812322 25 30 24
-107.299567775646210 -129.308893857938898 -14.531480298963032 25 30 24
-107.295307945229922 -128.780268411400925 -14.206382939751109 25 30 24
-107.290972497006635 -128.193959481434717 -14.436209945513866 25 30 24
-107.286729756145192 -127.630657123795402 -14.444038012345061 25 28 23
-107.282548530060723 -127.078055734819444 -14.340867615351186 27 29 24
-107.278421689185961 -126.535338287627994 -14.126710575360903 26 28 23
-107.274300930915643 -125.971302216005384 -14.134487838625262 27 28 23
-107.270232531960346 -125.417148018126014 -14.031279449361591 26 29 23
-107.266209610588376 -124.872058875190319 -13.817097107693115 24 29 22
-107.262201638863118 -124.307279805597815 -13.824828062312235 24 29 22
-107.258255301013705 -123.778686436589112 -13.388721514220322 24 29 22
-107.254322173740178 -123.230401374601925 -13.174529112563135 22 27 20
-107.250419518504486 -122.689546338718387 -12.849386767275945 23 28 21
-107.246539783210892 -122.130629345985582 -12.746137147803267 24 26 21
-107.242691824510388 -121.563234160699139 -12.753818481732878 22 24 19
-107.238873729728027 -121.003538456737701 -12.650547389316841 22 24 19
-107.235089413814464 -120.435906702678054 -12.658200711876560 21 23 18
-107.231329699493358 -119.875429172375561 -12.554909738179248 21 23 18
-107.227605800000333 -119.307557801760140 -12.562536624224094 20 23 18
-107.223911843342592 -118.739701456664847 -12.570149031053916 17 22 16
-107.220247081461267 -118.171859439846614 -12.577747323714647 19 21 18
-107.216582906210590 -117.616131930108594 -12.363502865185097 18 20 17
-107.213002273597013 -117.036215715159102 -12.592902966320423 21 23 20
-107.209490392252746 -116.446385489694720 -13.044089996815643 31 31 31
-107.206037661173042 -115.853506419492675 -13.606138998238009 37 39 34
-107.202648376018942 -115.258393234710780 -14.279039529131268 35 37 32
-107.199192073217930 -114.690009194853019 -14.397402559918419 35 37 32
-107.195835931250073 -114.108919782772176 -14.848425111646634 30 32 27
-107.192362305830883 -113.554901189223472 -14.634071903998034 29 31 26
-107.188960291278917 -112.992052228071429 -14.641493103206756 31 33 28
-107.185581155453676 -112.429211674180053 -14.648903270770859 28 33 27
-107.182285761982570 -111.859713963412631 -14.878059671580758 27 32 26
-107.178986493044960 -111.294371537806185 -14.996316269042438 27 32 26
-107.175576432827867 -110.740735673498179 -14.671069827474270 26 31 25
-107.172284347668580 -110.177924033469552 -14.678438052673243 27 32 26
-107.169087125581868 -109.610627509555670 -14.907524830707302 28 30 25
-107.165839371899509 -109.048371181139345 -14.914866131778297 31 33 28
-107.162611697855070 -108.486120127231217 -14.922197772526147 36 38 33
-107.159445532115285 -107.922443696923281 -15.040373544947698 38 40 35
-107.156388492119149 -107.356998230480528 -15.380233091406154 35 37 32
-107.153270293372586 -106.794960834816834 -15.498369045175593 29 31 27
-107.150081493965772 -106.234700664068015 -15.394802710349126 27 29 28
-107.146956293424083 -105.673557068904032 -15.402073928495327 28 30 29
-107.143701698244598 -105.112631057295346 -15.076828154134461 33 35 34
-107.140659946702101 -104.550878024601090 -15.194924608732634 30 32 31
-107.137534901176011 -103.988726846548531 -15.091347239356281 26 28 27
-107.134532766468880 -103.427521437345149 -15.209419104432499 24 25 20
-107.131385963984869 -102.863814825879899 -14.995009269447280 24 25 20
-107.128421646650949 -102.302883893200885 -15.113060217497036 23 24 19
-107.125420182638535 -101.740938400419836 -15.120280494846810 22 23 18
-107.122556083732903 -101.182654619077297 -15.349115135205949 21 22 17
-107.119715862590382 -100.625457917771371 -15.577927162664139 23 24 19
-107.116961995237872 -100.071722020055901 -15.917521139895740 24 25 20
-107.114107055776770 -99.514324350116325 -16.035483392297749 27 28 23
-107.111142616540619 -98.951634149949854 -15.931834737848192 28 30 25
-107.108260491618168 -98.391588485584450 -15.938978367898073 26 27 22
-107.105465021405749 -97.835002197984224 -16.056903818449314 27 28 23
-107.102968936424801 -97.293888378232282 -16.617962317929653 28 30 27
-107.100222101739533 -96.739471605009356 -16.735842169510079 26 28 25
-107.097208254538799 -96.168490646242915 -16.410584722763673 24 26 21
-107.094352732023950 -95.604972036289595 -16.306892490166092 22 23 18
-107.091738845835522 -95.055365527638671 -16.535518110092056 23 24 19
-107.089150211195943 -94.506842043258018 -16.764120501650780 26 27 21
-107.086664643489044 -93.964764380257932 -17.103466121185022 22 24 18
-107.084049748373261 -93.413042522319159 -17.221255113210844 26 24 19
-107.081538503652368 -92.867765649962067 -17.449787062689154 16 17 11
-107.078646338830637 -92.292677851962367 -17.124513677269050 6 11 5
-107.076678367466300 -91.786905727081745 -18.017532393947420 10 11 6
-107.075004910596491 -91.305641079050034 -19.242734602891801 88 73 69
-107.073722791448859 -90.858323110834519 -20.910835706664500 106 79 75
-107.072500988513042 -90.419150634276264 -22.578824109730647 121 86 82
-107.070812875273603 -89.942899657122226 -23.582263952158058 132 93 87
-107.068903364188841 -89.448105030999287 -24.253423934888787 130 88 82
-107.066400912642763 -88.899996986953411 -24.149404165653465 134 89 84
-107.064103325415388 -88.368041115764711 -24.266837897441860 143 100 94
-107.062203561650520 -87.871116379873001 -24.827156258457620 152 109 103
-107.060716307696353 -87.412483745217287 -25.830318656041442 153 110 104
-107.059181259290739 -86.949564281058670 -26.722689159896134 158 115 109
-107.056922638077125 -86.415463425430318 -26.729267444959021 158 116 110
-107.054788549439962 -85.891061766469633 -26.846545200280957 156 114 108
-107.052291326521271 -85.327256876666155 -26.520966735366045 154 109 104
-107.050213979929225 -84.802828321367201 -26.638217622345593 152 106 101
-107.047967224296286 -84.257874701854476 -26.534043058985532 150 100 99
-107.046155040672915 -83.755557928153777 -26.872657255074699 143 93 92
-107.044072227732215 -83.221643832119000 -26.879149511652145 127 75 76
-107.042124951228246 -82.699055593167927 -26.996319230246712 113 63 64
-107.039898117871573 -82.142149900900165 -26.781399279906566 115 65 66
-107.037700725898063 -81.584138247809051 -26.566476629119961 118 70 70
-107.035427002701894 -81.012861414582616 -26.240868155171171 122 75 75
-107.033398226586343 -80.464793303981708 -26.136621370178489 105 59 59
-107.031077789979932 -79.878053866276346 -25.700335523200181 70 25 25
-107.028787137076861 -79.289116870850393 -25.264058048365911 70 28 30
-107.025753665530985 -78.605259568779005 -24.053100803381000 106 70 70
-107.021959745133628 -77.820769971449195 -22.067531018845159 112 86 87
-107.017837917704327 -76.985094889694409 -19.750068327052531 14 9 6
-107.014853964362686 -76.278588360734801 -18.539320532598794 19 20 22
-107.012579338928447 -75.652072678680156 -17.992563321657258 13 19 17
-107.010341571729995 -75.022807361485206 -17.445816781237852 14 20 19
-107.008142151835017 -74.390790947153718 -16.899080214024707 13 19 19
-107.006680915801766 -73.846920956941204 -17.016236476280909 12 18 18
-107.005504296528940 -73.334405110777652 -17.354651604739729 13 18 21
-107.004499918889991 -72.839180530381668 -17.803665230626876 14 19 22
-107.003196720849076 -72.298198110551922 -17.920716164836648 13 18 21
-107.001828074033938 -71.741484000443322 -17.927101458786183 15 21 21
-107.000513122603678 -71.184730674349495 -17.933461468717496 16 22 22
-106.998650831388602 -70.544024708879164 -17.386653066214649 13 19 19
-106.997081132846915 -69.934663951926694 -17.061099806242993 13 19 17
-106.996174034280259 -69.410259722720980 -17.288649485098233 12 18 18
-106.995450555368265 -68.904497516389171 -17.626778314154166 10 16 16
-106.994422835220576 -68.346707860788328 -17.633011581084645 11 17 17
-106.993087801484094 -67.734438989123518 -17.307375992960175 12 18 18
-106.991813645378073 -67.120485665733227 -16.981728620093719 15 21 21
-106.991098027708858 -66.579597712973154 -17.098497485470773 15 21 21
-106.990698570929538 -66.077120332545718 -17.436437491085883 16 22 22
-106.990369390200129 -65.576220496334599 -17.774327638424523 16 22 22
-106.989486742963564 -64.979371313364311 -17.559175792467698 15 21 21
-106.988298336441133 -64.322039733789325 -17.012216141635690 12 18 18
-106.987682430809954 -63.742120731197190 -16.907621301478031 14 20 20
-106.987266485136033 -63.181914305279498 -16.913586774628214 11 21 22
-106.986801005534886 -62.601045954191036 -16.808929743294357 11 21 22
-106.986161287427151 -61.977828406874586 -16.483074218775045 11 21 22
-106.986231296004505 -61.458603697100216 -16.710103137526374 12 22 23
-106.986383130626223 -60.940395341706278 -16.937082449132305 12 22 23
-106.986366003078004 -60.379830666286942 -16.942860816700261 15 25 24
-106.986055526703595 -59.753313386373293 -16.616881749869549 20 26 24
-106.985958363497460 -59.147309067673660 -16.401448369456176 21 27 25
-106.985572671462975 -58.472619374984276 -15.854283378542931 19 28 27
-106.985656617647535 -57.863443520128435 -15.638796002232738 20 30 29
-106.986210894422939 -57.322233818642559 -15.754960666381521 21 31 31
-106.986608894532466 -56.734833399541692 -15.649957787171331 19 29 28
-106.986979221273216 -56.123196828377296 -15.434358736773845 18 28 27
-106.987698992884546 -55.558105836392805 -15.439831165959987 20 29 28
-106.988519594805211 -54.992913495287148 -15.445256401509170 16 25 24
-106.988700165076295 -54.281132504181137 -14.787343427097085 16 25 24
-106.989238220685024 -53.615340704889611 -14.350503812911484 19 25 25
-106.990992845668032 -53.171895824450338 -14.908523431858271 19 25 25
-106.992484538870514 -52.655368130178601 -15.134844459822631 19 25 25
-106.993355982086342 -51.986774571041437 -14.697874194070096 20 26 26
-106.993863375069225 -51.212752155297679 -13.818727781203194 21 27 27
-106.995339154442519 -50.616606661154918 -13.713299313538101 22 26 27
-106.997054333698870 -50.046113007319306 -13.718351155431350 21 27 27
-106.999008686064627 -49.502088048910508 -13.833875007070560 20 26 26
-107.000849475067838 -48.904725800693022 -13.728284444710596 20 26 26
-107.002584810466175 -48.252380615644512 -13.401592528142601 20 26 26
-107.004223559223135 -47.543405954373640 -12.853811964098838 18 24 24
-107.006003793782014 -46.831545622925915 -12.305993417385110 12 18 18
-107.008041872047997 -46.144764077064337 -11.868652255507698 9 15 15
-107.011008075656093 -45.653339030919881 -12.204868373501029 13 18 21
-107.013773400746004 -45.077844890605490 -12.209469301746424 16 21 24
-107.017006626271169 -44.588561008835391 -12.545535637289390 17 22 25
-107.020159073599714 -44.042621527924474 -12.660506031547015 10 15 19
-107.023666184197538 -43.555737694556477 -12.996416636506098 16 27 29
-107.026789185056970 -42.922249790436055 -12.779725642992844 26 37 38
-107.030789119302199 -42.496705008759641 -13.336486858976087 18 30 30
-107.033913711941963 -41.772083556028555 -12.788156532596560 16 28 27
-107.036516719778703 -40.831457421001751 -11.466286980861952 18 30 28
-107.035232195599050 -38.594099275493114 -5.503551958464868 23 33 32
-107.036994324210596 -37.194513786155916 -2.634784590777997 14 23 22
-107.041179971563665 -36.499460517007314 -2.307360069134177 14 22 22
-107.046191272089246 -36.023300222526920 -2.753299576935405 14 19 22
-107.051272971854956 -35.517301737578727 -3.088653660544935 15 20 23
-107.056347094160984 -34.948547034033339 -3.202939580628254 15 19 21
-107.061683359854243 -34.412469606915984 -3.427622613512199 13 21 23
-107.067031238655304 -33.811973866733311 -3.431245410941642 14 22 24
-107.071375830263165 -32.717513658493786 -1.777549528134358 15 23 24
-107.075760130988783 -31.514958575619524 0.207629331293361 16 25 26
-107.081475266738238 -30.770735696652221 0.646138312369288 14 22 23
-107.087912404215814 -30.260228290076967 0.311386252919704 6 14 15
-107.095151760784020 -30.057261464717577 -1.017546322253423 8 17 17
-107.102003280395849 -29.586287341115558 -1.462552091689389 6 14 16
-107.109413214946329 -29.324658177240220 -2.570289134019276 9 17 19
-107.116557836018416 -28.824336003902914 -2.904597894019957 13 21 24
-107.123841508664526 -28.290250529469695 -3.128328789923216 15 23 26
-107.131906327709331 -28.146367817763998 -4.567117169134292 15 23 25
-107.139513762379906 -27.581247050723348 -4.680153755331872 16 24 26
-107.147654693888256 -27.268040968708558 -5.566354228510278 14 22 24
-107.156004588362478 -26.995176180805892 -6.562898366236510 16 24 26
-107.164325603450649 -26.544430071166651 -7.006992916964180 17 24 26
-107.172744905616952 -25.985209426380464 -7.119580375612344 19 24 28
-107.181450766958392 -25.500328087179287 -7.452983303357115 19 24 28
-107.190525131516736 -25.240811361685932 -8.449043458766454 19 24 28
-107.199721359228491 -24.910701547961573 -9.224054195540134 19 24 28
-107.209290672191358 -25.000994019854396 -11.214006771815889 20 24 27
-107.218728341027258 -24.451946485110554 -11.326002330407789 14 20 22
-107.228331302832402 -23.556992152394301 -10.443749441565700 9 19 20
-107.238296766335296 -23.044525423427253 -10.665974845308028 8 18 19
-107.248494494799274 -22.688828454640181 -11.329910964075168 10 20 19
-107.258905729470641 -22.257497562484215 -11.772805710331994 16 26 25
-107.269607845488650 -21.590572131386963 -11.552833083368654 18 28 27
-107.280597646372200 -20.922113155764240 -11.332738614495980 19 29 28
-107.291857984627995 -20.292239849072111 -11.222976424718098 16 26 25
-107.303568480558525 -19.418918909319018 -10.450351500313474 17 27 27
-107.315373490076354 -18.866745963485119 -10.561246702664135 20 30 30
-107.327258406025166 -18.519525834385618 -11.224288420352423 14 24 24
-107.339005539922027 -18.505206320109291 -12.770840418602546 11 17 20
-107.351583572401623 -17.916848780313060 -12.770879390700742 9 14 17
-107.364002688228666 -17.662504596979023 -13.654427300072655 10 15 19
-107.377123139011459 -17.075431116102035 -13.654193563650381 12 17 21
-107.390891996143338 -16.275992369935274 -13.101541189609662 12 17 21
-107.406019658890571 -14.918708850373058 -11.112815440143635 13 18 24
-107.419551592832960 -14.667135261621443 -11.995802462021715 19 24 27
-107.434008087829639 -14.073787094218590 -11.994994155127642 16 22 24
-107.448882831827490 -13.436396564892320 -11.883580224580811 8 14 14
-107.464201986155331 -12.754104932884557 -11.661556994341254 4 10 8
-107.480214864626475 -11.937916410406576 -11.108003502045591 3 9 7
-107.495216046462431 -11.650531956970898 -11.879797375067113 3 9 5
-107.509694366641597 -11.634335490149963 -13.314203218656473 3 9 5
-107.524046635759547 -11.714756863744073 -14.969392598514418 2 8 4
-107.539217698510839 -11.577085059599483 -16.072140788341443 2 8 4
-107.557580534050828 -10.534759141911305 -14.965496405847205 5 11 7
-107.573927266781880 -10.218457924593158 -15.626085341789434 8 17 16
-107.591702049872197 -9.582548106238992 -15.513268800779315 12 20 22
-107.609156080434204 -9.130787223508769 -15.842145708858453 14 22 24
-107.627480908979365 -8.540200347776491 -15.839458381091987 10 18 20
-107.644244236567573 -8.418071419322574 -16.941284846251307 8 16 18
-107.662826151994764 -7.923391351127666 -17.159205081893191 10 18 20
-107.680905025843998 -7.619107151998938 -17.818841670256660 12 20 22
-107.697482420654296 -7.699740920831648 -19.362105486399088 13 22 22
-107.716032107873644 -7.403222544199574 -20.021436901747876 15 24 23
-107.735824556506756 -6.916040203357438 -20.238700844579284 19 28 25
-107.756480354944799 -6.332001700359191 -20.234830983115813 9 16 14
-107.775181739769309 -6.187526996059271 -21.225101419712189 22 28 26
-107.794649591174391 -5.949059789953377 -21.994254923521652 16 22 18
-107.817501468771638 -5.169346380904260 -21.547913105740662 16 22 18
-107.840271953659496 -4.486111731448084 -21.322334891454489 15 22 15
-107.862902252411416 -3.901075696906469 -21.317530703902122 16 23 16
-107.882475798623418 -3.869305167189117 -22.527941550634552 17 23 19
-107.904863614417806 -3.437798522240648 -22.854249665725746 18 24 20
-107.925578646330464 -3.312912237177293 -23.843355147017832 15 24 19
-107.943348944295636 -3.653617360288162 -25.826806776963565 15 26 20
-107.966606545781687 -3.230909245323976 -26.152608221872129 18 26 21
-107.986844607442677 -3.275538833605057 -27.472773626817286 21 26 22
-108.012704200629202 -2.596590824925117 -27.245673469162739 23 28 24
-107.456706572732102 -174.816133633530711 -18.976526578600698 65 52 33
-107.395643523838984 -175.451158983659667 -7.469878265217005 63 54 39
-107.377788099116103 -172.727634826983348 -14.712282361357694 47 40 28
-107.363972792323523 -171.733208788005896 -16.170293187514460 32 26 15
-107.326846873774386 -170.507905393954502 -14.537783489258828 18 14 2
-107.315387372251095 -170.692013445176116 -11.880757320757141 20 16 4
-107.302662488932626 -169.522720951337334 -14.005199789849598 16 14 1
-107.290938898803290 -169.198380204852953 -13.127275838056960 15 12 0
-107.279621642478943 -169.451670645262254 -10.136892836092130 17 14 2
-107.267897998396549 -168.840663998532449 -10.259649670514477 18 12 1
-107.256408793641711 -168.440939256396291 -9.604107324739914 13 3 0
-107.245042579152823 -167.799798239728062 -9.837862239198387 27 13 10
-107.233863158166898 -167.248548939981106 -9.738025836923924 69 50 44
-107.222874319585031 -166.638492020147311 -9.860421366897498 57 43 37
-107.212008324080472 -166.145081265188281 -9.538121891909014 16 11 7
-107.201222458033826 -165.736317407276488 -8.882336115466842 2 4 0
-107.190573802436489 -165.296049612227534 -8.337667868787662 7 11 0
-107.180137334452240 -164.768812843696878 -8.126369982376673 8 12 0
-107.170061709662406 -164.073471259770002 -8.581783166654674 8 10 0
-107.159783184958286 -163.656463449162118 -7.925839538999725 8 8 0
-107.150420259903512 -162.744610999535894 -9.270011504637552 8 9 0
-107.141225979455513 -161.893625489837262 -10.391758487443013 7 8 0
-107.131138948576208 -161.610486937809583 -9.180050841667651 6 7 0
-107.120226367951730 -161.718930890366607 -6.301824106819623 8 9 0
-107.109991392841479 -161.498629801063942 -4.756963764725100 8 8 0
-107.104963356392446 -159.272865642995782 -11.766389818724463 10 10 0
-107.025794579152830 -155.101898338825578 -7.191124585503957 143 152 151
-107.017639170491904 -154.587709215711868 -6.867742257242213 121 127 125
-107.010575532322761 -153.865578302438308 -7.543708043310772 105 109 108
-107.003787065680427 -153.124188925946413 -8.330599310221146 96 100 99
-106.997515756408021 -152.319576383108227 -9.450470613391616 108 112 111
-106.990701989627425 -151.653246276016290 -9.904024706273532 134 136 135
-106.984895563589035 -150.836309496228438 -11.134659355380904 82 85 84
-106.978505740697386 -150.154914283640068 -11.699024592578894 72 76 75
-106.972385364947556 -149.455058509519688 -12.374309835941943 70 75 72
-106.965334446037588 -148.926777301631603 -12.161403065397479 92 97 93
-106.959058159040481 -148.293746536514249 -12.503498378017724 79 84 78
-106.952478429243968 -147.723885731110016 -12.512511961742462 72 77 71
-106.947431090248728 -146.952062077333494 -13.631460209220961 68 73 69
-106.941366900771186 -146.345248751252655 -13.862325300923828 60 65 61
-106.936305011303872 -145.621654193067627 -14.759066293148180 56 61 57
-106.929855129169681 -145.096381648544309 -14.545841018986948 58 63 59
-106.924881517091748 -144.398069227948639 -15.331420652947429 53 58 54
-106.918609037220563 -143.873231126527941 -15.118106038210556 48 53 47
-106.913699593409333 -143.198825295487211 -15.792550006835796 49 54 48
-106.907101686338123 -142.729028743878160 -15.246247850271828 52 57 51
-106.901724536742094 -142.130409872891562 -15.476699914807597 47 52 46
-106.895589514142330 -141.621709014202878 -15.152294547316615 46 51 45
-106.890549087181469 -141.006566327501162 -15.493614497754379 42 47 41
-106.885250394224315 -140.427537252824095 -15.612968496367984 39 44 40
-106.880030771504067 -139.849116397374331 -15.732278407345291 34 39 35
-106.875248679162723 -139.237978024504486 -16.073433552972716 32 37 33
-106.870004379217121 -138.677701311628766 -16.081709617755223 32 37 33
-106.865014025716064 -138.101364662232641 -16.200888393343973 33 38 34
-106.860095830102125 -137.525627854211081 -16.320026474378295 31 36 31
-106.855248141974570 -136.950488934954933 -16.439124670503418 30 35 29
-106.850661869739241 -136.360645830241310 -16.669108048649861 27 32 26
-106.844588294675447 -135.892164776216276 -16.011682627452842 23 28 22
-106.838941930342244 -135.390953511299784 -15.576107508450519 21 26 20
-106.833735831837743 -134.858643959035817 -15.362359647919931 21 24 19
-106.828578890823934 -134.325290461495342 -15.148599016467443 22 24 19
-106.823878242171730 -133.763013205721052 -15.156635592927728 21 23 18
-106.818201073777757 -133.269112801229454 -14.610141071202975 21 23 18
-106.813181977931720 -132.732346652116348 -14.396349623231742 17 19 14
-106.808418049046509 -132.181408086913137 -14.293440872980000 16 18 13
-106.803914629829166 -131.617112021022706 -14.301403876181382 15 17 12
-106.799676936035183 -131.040273301198482 -14.420227750009332 17 19 14
-106.795492763617133 -130.464013334826944 -14.539020061994421 21 23 18
-106.790702595206611 -129.924434533632507 -14.325148047963580 23 25 20
-106.786172346845149 -129.372037126380377 -14.222142522344285 23 25 20
-106.781236519769863 -128.842107693750393 -13.897381980200890 22 24 19
-106.777009627908242 -128.276920206516792 -13.905221869510825 20 25 18
-106.772826085821606 -127.711761226310927 -13.913040726999810 19 24 17
-106.768455190000921 -127.157304277667180 -13.809980167565413 19 24 17
-106.763889914383498 -126.612732421609763 -13.596051961615217 19 24 17
-106.760057371199551 -126.036705718658553 -13.714673654282478 21 26 19
-106.756032291913954 -125.471105929324338 -13.722421241180427 23 26 19
-106.752282539323986 -124.895942400583863 -13.840994442025504 25 26 20
-106.748095048536683 -124.339974991093300 -13.737861690184133 25 26 20
-106.743939756146844 -123.783485088273565 -13.634718913026063 24 25 19
-106.739815751850941 -123.226471815938410 -13.531566555056429 24 25 19
-106.735232455816544 -122.685933120335037 -13.206746569744780 24 25 19
-106.731164722032048 -122.127326865908444 -13.103583689520320 20 24 18
-106.726877216580917 -121.576150475641512 -12.889590583063097 20 25 19
-106.722864308831717 -121.016219973328504 -12.786415105399982 20 25 19
-106.718626437139235 -120.463174145099686 -12.572417497386823 19 24 18
-106.714919082210784 -119.894776281697375 -12.580041888023402 19 24 18
-106.711240854082547 -119.326393333348463 -12.587652190970488 19 23 17
-106.707590983112610 -118.758024605766678 -12.595248781568699 20 22 17
-106.703450534160268 -118.202318858760776 -12.381231946730850 20 22 17
-106.699330099213910 -117.645538797724853 -12.167216595715104 20 22 17
-106.695491579186125 -117.081902719018430 -12.063995834923134 18 20 15
-106.692467892099629 -116.501206787932290 -12.293137521237213 20 22 19
-106.689741773480918 -115.916371587073343 -12.633038344319857 28 30 25
-106.688387824966213 -115.308348863875054 -13.526815831346426 40 42 37
-106.686007174691341 -114.723460451796043 -13.977410816207879 36 38 35
-106.684204472775662 -114.131911237036334 -14.649515645384383 34 36 33
-106.680263702765728 -113.576835589378717 -14.435396798895738 31 33 29
-106.676338250730382 -113.020681257532516 -14.221281727778830 29 31 28
-106.673254970163200 -112.452627072378803 -14.339462910647740 28 33 27
-106.670750547535093 -111.878453560722178 -14.679147929005495 27 32 26
-106.667997192790835 -111.308980975597947 -14.908044761715530 27 32 26
-106.663867419156901 -110.754560182013662 -14.583150708250372 27 32 26
-106.661440555965171 -110.183395665029167 -14.922767649345843 25 30 24
-106.658474947466189 -109.618363665752881 -15.040861429423273 27 31 25
-106.654960806074968 -109.057833310735006 -14.937453518229319 29 33 27
-106.650888478141837 -108.500173767723425 -14.612565321012681 34 38 32
-106.647978565217755 -107.935156652710447 -14.730632303306749 36 39 34
-106.645959386430647 -107.367203641865871 -15.180880036854916 33 36 30
-106.643095917836717 -106.804096745707056 -15.298905137498366 28 30 25
-106.639081258552665 -106.244007731418549 -14.974014359565956 24 25 23
-106.635369272282276 -105.681945486710944 -14.759857980273750 23 25 22
-106.632260295441029 -105.118650602782878 -14.767143581353281 30 32 29
-106.630358033075254 -104.556148037554010 -15.217279278311480 31 34 31
-106.627288870081600 -103.993944699276781 -15.224534596755007 25 28 25
-106.624236452055769 -103.431743182162876 -15.231781885717197 24 25 20
-106.621200703438390 -102.869543161061358 -15.239021184692319 24 25 19
-106.618181573228497 -102.307344312494507 -15.246252521408763 23 24 18
-106.615483799348539 -101.746702400645376 -15.364172980947188 23 24 19
-106.612499294352361 -101.184776653763720 -15.371384941907252 20 21 16
-106.610761964875735 -100.631249251799744 -15.821349349672403 21 22 17
-106.608434564463067 -100.075153004598292 -16.049904717924363 23 25 20
-106.606750508974386 -99.525429176766224 -16.499804487496988 26 27 22
-106.603223113262146 -98.960390121583217 -16.285590442520089 25 26 21
-106.600020267753081 -98.397449494538634 -16.182058418583978 24 25 20
-106.596516956164734 -97.830505813282159 -15.967852457117743 26 27 22
-106.594921794716129 -97.284852760668585 -16.417667797552014 25 27 23
-106.592085219610510 -96.725364937051779 -16.424783894590632 23 25 21
-106.588947406200774 -96.161601283641033 -16.321229231344944 22 23 17
-106.586144895425292 -95.601836395477079 -16.328331884089351 21 21 16
-106.584003576759116 -95.051701899979633 -16.556736864166396 24 23 17
-106.582208912901663 -94.507739279674652 -16.895771360479728 24 23 17
-106.579792511094141 -93.954682534897543 -17.013479134648094 20 18 13
-106.577072223433149 -93.396532871112413 -17.020525825820357 23 18 14
-106.574698154572758 -92.844282172025231 -17.138205051018673 16 17 11
-106.572018281872076 -92.286394248458805 -17.145229713588947 15 20 13
-106.574959350373859 -91.838103803458949 -19.033038238899053 21 20 15
-106.579287685980916 -91.425922675726028 -21.363246948720644 74 59 54
-106.581698337310939 -90.983204155843850 -23.029534099322319 93 66 61
-106.581501789585587 -90.490531396077728 -23.810711649737584 103 67 62
-106.581678802064317 -90.009190174865950 -24.702452733933285 124 85 78
-106.580554486208698 -89.500965266081124 -25.151657556763070 126 84 78
-106.578788355158196 -88.978750625450203 -25.379595655278905 132 87 82
-106.576711742375338 -88.449264705749826 -25.496898249199063 140 95 90
-106.574660975504784 -87.920312993280376 -25.614182979659915 153 108 103
-106.573658535980584 -87.418574281333790 -26.063262731588082 154 109 104
-106.572348382871354 -86.909834472579035 -26.401702873526602 152 107 102
-106.570384507957471 -86.383840959111552 -26.518915584944807 152 107 102
-106.569137119209856 -85.877796345021025 -26.857297957635268 152 108 102
-106.565851379698259 -85.313488464801438 -26.532101893888608 151 106 101
-106.563625358554106 -84.778293068712259 -26.538675849844822 155 109 104
-106.561079803332788 -84.232560066733910 -26.434652253758912 160 110 109
-106.561001317015950 -83.761839256754300 -27.104688476633640 151 100 99
-106.559566522138141 -83.250094964402976 -27.332360288505498 133 79 79
-106.557815498123333 -82.728082744355945 -27.449430191330038 117 67 68
-106.554690243112987 -82.160152493031674 -27.124194639233650 117 67 68
-106.551237776636526 -81.578690510067560 -26.688396027972061 113 65 65
-106.547456055215676 -80.982880263576789 -26.142043740111291 87 41 41
-106.544053013356304 -80.396758878343690 -25.706269445850552 86 40 40
-106.541032800500545 -79.821140957282253 -25.381062774994007 115 69 71
-106.538042609227062 -79.243870467836274 -25.055858752631963 122 80 82
-106.534010085070733 -78.625218628840898 -24.399002683005932 111 78 77
-106.524622854552391 -77.800563149714520 -22.083945511697181 105 83 82
-106.514876699021727 -76.950675709643235 -19.658460889213075 11 7 4
-106.510179764993609 -76.285614147487664 -18.780682619746102 12 15 16
-106.507679584909667 -75.702156122648574 -18.566166754041177 15 21 19
-106.503407913698013 -75.044570318351759 -17.798966973489854 19 25 24
-106.499895418374564 -74.412895659209482 -17.252855059203057 16 22 22
-106.499696027430375 -73.914786658850829 -17.701513272998369 15 21 21
-106.498455957369330 -73.372566542661943 -17.818546747229391 15 20 23
-106.496534778948728 -72.799476208315426 -17.714506054187382 14 19 22
-106.494661651556356 -72.225806826690544 -17.610448334122651 14 19 22
-106.494672464452222 -71.732729288386579 -18.058954195754865 14 20 20
-106.493270507204684 -71.175764387354391 -18.065358006818059 12 18 18
-106.491185382966648 -70.585202903988261 -17.850716699286295 9 15 15
-106.487307978628394 -69.908258161697049 -17.083527574088009 11 17 15
-106.487173100082487 -69.400690366442973 -17.421393404580186 13 19 19
-106.485619084863956 -68.824330976912620 -17.317210711948064 15 21 21
-106.485605430592443 -68.318850647305680 -17.654997061830329 16 22 22
-106.482686281613070 -67.669839954741576 -17.108779741187220 14 20 20
-106.482053808948052 -67.128528222078643 -17.225513192458692 14 20 20
-106.481113636131298 -66.569025872172702 -17.231722206668991 15 21 21
-106.480238403367053 -66.009470567065748 -17.237900698875279 15 21 21
-106.478683843757508 -65.411403146749365 -17.023082833423587 15 21 21
-106.477942385561903 -64.851191478440597 -17.029204084610910 15 21 21
-106.476149840761380 -64.231600900786233 -16.703862734209110 13 19 19
-106.475548451543844 -63.670452213959607 -16.709926622079763 14 20 20
-106.475020070028791 -63.109240390700371 -16.715956233210846 10 20 21
-106.474940704243039 -62.568553909459595 -16.832418644020152 10 20 21
-106.473065355461699 -61.924029195220811 -16.396514681432166 10 20 21
-106.472390895556671 -61.340661488253303 -16.291983352685008 10 20 21
-106.472170894184671 -60.778084659884811 -16.297879486495987 11 21 22
-106.473157136515468 -60.280475704003806 -16.635106465267086 12 20 22
-106.471977690818136 -59.652704602234600 -16.309556016600112 15 21 19
-106.470883462463931 -59.023217945022047 -15.983982459322220 17 23 21
-106.468752219861628 -58.324516182654961 -15.327040817192767 15 24 23
-106.468959504848357 -57.759086224451984 -15.332761907372998 17 27 26
-106.470756259991120 -57.285746174783661 -15.780210212470223 18 28 27
-106.470772718303692 -56.697911867457400 -15.675394327777354 17 27 26
-106.470884502693750 -56.109438543344950 -15.570539417136501 17 27 26
-106.470719844582320 -55.496460078495403 -15.355210114444333 18 28 27
-106.470655387363095 -54.882290532868325 -15.139845136381524 22 31 30
-106.469200808200412 -54.169290085934051 -14.482726964325224 20 29 28
-106.470090843578973 -53.601000491695153 -14.488150864728595 18 27 26
-106.472575356386386 -53.132423431545320 -14.935221121072601 18 23 24
-106.472932887326351 -52.514548547831666 -14.719692406227239 17 23 23
-106.473031090992990 -51.869963730863844 -14.393703806501009 16 21 22
-106.471762838438551 -51.120520098644903 -13.626012739527113 19 24 24
-106.472467358729361 -50.497369452444389 -13.410372332239234 20 25 26
-106.474029628564040 -49.925642730760181 -13.415510018062491 19 25 25
-106.476079136281228 -49.380381523948266 -13.531001073033650 20 26 26
-106.478615552588110 -48.862402818485954 -13.756837245032926 20 26 26
-106.479439376248791 -48.209668766779586 -13.430585395355706 20 26 26
-106.479663752295281 -47.500319363672439 -12.883485319774536 18 24 24
-106.479297821194095 -46.732707600388437 -12.115549599010222 12 18 18
-106.480531584070562 -46.072968196684556 -11.789173745424648 9 15 15
-106.482992573209927 -45.496144635339988 -11.793933951344144 12 17 20
-106.486311760466776 -44.976186185604817 -12.019416026906441 19 24 27
-106.490124170087185 -44.485947209989178 -12.355215114024247 19 24 27
-106.493352958640514 -43.939066791416273 -12.470158672445677 11 16 20
-106.497436009531228 -43.451232137882364 -12.805803536812419 11 22 24
-106.499879256930825 -42.816826542255704 -12.589447181284015 21 32 34
-106.506368488458264 -42.509853719189550 -13.587232544926536 20 31 33
-106.509457913562514 -41.906065458802182 -13.481110785507184 22 34 34
-106.511302166436309 -41.179813128322188 -12.933409756727059 18 30 30
-106.506696590362679 -39.867200457288227 -10.288511192065641 18 29 29
-106.499912394167580 -38.324334133840466 -6.871012793873120 22 30 32
-106.502031894474996 -37.545620761495151 -6.212861210601801 10 18 20
-106.507429063238689 -37.047172217397588 -6.547986659590066 15 20 23
-106.512985436589560 -36.550154157471241 -6.883021220957318 15 20 24
-106.516333879983009 -35.829994656067079 -6.445396760958545 14 17 22
-106.522231021713438 -35.333897328330579 -6.780258822342148 10 19 23
-106.527626767074935 -34.773952751591700 -6.894300191997104 11 21 23
-106.528229596077750 -33.720710449042699 -5.352828963905495 12 22 24
-106.527773596088082 -32.526773634366620 -3.369876975584816 12 22 24
-106.530212156109215 -31.590324324271620 -2.269760870805158 16 26 27
-106.536459094213413 -31.019172604839330 -2.383510393519401 17 27 28
-106.544824238147399 -30.652363813278711 -3.159296478938472 21 31 32
-106.553987001732295 -30.357716177070913 -4.155675964668774 21 31 33
-106.564245708053789 -30.171445690041189 -5.482992229471421 19 28 33
-106.573078600471973 -29.817325745389624 -6.258423932943401 17 25 32
-106.581459064355030 -29.396553434589034 -6.813040393122890 15 22 29
-106.590629591533528 -29.049032967599295 -7.588242641543985 16 25 27
-106.600571807428437 -28.776420184223813 -8.584022424151357 15 23 26
-106.609474681534167 -28.364699240206100 -9.138295794805629 17 25 28
-106.618266690890309 -27.919210438652719 -9.582110907376830 22 30 33
-106.626378054574815 -27.366117795535246 -9.694782604139561 22 30 33
-106.633269896285896 -26.629365556527468 -9.255633791915017 20 27 33
-106.643825814517257 -26.334713436096049 -10.140487958475660 18 25 31
-106.655669414361199 -26.193489570138290 -11.466582328149570 18 23 27
-106.666272378775275 -25.870532974728700 -12.240846455237090 16 21 25
-106.674069679794059 -25.134343114222737 -11.801258685538954 17 21 24
-106.681341516455959 -24.281066795782536 -11.030550871157288 20 24 27
-106.690233208248486 -23.615746379856901 -10.811427823710346 21 30 30
-106.699650517082290 -22.987655223766009 -10.702528988319187 22 30 30
-106.711863167559457 -22.748637535568704 -11.696876791613420 18 27 26
-106.723252641390886 -22.357119970355974 -12.249752617954925 13 22 21
-106.735096232923027 -22.007549752547284 -12.912838295746184 8 17 14
-106.744042469042313 -21.143010338892832 -12.141445391100575 7 16 15
-106.754493991140578 -20.474733086188870 -11.921606562388376 8 17 16
-106.762502676979750 -19.320127883915056 -10.377635777018611 5 14 13
-106.774499226392123 -18.808099957805741 -10.598884999405612 5 14 13
-106.787405509522543 -18.419617579972410 -11.151003946669249 6 15 14
-106.804130105267504 -18.734537700814155 -13.578656794636288 9 14 17
-106.816368333488526 -18.147910907367017 -13.578840512485442 10 15 18
-106.830092475067332 -17.811612464621785 -14.240889928532425 10 15 19
-106.840752360071647 -16.762826863868508 -13.027138219013352 10 15 19
-106.854464924811793 -16.300436041681188 -13.357914450823813 14 19 25
-106.867720210613030 -15.668656604933890 -13.247217505732522 17 22 25
-106.880600071585135 -14.864099929620490 -12.695043105823117 14 19 21
-106.895364114029690 -14.445068232211375 -13.135728881971318 17 23 23
-106.907343175970041 -13.201456214356893 -11.479915989229568 18 24 23
-106.922000847773361 -12.561636211168180 -11.368630913071456 12 18 16
-106.937293203273370 -12.008801988190248 -11.477864587915747 5 11 9
-106.953875662352047 -11.766329512259087 -12.359298566698669 4 10 6
-106.971069736326655 -11.661672613408982 -13.571598000805750 3 9 5
-106.988436353265698 -11.562664322307302 -14.783756746992907 3 9 5
-107.005395533291818 -11.243359071885187 -15.444083612270276 2 8 4
-107.022066461881650 -10.699492430757633 -15.552565474648787 4 10 6
-107.039171810943913 -10.201334858867654 -15.771227890270922 7 15 14
-107.055868344473154 -9.335351066568192 -15.107001022545660 11 18 19
-107.073856542667187 -8.928577210619016 -15.546018197514826 12 20 22
-107.091770834598933 -8.290369187828095 -15.433158572526025 10 18 20
-107.111250852423197 -8.495091283139793 -17.306333135048305 8 16 19
-107.130462151066581 -8.425753775704910 -18.517303975549481 9 19 19
-107.149802274001885 -8.314559060992641 -19.617785159292396 9 19 18
-107.168921554726111 -7.683072104826245 -19.504279888480482 1 11 7
-107.188754925064870 -7.578793014512989 -20.604453918360178 10 21 17
-107.208637240308036 -7.092888278479835 -20.821661718285242 23 34 28
-107.228857860696209 -6.510165766305475 -20.817986498354486 26 36 30
-107.249473052951814 -6.073423277020417 -21.145196525646583 25 31 27
-107.270419496427294 -5.686850965170995 -21.582590541571307 15 21 17
-107.291851895983442 -4.955424277637009 -21.247289642658387 15 21 17
-107.313832196263746 -4.121930147314123 -20.691059491538937 15 21 17
-107.336121897107233 -3.535060122278638 -20.686437123044016 15 21 17
-107.358506136544293 -3.249498264765986 -21.343821320800259 17 23 19
-107.381188823346776 -2.966590706972818 -22.001035420319454 18 24 20
-107.403777707083890 -2.941006577525920 -23.209940060189837 15 24 19
-107.426187816355835 -3.125880866949420 -24.860199410602775 15 26 20
-107.447347212647500 -3.988379715289232 -27.945247471790310 17 26 21
-107.470227053873188 -3.985580845383943 -29.153778378472595 21 27 23
-107.495837679642449 -2.946270266396716 -28.154494524500535 23 29 25
-106.855931500404694 -172.689612818185708 -15.073187033964160 25 17 4
-106.827677185925310 -172.000316123289792 -13.541774689430270 33 27 15
-106.813730220296549 -171.650286126465744 -12.776037710134830 37 32 20
-106.804805791838305 -170.567043659191569 -14.565199643736435 19 15 4
-106.792323934205754 -170.058943205122290 -14.354683285024151 16 12 1
-106.780462960271620 -169.487659167268447 -14.366238047888345 21 19 6
-106.768562928648407 -168.947525429025774 -14.266631965214088 16 14 1
-106.753064823941287 -168.896992672608121 -12.389965320782181 14 12 0
-106.736600873589339 -168.958706096564470 -10.069169787591932 11 11 0
-106.724043736688358 -168.528003961084096 -9.525316087687429 15 13 0
-106.715145307270205 -167.677691382289908 -10.536055724637947 13 10 0
-106.704205187019255 -167.098219994322250 -10.547254230764167 10 5 0
-106.693966190330869 -166.460490299225313 -10.780434773644004 8 3 0
-106.680177121502368 -166.229617241935927 -9.459101290220246 9 7 0
-106.669163203835879 -165.705440620904000 -9.248048154122415 6 8 0
-106.659129993603358 -165.095124134855354 -9.369989186614731 5 9 0
-106.650400268766589 -164.372993939082903 -9.935893130528171 7 10 0
-106.644747957652200 -163.375135372062374 -11.611751910109348 8 9 0
-106.633275844120789 -162.965162466294515 -10.956306877448611 8 8 0
-106.619833350671826 -162.743314148536342 -9.523855812453093 8 9 0
-106.610934173996100 -162.108854723219252 -9.756361727501741 6 7 0
-106.599461019498406 -161.716601830802944 -8.989875906916012 6 7 0
