ply
format ascii 1.0
element vertex 684
property double x
property double y
property double z
property uchar red
property uchar green
property uchar blue
end_header
-140.996306302035435 -116.704833569349248 12.877649131830964 24 26 21
-141.128385246950728 -116.153918965468421 13.932894369860520 9 11 6
-141.214014154254102 -115.583560685918656 14.633141270831203 9 14 8
-141.191138854996268 -114.977915065266401 14.505104706532052 12 14 9
-141.230528641227693 -114.390090449989643 14.850474525946964 4 6 3
-141.285599159789939 -113.804700630137333 15.314229901452734 136 138 136
-141.899256507491742 -113.352328075234539 20.037500372010840 196 198 197
-141.624504213343869 -4.954010523509385 -5.266116548679292 30 35 31
-141.530386236385255 -4.781387991964300 -6.310649120966474 21 26 20
-142.257614506375432 -2.203357290613755 -1.665786062534949 12 19 11
-141.737305712790430 -3.287108370146693 -5.672746498921470 8 16 3
-141.524805820812162 -3.475791905774750 -7.546205663164102 5 13 0
-141.982901916816644 -1.678902406854943 -4.795795994178775 1 6 0
-141.344698968871739 -1.876282481737281 -10.863740380497660 78 79 71
-138.359669172389715 -144.961101916191154 -7.714875699455348 219 193 168
-137.952129468475164 -143.911593540626768 -10.692116536828195 209 180 148
-138.027979197628184 -143.480166041860372 -9.995117876845001 195 166 136
-137.995055594909019 -142.911204111877083 -10.127583911420913 183 156 129
-138.149041933959268 -142.570131385528470 -8.837980473427564 168 144 120
-137.945580326668420 -141.794264235715957 -10.273608818328398 156 134 111
-137.975612880862485 -141.300831423823524 -9.931743844395697 130 113 94
-137.974791640710322 -140.769758367178355 -9.826744439709273 118 105 88
-137.989722117425742 -140.256151719150722 -9.603170792227019 103 95 79
-137.911798055829905 -139.636412353598899 -10.090264224495002 84 79 63
-137.927201838455090 -139.122651088773125 -9.866465740636244 49 45 32
-137.896327781172857 -138.557025523994355 -9.997916936817319 38 32 23
-137.927659587934414 -138.058967222056424 -9.655478017402430 27 22 14
-137.804376066372186 -137.395144075466476 -10.497301691104582 26 24 17
-137.929000202990039 -136.993809522759136 -9.444083105202253 24 23 18
-138.007325585952884 -136.540043564420245 -8.746130041908572 25 24 19
-138.147628309167430 -136.145523134429823 -7.574481847811398 28 27 23
-138.118049152117521 -135.577102735640437 -7.705342336790324 28 29 23
-138.088709873380253 -135.009403153717415 -7.836080649076592 31 32 27
-138.028732232146041 -134.412883550242839 -8.203490677762630 32 34 29
-138.030740524974703 -133.876150364522886 -8.097195896748985 34 39 33
-138.032954275105396 -133.339020464104976 -7.990806909249955 38 43 39
-138.112461380367478 -132.871187003282614 -7.292433317928868 43 45 42
-138.037990886118536 -132.263556994090976 -7.777749927727712 41 43 40
-137.932973533264544 -131.631508070561352 -8.499649175970546 38 40 37
-137.966832686502926 -131.120912075439094 -8.156130239438539 37 39 36
-138.108614151866107 -130.698642570053181 -6.984060255339188 40 42 39
-138.265869392709533 -130.283548480558920 -5.693654925008843 43 45 42
-138.284771055414751 -129.751969933781339 -5.468366469543270 42 44 43
-138.273103861902428 -129.195403413169203 -5.479677033719440 39 41 38
-138.553662782512305 -128.861863053201660 -3.242573092767628 38 40 37
-138.634478481781287 -128.369043990651591 -2.543830663909375 43 45 42
-138.684712814786650 -127.850678345168191 -2.081698989500126 46 48 43
-138.765810818593394 -127.352036123052599 -1.382881447825412 52 57 53
-138.632173971230685 -126.701394696110157 -2.340381315960457 55 60 54
-138.867042961362159 -126.303763150791738 -0.458371658666380 54 59 53
-138.979243640357339 -125.816801403846611 0.477163299047078 51 56 50
-138.999564177301096 -125.266723149178546 0.702940112298080 49 54 47
-139.050715172618169 -124.734703566949747 1.165369767985140 47 52 45
-139.040729450591073 -124.163573637891346 1.154713705524756 43 48 41
-139.061572275646284 -123.610496975952316 1.380709515505657 37 42 35
-139.159155044000556 -123.099926121963904 2.198149409555072 37 42 35
-139.226245806985020 -122.568742689974783 2.779072087292207 36 41 34
-139.278176318820130 -122.026747037293106 3.241771972304832 36 41 34
-139.253758841425054 -121.443254218267498 3.113225665186832 36 38 33
-139.275424616657489 -120.883202276530753 3.339543371652638 34 36 31
-139.281967471565679 -120.314805726147554 3.447681544703215 33 35 30
-139.349837303025538 -119.774147328952580 4.028879395551854 33 35 30
-139.326148498676929 -119.190153480034922 3.900676525769228 33 35 30
-139.455447665771118 -118.671807757236792 4.954927175471568 33 35 30
-139.462651986044136 -118.098766095977680 5.063333976825561 35 37 32
-139.653296066023074 -117.596678389752839 6.590534714193041 37 39 34
-139.935636315319385 -117.121582901344354 8.827033738634384 46 48 43
-140.233285987893396 -116.641516354378936 11.181664454012946 54 56 51
-140.439408241667252 -116.119752389566585 12.826926243975521 26 28 23
-140.630358710107146 -115.585504226493185 14.353942512794191 11 13 8
-140.653602607633275 -114.993799164568998 14.580689366088706 13 15 10
-140.738021561402888 -114.418270742885184 15.280304210565987 8 10 7
-140.868329012686445 -113.851591301857553 16.334539696725898 55 57 56
-141.867742503017837 -113.494100657731806 24.125662258761110 199 201 200
-140.865832232460576 -5.944244584810304 -6.284022956702955 38 40 37
-141.459251350658121 -3.741229776453325 -2.475325705294637 27 32 28
-140.981747807282346 -4.707907837779342 -6.241295578252988 20 25 19
-140.990601755302038 -4.238281828341618 -6.574470631065623 12 19 11
-141.134848314652118 -3.365410148441730 -5.960154053600291 8 16 3
-140.959856560275398 -3.452937184672826 -7.594992938205451 6 14 1
-141.393186627572504 -1.708480136144090 -4.966750423831712 2 7 0
-141.507192927746246 -0.925597696061747 -4.587692148090241 125 128 121
-141.384906460540321 -0.863417736711806 -5.866281358521945 115 118 111
-141.160924088290017 -1.118817742528358 -7.855405840745419 97 98 92
-140.749533435286708 -1.959135623983542 -11.147612682693051 78 79 72
-137.573250818798698 -144.629967440188921 -9.868246236433549 209 191 169
-137.525005562867250 -144.039691136298529 -10.119120381866509 191 168 136
-137.431159238531734 -143.392327726932933 -10.724974203132746 172 151 120
-137.368238929865328 -142.786367332853359 -11.093889172632061 164 144 118
-137.489009713982625 -142.409346701937977 -10.042263741946584 158 143 120
-137.487691477442752 -141.878396920934193 -9.937500829690379 141 130 108
-137.486606674407085 -141.347104389852518 -9.832629771744649 114 107 91
-137.394208972064519 -140.706935911549664 -10.437716516175101 64 61 47
-137.408881282576260 -140.194420775142447 -10.214255139042365 25 25 12
-137.408522048042386 -139.663462045903344 -10.109033535622331 22 24 10
-137.438853654359832 -139.166656555535923 -9.767060212852698 24 24 15
-137.408471910497838 -138.600462689130438 -9.898281737795145 23 22 16
-137.423995089269056 -138.085116546699140 -9.674442449170726 26 24 19
-137.226765364303247 -137.338892023563631 -11.106784356480830 26 25 20
-137.334015893224660 -136.922459359438079 -10.172891542314716 26 27 22
-137.441377309422080 -136.501773142630839 -9.238989464010416 28 28 23
-137.639987162399166 -136.170401944827091 -7.595361772442743 31 30 26
-137.519791097899429 -135.509766483015909 -8.435675604828305 29 32 25
-137.475791688133626 -134.928377130200658 -8.684427074157298 31 33 28
-137.432038364317748 -134.348254372971553 -8.933047779106715 35 37 32
-137.524989592165213 -133.899797649199769 -8.117184226214391 39 41 36
-137.542284640177911 -133.376561652892207 -7.892578495647825 44 46 43
-137.544617556714599 -132.838434437283354 -7.786142765214947 50 52 49
-137.486576397535259 -132.245258875105776 -8.152591965626641 49 51 48
-137.489329306064377 -131.707422001086883 -8.045952323832353 43 45 42
-137.492276821857047 -131.169173104066914 -7.939223823749927 38 40 37
-137.571041484852799 -130.694673550347773 -7.241274031707150 42 44 41
-137.589462744321168 -130.166769092872016 -7.016177580256539 43 45 42
-137.577836343302181 -129.613329330489591 -7.027436444150482 44 46 45
-137.551302642464208 -129.048011171093918 -7.156808064408040 42 44 41
-137.811913931350233 -128.706238563059287 -5.040190625683550 38 40 37
-137.921560112482638 -128.240121791036159 -4.105663163193043 40 42 39
-137.970952491143919 -127.724999808817600 -3.643900888200562 40 42 37
-137.869641293239198 -127.098755420295930 -4.363967375624469 44 49 45
-137.904310944528788 -126.571581703227011 -4.020231342422875 53 58 54
-138.089895384930685 -126.146393071183240 -2.494659558484699 57 62 56
-138.290610328585018 -125.724231212951253 -0.850959352629786 55 60 54
-138.446181452591134 -125.265060587632490 0.438186600052859 52 57 51
-138.451230632349848 -124.704667913053484 0.545692591946192 55 60 54
-138.411292422030527 -124.116069217314461 0.298809777123353 53 58 51
-138.401663340625845 -123.546621460066476 0.288341645753746 47 52 45
-138.437360645571630 -123.003372895800609 0.632403838464484 45 50 43
-138.593553377395637 -122.525979216658982 1.921659587149037 42 47 40
-138.719758217065021 -122.026321262464847 2.974622283808031 40 45 38
-138.740835216293988 -121.466662939706595 3.200662373569884 40 42 37
-138.716990812068758 -120.883182881628585 3.072390354046803 40 42 37
-138.663286480060890 -120.285679250807462 2.707971325903799 39 41 36
-138.579744940588597 -119.675798026499777 2.107433101354445 37 39 34
-138.556490815243848 -119.095849997770543 1.979479826176942 35 37 32
-138.638515169474573 -118.562043531606037 2.678378567490284 33 35 30
-138.720670743277594 -118.025010451554166 3.377306870639501 37 39 34
-138.862981226837150 -117.508562422460116 4.548660508374951 42 44 39
-139.155416961643709 -117.043474462614427 6.900951075919266 43 45 40
-139.492882900170912 -116.583677339468210 9.607415054574375 51 53 48
-139.740394983220057 -116.080532557776408 11.605245908356579 63 65 60
-140.017953398047354 -115.577821744424369 13.839173061166235 25 26 21
-140.040758624104626 -114.986866603154908 14.065717774843790 14 16 11
-140.198597596454221 -114.433622022705251 15.354980307921494 12 14 11
-140.281634026897933 -113.854233086222720 16.053894019760378 31 33 32
-141.098793687918032 -113.455697275848394 22.537956741926195 204 208 207
-129.044819868062319 -45.247900583294452 -83.260281020684914 137 139 125
-139.941537289689535 -7.001443331316606 -8.932497909727374 36 38 35
-140.491044566515711 -4.905723875169327 -5.365421257593994 25 30 26
-140.433406848327735 -4.633539001576418 -6.171808874490694 17 22 16
-140.772413183214553 -3.161374000000694 -4.140182096162647 10 17 9
-140.302991839562708 -4.148633261762383 -7.902073619841389 7 15 3
-140.710597327483754 -2.464982168051598 -5.396370634745949 5 13 0
-140.838224054197383 -1.634854422393715 -4.900423828378479 2 8 0
-141.016901193428680 -0.646764188438179 -4.049104012132887 122 127 118
-140.694075272201729 -0.784649202122476 -7.195313399432706 95 96 90
-140.290318204532298 -1.622391877187306 -10.483894868215401 70 72 63
-143.649463282631075 -202.076628481495902 19.681758275884874 5 8 0
-136.766643467908409 -144.259249003705634 -12.253400347949082 206 195 177
-136.914869522152856 -143.931018956823209 -10.966420414310875 171 160 131
-137.018073802396032 -143.538485023258033 -10.034217310003726 142 132 106
-136.851027539449660 -142.796235148196615 -11.230360869653651 131 122 98
-136.924593436473003 -142.362420032579763 -10.534479364072695 100 94 75
-136.998307849911356 -141.925487055723067 -9.838558902459880 47 45 25
-136.982196086924148 -141.375265541884374 -9.851930421095943 36 37 24
-136.891389355898752 -140.734829560477294 -10.456258803845486 31 32 23
-136.875801276138532 -140.186401052302330 -10.469361337912773 25 28 19
-136.875422788466153 -139.655698542785842 -10.364146307729897 24 27 17
-136.950086000021798 -139.210896638760232 -9.667852943170345 22 25 18
-136.905236358664979 -138.627155101474472 -9.917035372594540 23 24 19
-136.950343893886611 -138.144897688046882 -9.456984660500041 26 26 21
-136.741603974208573 -137.381434947509462 -11.005869332058722 29 30 25
-136.742366767825217 -136.851375547624144 -10.900101696968676 29 30 25
-136.892616940356646 -136.479620300289156 -9.612601458833524 33 34 29
-137.057855002995097 -136.117541672765071 -8.206972574216081 35 35 30
-137.014349739019508 -135.534575710029770 -8.455503874730766 35 38 31
-136.896552321005260 -134.877681744282228 -9.294631689760962 38 40 35
-136.913170073320941 -134.357680849711898 -9.070316674606914 41 43 38
-136.915079991197445 -133.822242981249701 -8.964055622481965 40 42 37
-136.932075478142849 -133.300614597668329 -8.739576652937785 43 45 42
-136.949254287555277 -132.778029691156974 -8.515019828524800 48 50 47
-136.921989031653709 -132.213509549615111 -8.644733207818575 52 54 51
-137.013894548976339 -131.756743459263191 -7.829455451741381 52 54 51
-137.031602783306028 -131.230719176852574 -7.604680755486669 47 49 46
-137.034631653258316 -130.690895514325547 -7.497929545705631 43 45 42
-136.978442744313384 -130.100430745379896 -7.863464732397603 44 46 43
-136.967023505251234 -129.548587235150791 -7.874608059696214 45 47 46
-137.030001144079336 -129.056889118322033 -7.295246644272225 49 51 48
-137.152456543656740 -128.609471816461223 -6.243539927623317 48 50 47
-137.215690273395239 -128.111402733313071 -5.664121578742424 38 40 37
-137.175295137351924 -127.532452120912225 -5.911123672696789 40 42 37
-137.238842745738935 -127.031032901583217 -5.331589649980998 35 40 36
-137.317341559731915 -126.537598223321652 -4.633961947938957 40 45 41
-137.558861854589878 -126.154838229069497 -2.637758363996056 50 55 51
-137.696775417521962 -125.692290512179525 -1.467953375026724 57 62 56
-137.805181092429194 -125.204740017670005 -0.534239994535227 61 66 60
-137.736168656199510 -124.598571966344622 -1.016930439419525 61 66 59
-137.549064320685602 -123.920691523228598 -2.443724895173972 36 42 32
-137.554455142275771 -123.366198446534852 -2.335994735474770 53 59 49
-137.633919206939424 -122.854753988583397 -1.638090644530166 53 59 49
-137.831716779740788 -122.407511297514247 0.003955731496688 46 52 42
-138.073886797780119 -121.977113467381713 1.999979780606594 47 53 43
-138.212720675953335 -121.482318125778662 3.169893104231733 48 50 45
-138.204019261281218 -120.906089075317652 3.159798962189512 44 46 41
-138.033146722715401 -120.249339960746781 1.851846142757751 39 41 36
-137.965824713601023 -119.648079321681948 1.370014906870750 39 41 36
-137.913460332553313 -119.055867908948272 1.006291382133497 39 41 36
-137.994019026665512 -118.523904509386114 1.704507928280321 41 43 38
-138.015730832931354 -117.963799813183641 1.930847112806589 44 46 41
-138.140779957034738 -117.444341105733628 2.983053099999921 48 50 45
-138.295408820712623 -116.931363081777278 4.271194411986698 49 51 46
-138.626927269678731 -116.477266534304036 6.974871810911139 58 60 55
-138.855353067707824 -115.974689173143972 8.852718807186136 66 68 63
-139.113296672836839 -115.473098169574627 10.966414944114291 60 61 56
-139.386018600020890 -114.966264026067478 13.197985894304878 22 23 19
-139.585193851217696 -114.427519340400991 14.839749470956832 35 37 34
-139.475404460221426 -113.796454460409308 14.004718540357857 2 5 4
-139.704246715607496 -113.255722626684545 15.882372025251726 201 205 204
-127.470268910578341 -46.766274173514908 -93.531775522667573 128 130 116
-139.524730615628869 -6.996999193108214 -7.579918150764769 61 65 66
-139.369726574123035 -7.023627937921241 -9.094962953830475 37 39 38
-139.667147723934590 -5.671733440971568 -7.303710150618429 24 29 25
-140.160432493730866 -3.712032887957075 -4.094706696994962 12 17 11
-139.845571122573745 -4.238831961546012 -6.789667043367416 8 15 8
-140.147363098615244 -2.863458196055813 -4.996564935775012 7 15 4
-139.783882822696285 -3.556372436601483 -8.045651147432721 4 12 0
-140.348786446408383 -1.356247644398846 -4.361424747375622 1 7 0
-139.844848841666902 -1.232856249388827 -9.703285606087604 54 55 47
-135.985743486704479 -143.909033503971898 -14.515186209975923 198 192 179
-136.677831704623316 -144.316313211188344 -8.858674767994501 98 96 76
-136.483798686407965 -143.529118812211863 -10.289909105266076 68 65 47
-136.349221667463951 -142.825567563115470 -11.248403375641999 51 49 33
-136.421420813006392 -142.391439931473030 -10.553178936169104 36 37 22
-136.552704245534784 -142.028731309949848 -9.385518084895210 40 42 28
-136.522077545005061 -141.458753546147221 -9.516895745824627 35 37 26
-136.447550697287880 -140.835293615241966 -10.002402260265995 32 35 28
-136.388034064372476 -140.232052368461808 -10.369660933403679 31 34 26
-136.343500692510020 -139.648193309382691 -10.618693270296717 25 28 19
-136.402098876216144 -139.186373608549701 -10.041119417646058 27 28 22
-136.372721446831406 -138.620139037114399 -10.171860900982409 30 31 26
-136.387628327032047 -138.104725628514757 -9.948317139886143 35 36 31
-136.182622348548591 -137.342104956829900 -11.495406838938521 39 41 36
-136.110023190277474 -136.732127384078211 -11.979852372670962 37 39 34
-136.110996975490906 -136.203858461133166 -11.873965369645646 38 39 34
-136.331967539444747 -135.909038233752824 -9.997546383251631 35 35 30
-136.318595223351764 -135.360532830733149 -10.009589695092785 30 33 26
-136.276156220331359 -134.782113521846725 -10.257564099029253 33 35 30
-136.307119334146705 -134.278756171338841 -9.915356106825044 36 38 33
-136.338251972422512 -133.773894068138077 -9.573082503875384 38 40 35
-136.340312172935370 -133.239107866860678 -9.466742849114638 40 42 39
-136.342564408303815 -132.703915021662226 -9.360315511327315 43 45 42
-136.447263412883387 -132.263907376824022 -8.427886006780000 48 50 47
-136.566668936924117 -131.833006116508187 -7.377468332221156 51 53 50
-136.642379086761736 -131.357962725883482 -6.680985406789659 55 57 54
-136.630675882050440 -130.802768991430611 -6.692299067822432 50 52 49
-136.458738894445560 -130.109615488998799 -8.001135844678117 43 45 42
-136.593279846111159 -129.680490757703751 -6.832600261797324 43 45 44
-136.625888305928356 -129.161961244672938 -6.489761316396311 45 47 45
-136.731496026222914 -128.700535755369771 -5.557117549998225 47 49 47
-136.706143889914017 -128.131755596831198 -5.685959549931454 55 57 54
-136.637318799433842 -127.530111447557445 -6.168513802454925 42 44 40
-136.583274495414230 -126.941682474070348 -6.533002062036417 40 45 39
-136.718560638031676 -126.493152554634747 -5.364309729708367 37 42 37
-136.824846257114672 -126.018523483790545 -4.431477569951255 38 43 38
-136.960311577938512 -125.559747859210830 -3.262804983573574 41 46 40
-136.863340260793819 -124.938758988440355 -3.980741189233441 69 74 68
-136.839246493146078 -124.368797456914763 -4.108993350378171 30 35 29
-136.742724317724139 -123.753226586206452 -4.826658917980978 59 65 55
-136.733547311941948 -123.194902717714712 -4.836796274147275 58 64 55
-136.797118319222420 -122.680173743137459 -4.257388061478053 49 55 46
-137.122001905665400 -122.314456713720674 -1.555975023264779 53 58 51
-137.258287398894169 -121.830214241470713 -0.387172212276369 56 61 55
-137.554181786512089 -121.427204230524708 2.078270847351405 62 67 63
-137.603619713901878 -120.883501262942090 2.539760714259273 64 69 65
-137.522758030087658 -120.271732143663371 1.940485090419713 56 61 57
-137.471088364614388 -119.676890530991145 1.577066841262649 54 59 55
-137.463071033553177 -119.104103994629099 1.567335398002058 48 53 49
-137.542116369957910 -118.570409730012145 2.264810142345539 45 50 45
-137.519938659891096 -117.989884593216274 2.137365880084076 41 46 40
-137.541361268025668 -117.427837678334740 2.363546720983067 46 51 45
-137.606351260586649 -116.881796235701188 2.943311456382844 46 51 45
-137.801683847116834 -116.381722814098381 4.583634778177611 58 63 57
-137.968159948612850 -115.863761186950427 5.988251354316844 66 71 65
-138.163646201761480 -115.348984303901233 7.628496839580066 73 73 73
-138.229088065364806 -114.785335216382052 8.208296504203531 68 69 71
-138.598216601935690 -114.309469365424249 11.262319012506254 80 81 83
-138.606059158509765 -113.718538041347998 11.370846996632594 82 83 85
-126.541331117735382 -48.443170167635451 -97.949834902900761 128 130 116
-139.109399989754479 -6.529785796088471 -6.563972426627032 38 42 41
-139.036769080528472 -6.307862647498022 -7.487874250459669 34 38 37
-139.281711395021119 -5.100856138774048 -6.052812392094978 19 24 20
-139.544032546486221 -3.835515700891957 -4.499178133209142 12 19 12
-139.680608036966106 -2.961332669408675 -3.888544867197652 6 13 5
-139.371913120073998 -3.492805879086935 -6.580507089755741 4 12 1
-139.494021814452481 -2.669136231282569 -6.087133614697706 3 11 0
-135.867994522002022 -144.460083435610613 -11.461795899536526 89 94 85
-135.996250405838225 -144.109502635805285 -10.295458579417982 66 69 55
-135.950705425670719 -143.520039096105876 -10.545032555991128 53 56 43
-135.833030087559081 -142.835977615856393 -11.384381617288966 44 45 33
-135.932818536172249 -142.439626992226778 -10.453851922233270 39 41 30
-135.989321361493296 -141.983155838491371 -9.877225426569595 36 37 29
-135.901403824991974 -141.340585248657362 -10.480193601159016 35 36 31
-135.886050547271481 -140.791365891324006 -10.493191947343036 32 33 28
-135.842044628266649 -140.206743862971109 -10.741979806222957 31 32 27
-135.884909085474021 -139.728553329611742 -10.282960312522277 31 32 27
-135.899086160976026 -139.213844622807130 -10.059758433642713 39 40 35
-135.884618419110126 -138.664275156166582 -10.072336746360207 49 51 48
-135.798307467525945 -138.031425463586288 -10.674436274153379 44 46 43
-135.611444504046148 -137.286608976355041 -12.101804264681903 41 43 40
-135.540159446382688 -136.677710251733799 -12.585610032062249 39 41 38
-135.555497098890669 -136.166364386647217 -12.361818321702032 41 43 40
-135.657332643564843 -135.747593467787794 -11.430540086269389 36 38 35
-135.730513238345367 -135.293942001041273 -10.735047093487765 28 30 25
-135.703216031842942 -134.731895347494259 -10.864750296984994 26 28 23
-135.733602040197610 -134.229585221751449 -10.522807610444403 34 36 31
-135.749794377993226 -133.711286588255859 -10.298678589910168 34 36 31
-135.694396468462713 -133.121000313991743 -10.663833527858230 34 36 31
-135.739667341864219 -132.630023012901034 -10.203794433522575 36 38 33
-135.828112244052249 -132.177942021707423 -9.390123997784571 44 46 41
-135.988348078012251 -131.789031050404418 -7.987164361014635 48 50 45
-136.076991197900270 -131.328122851194507 -7.173489961494909 56 58 53
-136.151424709301324 -130.850660081424905 -6.477642679400418 59 61 56
-136.154392403324664 -130.307259183168554 -6.370957558258539 46 48 45
-136.186166505923381 -129.787985844321042 -6.028525423063684 45 46 48
-136.175176174211828 -129.231178688906738 -6.039514655849359 41 43 42
-136.321696505120485 -128.803475787432262 -4.754374658471477 42 44 43
-136.282430578846316 -128.220974770676719 -5.000873088438510 44 46 45
-136.086164052773171 -127.516758242626736 -6.543180680223912 53 55 52
-136.090224979100583 -126.972410423777305 -6.435982307624386 41 46 40
-136.165865262501370 -126.480745384576636 -5.739703901035654 36 41 34
-136.213073661443303 -125.965183532605593 -5.278990962255165 35 40 34
-136.103432295032974 -125.336696264969291 -6.113924545740645 51 56 50
-136.208041972461558 -124.859160511079821 -5.181924070675137 31 36 30
-136.355541011373560 -124.405898071515992 -3.896578959908766 52 57 49
-136.317761479286048 -123.826425876089587 -4.142335126812299 51 57 47
-136.294427862004085 -123.257119578955198 -4.270216889970868 51 56 49
-136.242777681155047 -122.671049155883395 -4.633535531489656 58 63 56
-136.333773557392959 -122.170974417786780 -3.819138742257081 61 66 59
-136.453362008641761 -121.683439817093344 -2.769216511371610 56 61 55
-136.672701590186819 -121.246180048327005 -0.895043983126357 47 52 47
-136.892080887583347 -120.800210988969383 0.979057895942844 64 69 64
-136.883845515538127 -120.228288612340307 0.969231037853120 60 65 60
-136.975352086565096 -119.705812412251760 1.783641552220445 59 64 59
-136.924764442324260 -119.111777954308522 1.420749246761261 62 67 62
-137.116058709585076 -118.630030911200294 3.059329293079941 60 65 59
-137.037359664708788 -118.022300492374598 2.461129840667979 53 58 52
-137.015702286441808 -117.441199972326473 2.333928580647182 48 53 47
-136.880564291824385 -116.815261912314824 1.265105968056190 47 52 46
-137.001307535872002 -116.291641145536047 2.315209194822756 59 64 58
-137.164752503127886 -115.778536260583607 3.718425679618605 66 71 65
-137.356674630798580 -115.268618875774877 5.357016120726541 72 72 72
-137.378349069802880 -114.696068871486219 5.583209323074868 82 83 85
-137.485315191650557 -114.148329358715102 6.515614470515743 195 196 198
-139.053741749778794 -4.462951442546134 -3.175248669605622 27 33 29
-139.326425717806217 -3.146584284556209 -1.506323233540371 12 18 14
-139.257662782183388 -2.913982234728631 -2.428484555354629 6 13 6
-139.158068812236593 -2.785031086673262 -3.586046177348777 5 12 4
-138.949236296390950 -3.013173734516517 -5.568203593876149 2 9 1
-139.085193409181102 -2.136619263043367 -4.957890568054978 5 13 1
-139.065255748682887 -1.765030746101115 -5.525548048374048 0 4 0
-135.568074447003767 -145.303084866974956 -9.933715924348036 118 124 120
-135.522766831302533 -144.710957437273777 -10.183203767332145 102 108 101
-135.392362036447111 -144.001750510597901 -11.139760276735757 60 65 58
-135.376107077739846 -143.452867520265926 -11.153186521618636 46 50 43
-135.388520721411112 -142.942559642322152 -10.930782962540093 42 45 38
-135.429552333240593 -142.469158767728231 -10.472590993421932 38 40 35
-135.399768879369162 -141.900614099474126 -10.603550496468017 39 41 38
-135.313475102957511 -141.259427895688304 -11.205727619615288 37 39 34
-135.227488799552702 -140.621208267968626 -11.807727112272261 37 39 34
-135.241029448555253 -140.110517075315471 -11.584788343357133 36 38 33
-135.325602667008667 -139.686499190705206 -10.772681240193066 42 44 39
-135.381976303071269 -139.224307617827179 -10.196175431375707 51 53 48
-135.212051321584340 -138.488085957132370 -11.504492993589736 47 49 46
-135.183960022851522 -137.925012172880088 -11.634586660860379 37 39 36
-135.028847187688086 -137.214952213276177 -12.824689962592686 35 37 34
-135.001273482655876 -136.655811324794200 -12.954495531539237 36 38 35
-135.016299105412969 -136.144965863492956 -12.730847944234711 38 40 37
-135.087980612908268 -135.695509941396381 -12.036028922823192 36 38 35
-135.173901345901470 -135.258204844111361 -11.223413945277088 37 39 34
-135.189406680624785 -134.742031548780119 -10.999591707484370 32 34 29
-135.162790438857371 -134.180638301348353 -11.128962413949125 30 32 27
-135.178666899702591 -133.663382848363341 -10.904973769884180 30 32 27
-135.194717069903277 -133.145167793578821 -10.680911901522393 30 32 27
-135.239101848220372 -132.653846480603420 -10.221300253124980 33 35 30
-135.368085303262063 -132.242372046618982 -9.055241674202591 37 39 34
-135.440867558278285 -131.772012390243475 -8.360111231588149 41 43 38
-135.485645691680816 -131.272275258855558 -7.900398031712825 46 48 43
-135.572743649081701 -130.808940984599985 -7.087487805439764 53 55 50
-135.617795675247407 -130.304225372115752 -6.627694822212277 60 62 59
-135.522521292866571 -129.674678115915924 -7.344907315858364 57 58 60
-135.525789853448714 -129.132553857828555 -7.238065120087384 49 51 50
-135.669596902732337 -128.707243122741772 -5.954198523568209 43 45 44
-135.574940678016389 -128.081350205968391 -6.671077676754720 42 44 43
-135.480527350798923 -127.458869961183851 -7.387805500263426 41 43 40
-135.498523537023345 -126.926993716173271 -7.162953286000032 54 59 53
-135.684873703078154 -126.521615314577758 -5.525952379959932 47 52 45
-135.549000374764603 -125.870602940428427 -6.595384876182294 36 41 34
-135.441401622673652 -125.244787875500535 -7.429313773654030 57 62 55
-135.558075806879714 -124.779712919798527 -6.380554529723838 33 38 31
-135.758825038599525 -124.366934664053616 -4.625882445521142 35 40 32
-135.903638504852040 -123.909004427033835 -3.341870151493765 37 43 33
-135.922627612120266 -123.364340852664299 -3.116674553611432 57 62 55
-135.718019037827446 -122.679453412711780 -4.773632873577554 56 61 54
-135.681460208492354 -122.103453793719851 -5.018769315494865 49 54 47
-135.798821236637679 -121.618300875326483 -3.969888160334733 67 72 66
-135.930246422178811 -121.136161669962220 -2.803388853901708 54 59 53
-136.159532887637425 -120.701825970387318 -0.813568786653747 49 54 48
-136.193353474488362 -120.155640211251495 -0.470434643469048 79 84 78
-136.255236284253499 -119.621987217774162 0.107971146862326 37 42 36
-136.261419103574525 -119.058543411263216 0.215988061202808 55 60 54
-136.463098064599677 -118.585685223272876 1.970486491794162 45 50 44
-136.539287647580977 -118.048587911729882 2.666560024217034 63 68 62
-136.392464381245645 -117.412964110499701 1.481188632569399 60 65 59
-136.217986518937465 -116.771523203385499 0.060809728766372 53 58 52
-136.322529330842343 -116.244873941123245 0.992272665580373 64 69 63
-136.691956740704967 -115.811425698983570 4.157733664518247 67 72 66
-136.824515761110547 -115.280618339941583 5.324274427909387 71 71 71
-136.831806399470679 -114.703114343884408 5.432676590486636 70 71 73
-138.600021664473218 -4.521874374136410 -1.950534775892152 23 33 27
-138.653403576475000 -3.895329117925950 -1.931446397239881 12 21 16
-138.845055403063725 -2.823252596504832 -0.853066278243034 8 18 10
-138.823822304597343 -2.439855269724467 -1.421465045657584 6 14 6
-138.583471363355073 -2.332119830578100 -4.087311440261516 3 11 0
-138.471312900002204 -2.261594727079862 -5.361141349126740 4 12 0
-138.559732586264204 -1.534813239325183 -5.104605031412518 0 5 0
-137.601123713817600 -2.634704789704768 -14.531448172447057 65 67 53
-135.230290666972337 -145.577741905105654 -8.540458955133175 117 123 120
-135.073916897578044 -144.821938544407573 -9.731636343286425 87 92 88
-134.834182747880448 -143.953519680306528 -11.629005569113843 51 56 52
-134.929837610508514 -143.561084820646244 -10.700413060499017 45 50 44
-134.872199425699449 -142.953481970449246 -11.066817986676455 40 45 39
-134.870595244864631 -142.423346565957559 -10.962183486404314 46 48 44
-134.771696991782790 -141.762502660665405 -11.681451779503305 46 48 46
-134.714887496900161 -141.160216483778527 -12.047405536071182 48 50 45
-134.644434459917193 -140.541716127744337 -12.530912102025496 53 55 50
-134.699432910989430 -140.085745097294335 -11.955000145825693 52 54 49
-134.865782245149603 -139.767313217078907 -10.437531469904599 52 54 49
-134.962697982600673 -139.355678543921698 -9.508533396421853 44 46 41
-134.781995298659467 -138.600556183396776 -10.933060413865860 38 40 37
-134.601675351294404 -137.852242255776559 -12.357334248823577 37 39 36
-134.629817614443738 -137.356871023144862 -12.016393536785756 34 36 33
-134.644262644695971 -136.843874649148830 -11.793045843370322 34 36 33
-134.617310930093026 -136.282364508507612 -11.922578242130214 34 36 33
-134.618282060736561 -135.752726941259027 -11.816706597185402 33 35 32
-134.619442836702490 -135.222692221880067 -11.710748314654751 35 37 32
-134.662310689680879 -134.737344363641341 -11.251800870369379 37 39 34
-134.649993002110506 -134.190924727148087 -11.263318181697656 33 35 30
-134.693181724839320 -133.702559978757023 -10.804248288789381 33 35 30
-134.667409886026149 -133.141122029159050 -10.933215495917040 32 34 29
-134.724735815391995 -132.663930982297671 -10.356408510368425 32 34 29
-134.782194410019883 -132.184119477310588 -9.779565031905094 32 34 29
-134.812177303004887 -131.674934896097767 -9.437885956599189 33 35 30
-134.842314400863700 -131.164227042932794 -9.096148790013643 36 38 33
-134.941568392019349 -130.716115394858804 -8.166407579800818 39 41 36
-134.903047092506370 -130.138231152562639 -8.412502260098847 51 53 51
-134.809603293524674 -129.512472971648236 -9.128800006066115 63 64 66
-134.743957891810169 -128.914131831626690 -9.609799106849636 61 63 62
-134.857562785727254 -128.470512623063939 -8.562287346089306 55 57 56
-134.792290440110150 -127.873222269148556 -9.043097161845338 39 41 40
-134.796041721194115 -127.334108203487716 -8.935993048818062 36 38 35
-134.882496703925455 -126.859941182478579 -8.123501926327293 35 40 34
-135.037815498306600 -126.435146593487303 -6.723263952540890 43 48 41
-135.055723647704696 -125.900367478823540 -6.498483735489060 70 75 68
-134.977589173204251 -125.294068990520884 -7.096398359788168 23 29 20
-135.050785241273047 -124.798405339807331 -6.401330417153190 54 60 50
-135.192761871673980 -124.347160312568803 -5.118606441450737 24 30 20
-135.389724252458763 -123.926962131821071 -3.365822350770600 26 32 22
-135.408306170224421 -123.381934562617388 -3.140825297732192 37 42 35
-135.221235036909860 -122.705384157819424 -4.678449063836183 64 69 62
-135.157882359295627 -122.111890302487524 -5.158301437732575 39 44 37
-135.231845437425932 -121.602188952425990 -4.463011057204568 38 43 37
-135.347046275135511 -121.112902939887675 -3.415205873758737 36 41 35
-135.421225573264053 -120.595944059550646 -2.719886759729661 61 66 60
-135.454418882252696 -120.053780291893474 -2.377011303745405 84 89 83
-135.583624542859155 -119.559418998395998 -1.211699618526239 38 43 37
-135.548602817591274 -118.978283333827733 -1.456153583023791 48 53 47
-135.773847527637088 -118.521913276991327 0.531506111580285 54 59 53
-135.875959409850594 -118.000201841639068 1.461856927495404 53 58 52
-135.813988447550315 -117.402681710158575 0.982624116986045 58 63 57
-135.670129738405393 -116.773318616426195 -0.201264596055921 61 66 60
-135.854703473922513 -116.279300421177538 1.433974057779210 65 70 64
-136.203407281637027 -115.839272836299216 4.478594347083458 68 72 67
-136.292390086302277 -115.292698679839674 5.291549447903435 67 67 67
-136.231160290605175 -114.691890343326904 4.812637361810260 66 67 69
-136.334065015244789 -114.145067945886836 5.743108991076951 56 57 59
-136.409757133814651 -113.585830818466363 6.438716641983632 125 126 128
-137.859361499081416 -5.505558035236056 -2.959891819683975 41 51 43
-138.045274972214429 -4.444401561516042 -1.884144503774138 17 27 19
-138.247392301675518 -3.327563238606585 -0.690359594864560 10 18 10
-138.316004396070923 -2.647426408086348 -0.553677909235859 5 14 5
-138.160382674753492 -2.710013030797816 -2.179506960625730 3 13 4
-138.200285709535592 -2.130623564807150 -2.277240317316313 4 12 2
-138.165668829718584 -1.801819731032173 -2.962338766524823 2 10 0
-138.131572138782019 -1.475399367840678 -3.647163824895841 2 10 0
-138.098000241530826 -1.151351144156991 -4.331713406143081 18 24 16
-137.989234890676585 -1.085523610393608 -5.603871707174449 102 108 96
-138.002102812830628 -0.613286544655772 -5.935153365434104 87 90 79
-137.818049603778292 -0.814805146257644 -7.794871616290209 58 61 49
-134.543378158045130 -145.345518438715573 -10.090913671788769 123 129 127
-134.458554432197218 -144.693100120805411 -10.692503145578428 69 74 73
-134.374052087321417 -144.043673083245665 -11.293908081061346 70 75 71
-134.399356901124520 -143.552828552844801 -10.954278199444701 34 37 32
-134.329099299306847 -142.926321407743501 -11.437773687787939 32 34 29
-134.341159400945060 -142.415607452457721 -11.215543441964286 34 36 31
-134.257775390058583 -141.773654852097962 -11.816336432163070 37 39 36
-134.270281764747097 -141.263058110199239 -11.593891484305544 42 44 39
-134.132850276601943 -140.552829548582451 -12.664678940815662 57 59 54
-134.145821132864569 -140.043439630113113 -12.441999364125394 61 63 58
-134.227149575499823 -139.620684783437980 -11.631431549506544 44 46 41
-134.267713578915163 -139.142531493626620 -11.173512201648094 39 41 36
-134.172236271687694 -138.492751580582080 -11.891030038746152 36 38 35
-134.145117190208595 -137.929872287533442 -12.020656598619439 34 36 33
-134.104613266392363 -137.351305891632364 -12.267706781338035 34 36 33
-134.132339936543246 -136.854659675905964 -11.926978011607588 34 36 33
-134.092264737217334 -136.277244514552081 -12.173811243764050 35 37 34
-134.106763475224113 -135.763403341783373 -11.950446552681143 33 35 32
-134.121435777722013 -135.248611144595401 -11.727008618312681 36 38 33
-134.177002776190079 -134.777945418460462 -11.150975930872164 39 41 36
-134.164863017298330 -134.230912706960794 -11.162414432419496 35 37 32
-134.220727077720852 -133.756400156020334 -10.586279228858416 35 37 32
-134.208942425326939 -133.208271816990674 -10.597559126518945 34 36 31
-134.265099255938850 -132.729901881735003 -10.021323568697341 33 35 30
-134.267208199697933 -132.194315014823559 -9.914968836988209 33 35 30
-134.242414338655323 -131.631560645173636 -10.043481733475573 33 35 30
-134.244882974298719 -131.095680646879288 -9.936957943750514 33 35 30
-134.220467429458637 -130.533728235862270 -10.065281600100263 33 35 30
-134.223288684801332 -129.997542849649449 -9.958592261830972 39 41 38
-134.145174578852192 -129.387289169475764 -10.556537854661855 45 46 48
-134.067289720812539 -128.779901255470463 -11.154344277307757 62 64 63
-134.070673182933035 -128.245710720846773 -11.047365447233574 71 73 72
-134.006709704445797 -127.653840834319013 -11.527493309847216 64 66 65
-134.104922140147295 -127.198348340638915 -10.598326350945115 47 49 46
-134.257195698638498 -126.782152191399973 -9.199456699510392 36 41 35
-134.490448749267330 -126.423199160486618 -7.096104194915313 40 45 38
-134.629322173928585 -125.982015144756346 -5.814761219156111 40 45 38
-134.606524231175030 -125.414001180685048 -5.942373414822981 43 49 39
-134.543481820386006 -124.817234024960428 -6.422111051858991 58 64 52
-134.588395256784423 -124.298949352143424 -5.962524042655645 34 40 29
-134.606508449728580 -123.760057235283639 -5.737688070672050 24 30 20
-134.651689304269553 -123.238103380482244 -5.278010898279319 29 34 27
-134.696998859090712 -122.714037152693706 -4.818293899830024 35 40 33
-134.688627168688129 -122.154151632686649 -4.828062070742618 61 66 59
-134.747657554714493 -121.635103845134907 -4.250870531429001 72 77 71
-134.766474168978618 -121.089756292843177 -4.025764494136837 59 64 57
-134.852636235808802 -120.581400681040705 -3.213765421949063 30 35 28
-134.844845005598955 -120.017974961601141 -3.223292343746351 49 54 47
-134.931241623326429 -119.504000032182219 -2.411238905672320 55 60 53
-135.017742691234162 -118.986252652816702 -1.599174330712543 41 46 39
-135.158052065039328 -118.490755259751495 -0.317703476682539 57 62 56
-135.258171954558691 -117.970592905172992 0.611710322222251 41 46 40
-135.237620985422666 -117.392485233275252 0.485069171426687 33 38 32
-135.203814904589763 -116.809300596066862 0.241175675955247 35 40 34
-135.357947070316186 -116.303001351939315 1.640007002300933 45 50 44
-135.579199785121602 -115.815855256173919 3.625440146836155 66 70 65
-135.653032040508663 -115.265968050933097 4.320254289017242 72 72 72
-135.673367987522852 -114.694492893744680 4.545818225326570 65 66 68
-135.760843486149867 -114.143536189543568 5.358007124338911 56 57 59
-135.821635203420129 -113.580710403341143 5.935590649550022 52 53 55
-136.150433453597230 -113.090496995958105 8.859312715556257 156 160 163
-136.966345775440914 -7.010267844204829 -5.256219790554923 71 78 70
-137.030463711930452 -6.346419330622347 -5.121520430834863 28 38 30
-137.241786567954819 -5.193897338924126 -3.812840054579652 14 24 16
-137.395776088693168 -4.229521659273278 -2.973086604578356 10 18 7
-137.609669486084755 -3.062502342373979 -1.663325718395214 5 13 2
-137.736639235012376 -2.185192637014591 -1.057319990641588 5 13 2
-137.732011988867953 -1.752769231094939 -1.507420340366082 2 10 0
-137.787077496116694 -1.120662541933032 -1.487583782141741 2 10 0
-137.813393700409279 -0.588308222799224 -1.702191760492212 0 7 0
-137.632931682351455 -0.767460035279892 -3.560422230482658 39 46 31
-137.496995870660754 -0.801713228134506 -5.066266375491267 94 97 82
-137.316557823931134 -0.996964023931655 -6.924319662757739 73 76 62
-137.091354745941800 -1.355994743921745 -9.134679173262867 56 60 46
-134.132329177138729 -145.519224625827974 -9.288040085965690 166 172 172
-133.780330187125344 -144.464594643971452 -12.238763155452233 76 80 81
-133.831784833238800 -144.015723165331877 -11.664473464144294 99 100 101
-133.789456888872621 -143.428169855068830 -11.912488758865948 40 41 40
-133.760801335996291 -142.861098037831653 -12.042893517146666 41 42 39
-133.799408709268107 -142.389239110850014 -11.585845423403526 39 39 38
-133.784593556381793 -141.840902055142067 -11.598577250537517 40 40 39
-133.716443006160830 -141.219404299157816 -12.081013168460629 41 46 40
-133.635187775467728 -140.582245946004491 -12.680738407916834 60 65 59
-133.687969665344497 -140.125887797917898 -12.105890831791470 53 58 52
-133.593847726569749 -139.474349045995808 -12.822778369879643 39 44 38
-133.606908070072592 -138.964161212513773 -12.600064196140465 36 41 35
-133.646857773379935 -138.486952228010779 -12.142429007139157 33 35 32
-133.646917717691991 -137.957662042699042 -12.036989694835285 32 34 31
-133.647168764323965 -137.427984306498303 -11.931462949092520 33 35 32
-133.647608933733522 -136.897915600660809 -11.825849752108127 34 36 33
-133.648236281494661 -136.367452555027086 -11.720151068779529 35 37 34
-133.622405797825934 -135.805439574657896 -11.849152250485673 33 35 32
-133.530206897979355 -135.167626841052765 -12.564978524540351 34 36 31
-133.558057956569513 -134.668491594407783 -12.224215868652550 39 41 36
-133.532851026095102 -134.108849603258392 -12.352894338864786 36 38 33
-133.614223265768317 -133.665686991934024 -11.542515639266611 37 39 34
-133.669118044905872 -133.190408360560781 -10.966852022200612 37 39 34
-133.657712670821809 -132.642896418219095 -10.977944129536951 37 39 34
-133.646491544865114 -132.095515568168736 -10.988946743801932 36 38 33
-133.662001765419433 -131.575006680189148 -10.765166797077597 35 37 32
-133.730746772760938 -131.105908947410541 -10.071954770298674 34 36 31
-133.627178394360016 -130.466949778183363 -10.904090849680671 36 38 33
-133.576895067309323 -129.882147323424363 -11.266742541192741 37 39 37
-133.593084023576409 -129.360468444453915 -11.042649932934893 37 38 38
-133.609425707024656 -128.837802296449638 -10.818494422973259 38 40 39
-133.612675883210272 -128.302424694803733 -10.711591575510596 51 53 52
-133.483705071958838 -127.652137011229982 -11.777714471626126 61 63 62
-133.553489349654512 -127.174479273122316 -11.084093373907166 69 71 68
-133.702753753013127 -126.759008364927794 -9.686655826702946 53 58 52
-133.971085390691314 -126.432644852873992 -7.233609731252130 76 81 75
-134.093977016640963 -125.981016241936402 -6.070878789601437 24 29 22
-134.058366757701265 -125.403112179753222 -6.315581042083522 37 43 33
-134.022938546493521 -124.826398996043082 -6.560183945244262 65 71 61
-133.987690465758249 -124.250873763622607 -6.804688446425018 70 76 66
-133.992225509629037 -123.704282255893474 -6.697286353034599 39 44 35
-134.023306611798631 -123.175176499831508 -6.355286956879439 23 28 21
-134.080907944399627 -122.661907618811625 -5.778719586638033 51 56 49
-134.151815388220086 -122.154400903944918 -5.084868420607478 57 62 55
-134.236016934052088 -121.651831436959412 -4.273747695249767 78 82 75
-134.307138265620949 -121.137619114535397 -3.579863230240733 75 80 73
-134.325658494954268 -120.589774661792958 -3.354924684334236 77 82 75
-134.357491887774472 -120.048233067383705 -3.012693403241798 43 48 41
-134.389456590479739 -119.505114513804614 -2.670415536383331 44 49 42
-134.513718213440910 -119.007883030245083 -1.507498606135044 94 99 92
-134.572245755434665 -118.472698876192297 -0.930713725409589 91 94 89
-134.709847803033682 -117.972231219580820 0.349410791623797 97 98 93
-134.637026462051750 -117.370456126071986 -0.245915486237038 68 69 64
-134.682765050941413 -116.822639679255730 0.213762287704469 45 46 41
-134.741776690938366 -116.278096573861248 0.790682422867633 51 53 48
-134.866638060272663 -115.756549006565905 1.953635972059800 49 51 46
-134.965298802396632 -115.219847613886799 2.882181475224485 75 78 72
-134.998356961158038 -114.655868622234379 3.224767720743699 68 71 67
-135.070957604985097 -114.103236779870812 3.918964412247362 58 63 58
-135.183074691159192 -113.559484955275309 4.964733695564121 50 55 50
-135.360947080255528 -113.029680235319105 6.596398079565375 54 59 56
-136.407444509430007 -6.978419811131552 -5.302206298423840 26 33 25
-136.556444195400672 -6.024702093664258 -4.464730260512880 16 25 17
-136.735235865896783 -4.968299514793634 -3.392341056345231 8 18 9
-136.828987764391172 -4.199066237483032 -3.022831919251729 7 14 6
-137.139665930587398 -2.687835392147460 -0.894300479158716 3 11 0
-137.120271305677193 -2.304572480499810 -1.461818343523248 4 12 1
-137.144781737617251 -1.773493757584184 -1.677277066824871 2 10 0
-137.227915655290076 -1.041659486002087 -1.423321453527791 2 10 0
-137.195956536112050 -0.711212638597581 -2.107165351521331 0 6 0
-136.917494214530421 -1.246613336274940 -4.784623976504463 73 77 64
-136.551275081773667 -2.101417397001286 -8.165930689401222 76 80 64
-136.636462405709949 -1.379118171760089 -7.910894584564232 67 70 53
-136.576475903060782 -1.171409269799064 -8.828601053250765 46 48 34
-136.267969667475143 -1.851708424532137 -11.740658840943269 57 64 46
-133.559452330532679 -145.449859650325408 -9.895393069024777 156 160 159
-133.438272532054413 -144.736352144165096 -10.847580639807290 99 101 97
-133.251646655017822 -143.928896688980586 -12.386338868278813 94 95 91
-133.183829234744621 -143.303825539617748 -12.868652200709931 40 40 37
-133.142589139669354 -142.719500647642036 -13.116113840328381 38 39 34
-133.219844535988187 -142.306472670997834 -12.307394433546506 47 48 43
-133.152777782579960 -141.685038039570259 -12.789311217016547 51 52 47
-133.072863138811556 -141.047670311054645 -13.388397279488942 60 62 61
-133.019467371097846 -140.449368866972321 -13.752676903823982 54 56 53
-133.071200420669527 -139.995161786439951 -13.178308947286553 40 42 39
-133.057560873832443 -139.450839453003852 -13.190437042963055 32 34 31
-133.017937066272680 -138.872230948675679 -13.437066614524582 30 32 27
-133.030900404456446 -138.362709143905960 -13.214391992029391 33 33 31
-133.030957074115463 -137.835570929023163 -13.108932094995566 33 33 31
-133.070428094810978 -137.357246213349129 -12.651537390896408 34 34 32
-133.123115053718550 -136.892997837799470 -12.076816447496327 36 36 34
-133.110619556904879 -136.346898164796158 -12.088415528612160 35 35 33
-133.124432099443425 -135.832097889017319 -11.865388983618232 34 34 32
-133.020955653511464 -135.178659274245831 -12.697630127029043 36 38 33
-133.061245697270579 -134.694472681513588 -12.239903944348981 40 42 39
-132.984326654782336 -134.075499014842848 -12.837367582117992 39 41 38
-133.129212238319752 -133.705436300358343 -11.441557437957982 39 41 38
-133.117816731506963 -133.158543458471684 -11.452638452113604 41 43 42
-133.106603760470023 -132.611782676623676 -11.463630782419415 41 46 42
-132.965411098647394 -131.928693277401834 -12.646797099412993 42 44 41
-133.071707178017107 -131.505274088075765 -11.602573921533974 43 43 41
-133.074040946833094 -130.972261223608484 -11.496085138788089 37 38 36
-133.050539287993018 -130.413177048095633 -11.623942071019030 39 41 38
-133.040215985291752 -129.867304936280618 -11.634499639515525 37 42 38
-133.082022447453596 -129.370628317494720 -11.176176573582040 35 40 36
-133.162912062630937 -128.907850093004271 -10.366230673248737 35 40 36
-133.075165872067174 -128.288962732156904 -11.079731978076069 35 40 36
-132.948721071844091 -127.639140489648824 -12.144641648155357 37 42 38
-133.004107129578102 -127.150763181904708 -11.568877836348861 42 47 43
-133.163331381472290 -126.746910940005293 -10.055697050055358 77 82 75
-133.465164794308123 -126.452856525395717 -7.253714591671496 49 54 47
-133.430082490698055 -125.876685988211136 -7.498146428089910 38 43 36
-133.434034824100166 -125.331925346539634 -7.391004255366283 31 36 29
