ply
format ascii 1.0
element vertex 686
property double x
property double y
property double z
property uchar red
property uchar green
property uchar blue
end_header
9.028359961623352 -0.770981336093119 -53.213751483320493 144 141 122
6.546308705637131 -0.619521193020605 -57.349132201738797 144 141 122
5.665669824179432 -0.837134589241201 -58.810198619068075 143 140 121
4.941132203052419 -0.918921335856411 -60.014764821445596 143 140 121
4.528821698281391 -0.716817877388113 -60.706468321035118 138 135 116
3.700233535381045 -0.909180707198483 -62.081836655551683 143 140 121
3.183887186182901 -0.815454218176515 -62.944371955022859 141 138 119
0.910533553600061 -0.692227139634616 -66.735866744323573 142 139 122
-1.418942500850363 -1.271029467166938 -70.604145302948865 142 139 122
140.493508087402915 -0.578941189088211 162.480173317565914 128 127 115
130.016076353127318 -1.298008541731957 145.217306598086907 135 135 123
128.349700280500826 -0.803359779602506 142.461919213718261 135 135 123
124.804740153580894 -1.166554355868251 136.623150356964999 139 138 126
122.772953072116650 -0.882065658997542 133.268725435384084 141 139 127
119.958360024181346 -0.977166239621501 128.629816234243947 142 143 129
118.239537829450740 -0.594491396402713 125.789812613797409 141 142 128
114.276737432038928 -1.280169739635292 119.267385518262415 141 142 128
112.453410127493001 -0.994675816996958 116.256659346332128 141 142 128
108.438225852462224 -1.776929054690298 109.649427727276390 142 143 129
106.510389621277298 -1.591559676549591 106.468011130017373 142 142 129
104.947810698623712 -1.247840502961460 103.886238908804870 144 144 132
102.863308995170016 -1.178322689854687 100.448386400071257 143 143 131
100.778750997725353 -1.130622470667791 97.010785401644426 140 140 128
99.111653834708747 -0.894169357261061 94.258400721965444 140 140 128
96.452898913150946 -1.180415582697679 89.879483308241532 137 137 125
95.098849408752940 -0.822871658486378 87.641244562693402 140 138 125
93.014083249718652 -0.859386348609593 84.204610014424929 143 141 128
90.511724867998026 -1.136898492948273 80.083359782602457 138 136 123
88.165882937201729 -1.357489113903124 76.219223350077613 140 138 125
86.811669396709945 -1.071623526380974 73.981800899962110 143 141 128
85.405232344300586 -0.828154941596960 71.658939527667940 141 141 127
83.894374702909417 -0.656371807373224 69.165052731732146 141 142 128
82.279092608290014 -0.557889310083505 66.500158986721772 143 141 128
80.559382128893333 -0.534322265076245 63.664276795581998 142 140 127
70.135964892436164 -0.830707992317242 46.482077736106106 143 141 128
68.572615053584997 -0.840366664208590 43.904311814245375 145 142 127
61.695168358384876 -0.551794546601826 32.558115512039564 148 145 130
42.678717658479329 -0.701302728933346 1.193566310790828 144 141 122
41.793797200914355 -0.547900725699657 -0.269270863093425 147 144 125
40.647766565171466 -0.587903356063983 -2.159497436298778 149 146 127
38.564576766279970 -0.553774862720612 -5.597613275631716 147 144 127
36.324690389892183 -0.676369213275712 -9.291729437199734 145 142 125
35.126394918575372 -0.812272187643124 -11.266824426718841 146 143 126
34.032545977985521 -0.883554940014503 -13.070833677091457 146 143 126
33.356528064564770 -0.656105346721740 -14.190935781397229 143 140 123
32.523829267318646 -0.552627994764051 -15.567382834141114 140 137 120
28.775202636090611 -0.544814888828480 -21.755972841476819 144 141 124
27.524628210039566 -0.809088520897738 -23.815595259501208 146 143 126
26.848655595683155 -0.639150944747697 -24.935127034640061 147 144 127
23.309010722807869 -0.695746368356127 -30.779594669809654 141 138 121
22.476351192486277 -0.690482237464061 -32.155049549693160 143 140 123
21.539206402517706 -0.778232778376589 -33.701279362604538 144 141 124
20.549815050582723 -0.918082938941286 -35.332837196720135 145 142 125
19.664917223755808 -0.982416506630968 -36.793443935459493 147 144 127
19.093518883002119 -0.797282188619293 -37.741442342496498 146 143 126
17.790627382780315 -1.224818629761794 -39.885214790376011 145 142 123
16.801229385623515 -1.403965494382849 -41.516364944724529 143 140 121
16.020842640701218 -1.417621714838815 -42.805773304365232 141 138 119
15.815270793624478 -0.953360839776555 -43.155642847458608 142 139 120
15.296199018603787 -0.757654922530772 -44.017924038042992 140 137 118
14.306826245065039 -0.969520376024394 -45.648749470412241 135 133 113
13.787786450970842 -0.786622033371779 -46.510914125763009 139 137 118
13.164247092056527 -0.699404130789368 -47.543819430503873 136 133 114
11.760425723756995 -0.681127241822929 -49.865614125858770 144 141 122
10.927867973631450 -0.797765040933415 -51.239862899235391 146 141 122
10.252117137418736 -0.783794735213868 -52.357895322812226 146 143 123
6.511561093611562 -0.554396646639750 -58.552627157047482 143 141 120
4.951151284057389 -0.818856856406931 -61.129176778615658 138 136 115
4.066386548181256 -1.060470349039395 -62.588022356284398 143 141 120
3.233904454592818 -1.261949048672546 -63.961434013479533 141 139 119
2.667022485106855 -0.647911196638812 -64.916007956588544 140 137 122
2.096040122084105 -0.619286399560032 -65.862594334823598 140 137 122
0.330913859176178 -0.617941073865745 -68.787379916404234 140 134 118
138.728858345108506 -0.553916874313499 157.116020562176772 127 127 115
128.463611698727050 -1.257694700534032 140.305782265785041 136 136 124
126.527091599354264 -0.902338124250267 137.126770237676567 137 137 125
121.290726627665137 -0.873279336308819 128.545641682626069 140 141 127
118.672428205228272 -0.899694593880997 124.255554332636422 143 144 130
114.428721040178090 -1.710461640431468 117.314505248131724 141 142 128
112.177265675677532 -1.626986756822293 113.623802476674229 142 143 129
110.817083433893458 -1.142610142364504 111.387192059074266 143 144 130
107.726598564107945 -1.505214356131169 106.328727684505139 142 142 129
106.628483431094679 -0.930758828685170 104.520112457459419 144 144 132
105.163304018094223 -0.548269073677048 102.113063329456253 143 143 131
102.282356898127091 -0.884346040537601 97.397519295012614 141 141 129
99.296463676183748 -1.302984867183883 92.511313196886675 140 140 128
97.778698318496907 -1.008179063607132 90.019464694612168 137 137 125
96.575516809062691 -0.568066272439437 88.040777949340338 141 137 125
92.333741497431760 -0.684557737950761 81.091658145452101 143 139 127
89.976802934933502 -0.900379381931649 77.232781214021628 143 139 127
88.196643546169369 -0.833329680085227 74.314511100170563 144 140 128
86.573765791748755 -0.700158682155363 71.652894026610284 142 141 127
84.793530569963565 -0.669308657484387 68.735032812478892 140 141 127
83.170582867497288 -0.570700867542129 66.073804978286802 143 141 128
71.022355811609742 -0.811923211659579 46.168696882403736 144 142 128
69.661390217376422 -0.697535104203448 43.936269695499362 145 142 127
44.796403456402857 -0.512917707691048 3.171723435076274 147 144 125
43.330179110140122 -0.747032229602983 0.771521217141753 145 142 123
42.545999448388741 -0.520639963734324 -0.518543563748722 145 142 123
41.079749393682292 -0.781378829011701 -2.918459425110740 146 143 124
40.138164583872083 -0.685947086151852 -4.464450735018715 148 145 126
39.144111192272533 -0.637561053942767 -6.095715875032965 146 143 126
37.208473231006920 -0.533412360766683 -9.272564106051306 144 141 124
29.308502872176163 -0.632969842543344 -22.231912193037090 144 141 124
28.314445980494000 -0.695826623729556 -23.862030580461862 146 143 126
25.020539048145096 -0.509691467297301 -29.272262527255521 143 140 123
23.189918780847592 -0.613746736452017 -32.275489945279844 143 140 123
21.516785961655415 -0.627377387097081 -35.022412949918248 148 145 128
19.896175029503340 -0.631822300716717 -37.683697913771880 145 142 125
18.849649736930161 -0.841404903562120 -39.398064160386497 145 142 123
17.330642872448365 -1.454200744763717 -41.879976330396232 145 142 123
16.284094621924424 -1.687489821790398 -43.594087571358045 144 141 122
15.867544594133548 -1.401445554753465 -44.284626942577603 141 138 119
15.661031410445233 -0.941761889535312 -44.633999037942260 135 132 113
14.670578173947021 -0.522918355199311 -46.270799784987958 138 135 116
12.945116784583959 -0.761002805990259 -49.101237450223607 144 141 122
11.898608241650990 -1.053386285125262 -50.814759398793456 143 140 121
11.429715643143510 -0.849622092385791 -51.590270198379216 145 142 123
9.029246973974494 -0.552178801522184 -55.544464654724123 144 141 122
8.245360067200409 -0.658724671996377 -56.831242389101106 144 141 122
7.566523721371269 -0.677717661350672 -57.947459407698176 145 141 122
6.418994955535126 -0.542974833224643 -59.838768023390884 143 139 120
5.530099880771729 -0.775264069348698 -61.295733640349937 141 138 119
4.641203455462019 -1.016498107633650 -62.752606537870150 141 140 120
4.435208364571679 -0.628685091840297 -63.101486686354264 141 140 120
3.861531073912104 -0.588134099700063 -64.046906582762261 142 139 123
2.815060222708382 -0.999854061157376 -65.759218172564118 143 140 124
2.241407240263868 -0.973059958600656 -66.704508091363579 141 138 122
136.883640447518474 -0.581718776332310 151.680096217983106 135 135 123
132.831261137465674 -1.079734100301229 145.087732772553153 136 136 124
130.516947829725495 -0.858643506613097 141.314825593125988 136 136 124
124.623941650273778 -1.055173360875804 131.719847419265960 138 138 126
122.098705665582401 -1.008264328500034 127.606202324139701 141 142 128
117.677092384515845 -1.856856526134993 120.418075614246675 143 144 130
117.100693512644668 -0.968643617120885 119.465232303022248 141 142 128
111.730710529885030 -2.333257827590481 110.740654152916647 141 142 128
110.047990653699301 -2.006127717750369 107.994809941791090 141 142 128
108.786649534704210 -1.494659443991906 105.932353171630041 144 141 128
103.422031170671247 -0.820506982681138 97.184222556772909 145 141 129
100.474757897551413 -1.211809845604633 92.390118309621357 144 140 128
98.739085695880647 -1.022144959194637 89.560162423183328 141 137 125
96.476550336362905 -1.119027192927658 85.876616789775369 138 136 123
95.214937430523477 -0.723944558782089 83.815488057364718 140 138 125
93.637196448992853 -0.506354388314889 81.242267622338744 143 141 128
91.532577586505354 -0.581781455880029 77.815531084001833 145 143 130
89.059115317408313 -0.874522664694865 73.791472696279385 144 142 129
87.323198397133424 -0.797910562968089 70.962797591488339 145 143 130
86.008738542499543 -0.511443440083864 68.817209807337491 142 140 127
46.294829139017068 -0.768582175047648 4.120396681291453 146 143 124
44.769012249816583 -1.027040065164137 1.638095025229660 147 144 125
43.928414018740753 -0.829090196994679 0.264454581484614 146 143 124
40.932230438902366 -0.620824787914163 -4.623281684924734 148 145 126
39.564500338976174 -0.833524748672894 -6.849105873691371 146 143 126
38.882059742434436 -0.570611781467421 -7.966500430730122 145 142 125
37.883331895510509 -0.542220567310873 -9.595323510633108 145 142 125
30.944983921147838 -0.588320583956184 -20.908939901237034 139 136 119
29.788087420147718 -0.761213143782246 -22.792600378946275 145 142 125
28.894818635451969 -0.744045705926666 -24.250041410927082 146 143 126
28.265195424288152 -0.532754069573717 -25.281313374876504 148 145 128
27.371944037433082 -0.532329742842665 -26.738590384670800 146 143 126
26.373237486911506 -0.623299661622629 -28.366195008596463 145 142 125
25.427263340003591 -0.682942253651970 -29.908490216650620 143 140 123
24.692224283101197 -0.585285466689654 -31.109879670584917 141 138 121
23.904464318529335 -0.537019910712843 -32.396398099170256 145 142 125
22.853037112474425 -0.707995992430334 -34.108816683493785 144 141 124
21.959818262133055 -0.762023200845462 -35.565548761639349 147 144 127
21.435773023610707 -0.525444907206434 -36.425871384234938 145 142 125
19.491157691641789 -0.804797612174444 -39.594477299335040 142 139 120
18.281509818526345 -1.155480212031619 -41.561930504165275 144 141 122
17.071849328594908 -1.518422107345430 -43.529251482067252 145 142 123
16.547866624605277 -1.319532508820896 -44.389216072296932 142 139 120
16.656872449262281 -0.592640380278972 -44.227128581169524 137 134 115
15.974712803857997 -0.534971268525087 -45.342544866159642 132 129 110
14.346685066181578 -0.666296224475877 -47.998975615658338 140 137 118
13.611813780209133 -0.675920125355734 -49.199341036617369 139 136 117
12.402162357456845 -1.105025650090486 -51.165985296751387 141 138 119
11.772815277582993 -1.039646777526136 -52.195887407585502 141 138 119
10.883497788162586 -0.601331768062225 -53.659553809203089 141 139 118
10.306982263131189 -0.505872451154376 -54.604181102986644 143 140 121
9.308383362035229 -0.793356853146578 -56.229814403732462 145 142 123
8.942959930364310 -0.521719502917289 -56.833805380735896 143 140 121
6.791503334845288 -0.692734618389726 -60.348009857260877 143 140 121
5.740151225987660 -1.071315433660453 -62.058327388012032 140 137 118
5.005433689058336 -1.167687873881106 -63.257873415692046 140 138 118
5.062372405905435 -0.535249675790225 -63.180763821824286 140 139 119
3.329148044902894 -1.004358823994452 -66.005109654769541 143 140 123
2.700056919251637 -1.027368298917698 -67.034224387563199 143 140 123
2.651613455199168 -0.504662804350181 -67.127288555571596 141 138 121
136.488491518779085 -1.251353653996744 148.661119336532636 134 134 122
132.311257534774143 -1.802541645662588 141.907315502294722 134 134 122
130.991480358397894 -1.151578063329687 139.760519561474695 136 136 124
128.242853370005150 -1.144297443168666 135.310716332271568 137 137 125
123.115804742804087 -1.047797587991004 127.009173662699936 140 141 127
120.631553731157055 -1.003053400851113 122.986802665714066 140 141 127
114.231038214291218 -2.790627385421702 112.653262671497600 140 141 127
110.106010221991980 -3.582473354998620 105.987819768158005 141 142 128
109.897172376794430 -2.569998449492735 105.633869624956276 141 142 128
109.635405862475068 -1.585088344395459 105.194665229055659 142 141 127
107.468357390779332 -1.520967593844290 101.685499481058088 144 142 129
106.306830499425445 -0.989612627623873 99.796804992653279 146 144 131
104.086761881577345 -0.991107015479190 96.202820425498402 145 143 130
101.707860204472595 -1.094419598099233 92.353292460524187 143 141 128
98.429140100131264 -1.674100103621207 87.054536997509587 142 140 127
96.685247499064431 -1.508804423177713 84.228764566444539 140 138 125
94.994245000196130 -1.334382355460338 81.488454634211365 141 139 126
93.938357380147323 -0.848706232849802 79.771410645640628 144 142 129
92.088502006167943 -0.788911815869615 76.775698649590083 144 142 129
89.603439802372250 -1.083364091889751 72.757207243740538 143 141 128
87.912293291978926 -0.980309029594095 70.017700822565871 144 142 129
48.224261626011881 -0.748542214462368 5.746910864843528 140 137 120
46.585416149880530 -1.064396245727776 3.097554734813230 145 142 123
44.999503420799314 -1.360914960890079 0.533535616830932 147 144 125
44.472686697354462 -0.947465566758996 -0.327281759967292 146 143 124
41.568378516560301 -0.667085811735486 -5.037995441705903 148 145 126
40.088336723384273 -0.954701791310687 -7.431036723018792 145 142 125
39.402690042998685 -0.692513434716706 -8.546890041755177 144 141 124
38.293362878164999 -0.740681532127447 -10.343732493459726 144 141 124
34.173827966299825 -0.811827744191115 -17.019221792302773 143 140 123
33.382299344907381 -0.678938141963350 -18.304808386202467 140 137 120
30.372133243288161 -0.809262626559485 -23.182370186251404 146 143 126
29.474692664376093 -0.792263103624580 -24.637813717746155 147 144 127
28.577258985203173 -0.784314084049898 -26.093167388674829 148 145 128
27.256037743145285 -1.112632808447751 -28.229192248690168 145 142 125
26.199681308345163 -1.248458224153459 -29.939614530341402 145 142 125
25.779045827918281 -0.897612602221226 -30.628866467922990 144 141 124
24.987593390211728 -0.842930666682307 -31.913684477035559 141 138 121
24.302111726041630 -0.712219635915443 -33.028263376800510 145 142 125
23.139820873913379 -0.968681890059640 -34.908482990574925 148 145 128
22.295415692109415 -0.981702457301869 -36.278130577466612 148 145 128
21.556986593766197 -0.917595774707157 -37.477552899117342 142 139 122
20.553648093199470 -1.076229859131137 -39.102245112769879 139 136 119
20.133158752467978 -0.768184558644607 -39.791126397871153 140 137 118
19.182824630383010 -0.900400317575101 -41.330588776680798 142 139 120
18.232493655237676 -1.042158761963995 -42.869954433320373 143 140 121
17.494127924421633 -1.016824769101517 -44.069007963005731 143 140 121
16.914753063434489 -0.865562597321067 -45.012841767087224 139 136 117
16.388395522430613 -0.675323768475586 -45.871581196711446 134 131 112
15.703079405069673 -0.625182465781088 -46.985409948816681 136 133 114
14.964784257016973 -0.627090794101289 -48.184216826156813 138 135 116
14.120506898445299 -0.727379805448265 -49.553027265309595 139 136 117
13.170237451333719 -0.927680282383599 -51.091819754199577 143 140 121
12.484977211508763 -0.907179953082678 -52.205370128497009 141 138 119
11.693727669005995 -0.986139524898587 -53.488909562808630 140 137 118
11.220518778929701 -0.793319155002907 -54.262242813036750 140 137 118
10.429300278624964 -0.886387023916031 -55.545651874040033 143 140 121
10.062160165439266 -0.610080390859640 -56.148869659764927 145 142 123
9.430006879537288 -0.574408479941037 -57.177123502574318 143 140 121
8.006720167341911 -0.665647025232110 -59.488478746750417 143 140 121
6.685416388434021 -1.276686064993967 -61.621553939187123 144 141 122
5.788225649285152 -1.512868862404913 -63.074510860357009 142 139 120
5.156134056972519 -1.514011787640728 -64.102415263565376 141 138 119
5.054279287524906 -1.030640268791404 -64.280381646700079 140 138 118
3.945033156828814 -1.485558012924982 -66.073075986411112 141 138 121
3.684182286190847 -1.157679008846328 -66.505955271923455 141 138 121
3.423379582080457 -0.832144338480138 -66.938833468732895 143 140 123
3.003535708817267 -0.659459002989145 -67.626630215139841 141 138 121
2.106439370350699 -0.944769508760332 -69.079126601090820 141 138 121
1.951820223355426 -0.528910921825241 -69.342014627264490 141 136 117
1.266894882530906 -0.624239298854305 -70.454532933034159 141 136 117
0.422867787004733 -0.880110381026985 -71.821861612757374 140 135 116
141.870444298575990 -0.737877826750560 154.949836903467968 128 128 116
136.397942882422257 -1.785776150172993 146.160184219844069 132 132 120
134.008753535586862 -1.568248968263224 142.312275275933445 132 132 120
130.559277776860085 -0.623853393559600 136.746943997190129 137 137 125
122.271500650440373 -1.922806567911806 123.431172896314564 139 140 126
122.540273182136943 -0.632378202059807 123.843604435603169 142 143 129
118.874671615155577 -1.145822514330300 117.953237741342235 141 142 128
113.082256531892170 -2.684096576474947 108.656525033790757 142 143 129
109.363269460190779 -3.308445794644159 102.681980496987393 142 143 129
111.173796331158997 -1.347661539176863 105.564849397824077 142 141 127
109.847341754689552 -0.872777351710305 103.423060375986609 144 142 129
106.553541184162228 -1.364886595524228 98.130617941315023 147 145 132
105.811885194078997 -0.641022248515960 96.925948136538210 145 143 130
100.500096263897404 -1.129999786583719 88.386234552841643 144 142 129
98.109976400653665 -1.281059261253337 84.542564812409410 142 140 127
96.357892096151858 -1.131193975075420 81.720870096988648 142 140 127
94.074023634738552 -1.273197123954397 78.047994598650064 144 142 129
92.055983329939281 -1.300296256160770 74.801059481206039 143 141 128
89.772020545938915 -1.487717044515179 71.128696613048902 141 139 126
88.817432012488027 -0.993525860530726 69.584821608710570 143 141 128
87.596943565117968 -0.651530477264514 67.615424414993498 143 141 128
60.782756862050022 -0.520876890501095 24.458157654558818 148 145 130
49.210104886467889 -0.580907625011945 5.827855705790085 139 136 119
47.882834784074291 -0.680691660075152 3.692372177462261 144 141 126
46.555555285081468 -0.793935141419057 1.557031689277323 148 145 130
45.707075245318251 -0.593906864754119 0.187140481688999 149 146 131
42.363625821405307 -0.602019742173120 -5.197391014363546 146 143 128
40.610681389644611 -1.075877432430300 -8.012253953924073 145 142 125
39.709006152439670 -0.965027526426693 -9.466637688546001 145 142 125
38.647717128134857 -0.977049881591687 -11.175974603381150 144 141 124
38.224925053465483 -0.541457225382922 -11.865067177466386 147 144 127
37.110441777916080 -0.610128614163873 -13.659231912800180 147 144 127
35.676696792605270 -0.922457167832218 -15.963308164443504 142 139 122
34.402571448083776 -1.132256850321034 -18.012224631525811 145 142 125
33.713774183109862 -0.922882725134362 -19.126027077978961 143 140 123
32.336230591791420 -0.524846053584778 -21.353443145065484 143 140 123
31.008895350768825 -0.817223076754123 -23.486913054919484 146 143 126
29.841200374780229 -1.001910566279030 -25.365286168071663 148 145 128
28.833156088108481 -1.076468643200374 -26.988592586363012 148 145 128
27.559017984652669 -1.365654378358882 -29.036685789094633 144 141 124
26.657415083309289 -1.379479308498073 -30.489820788225103 145 142 125
26.394483017461582 -0.905043424685625 -30.923213020669834 145 142 125
25.652580851799584 -0.808549260479037 -32.121307219438279 143 140 123
24.857470047905949 -0.761440081480492 -33.404297128519403 144 141 124
23.849469264099639 -0.891288595255144 -35.027055226190441 148 145 128
23.001152563634363 -0.903663211810342 -36.394838205057056 149 146 129
21.993160769215990 -1.052902214582777 -38.017401007176261 142 139 122
21.198090806797339 -1.039963272733947 -39.300058723262396 141 138 121
20.509496654690537 -0.948265503637181 -40.412747036366255 143 140 121
19.607990182785045 -1.037845675695813 -41.865148380248087 143 140 121
18.919427902021752 -0.960891600717159 -42.977700176243161 142 139 120
18.230884484507655 -0.890759253663109 -44.090190776879581 140 137 118
17.808546188840893 -0.605308198224708 -44.777954954362855 145 142 123
17.066809519185895 -0.592144461511537 -45.975270563901972 133 130 111
16.378329150231522 -0.541361011770471 -47.087592158833161 134 131 112
15.210690519317083 -0.904572268751579 -48.964154592454548 138 135 116
14.628720821514591 -0.778809763926398 -49.906484554616071 141 138 119
13.780550578819842 -0.887694502427226 -51.273344171210368 145 142 123
13.198623344323707 -0.774700719985046 -52.215563012798185 143 140 121
12.350478845680612 -0.899071701461868 -53.582275537579960 141 138 121
11.662093419575498 -0.892042712255920 -54.694192166202129 142 139 122
11.293238505064039 -0.610514651731671 -55.296643343626556 143 140 121
10.391885387781599 -0.804012163785047 -56.748048378450221 146 143 124
9.703558588657629 -0.816761897956813 -57.859789461683562 145 142 123
8.695705302217988 -1.122476928495975 -59.480807839184365 141 138 119
8.167181332529054 -1.006479256038463 -60.337746655233303 144 141 122
6.893029499286243 -1.571059645457700 -62.382998514159141 144 141 122
6.098220958216189 -1.711734438051999 -63.664200069984929 144 141 122
5.676277256982615 -1.518694359795317 -64.351201787481045 142 139 120
5.147836013162973 -1.427802773493892 -65.207921749745282 141 138 119
4.512885309935314 -1.440700911930705 -66.234337361777335 140 137 120
4.304124674840281 -1.062843898322198 -66.581792001261448 139 136 119
4.255237816245725 -0.537099313612284 -66.674675333722234 139 136 119
2.879005368610208 -0.696663834710363 -68.896978978261757 141 138 121
2.244193173321420 -0.735821677022157 -69.923190547693224 140 137 118
1.342991165472441 -1.036131536250507 -71.373568399604522 140 135 116
143.609729656879239 -0.510223193590669 155.334873120449146 127 127 115
132.563426807506289 -1.460786269304373 137.681381984754012 134 134 122
127.762447131374330 -1.150071729123074 129.997656221740158 137 137 125
125.148212350268793 -1.127059202704107 125.815974939575938 139 140 126
122.533908372797143 -1.130792598481856 121.634602069929429 141 142 128
116.664134586208803 -1.514597711894436 112.252155087119917 142 143 129
114.316694017856022 -1.477021910504387 108.496984885565979 143 144 130
113.144324586899728 -0.908617085003191 106.613096058128093 142 141 128
110.903615716874640 -0.862100222086025 103.028491512942935 144 142 129
107.594528544305248 -1.353708238596324 97.743356976905744 146 144 131
105.727620443738175 -1.176181979621058 94.754591073809877 145 143 130
103.914088578660454 -0.991451276085833 91.851074888567751 144 142 129
101.673171401112683 -1.037853675091257 88.267526461628961 144 142 129
99.271948520084351 -1.187657805083128 84.429155444953579 142 140 127
97.404869948347184 -1.090807801061194 81.441301535901630 141 139 126
93.935144489676290 -1.834561727099996 75.903034615066048 139 137 124
92.174813071634915 -1.728644327311753 73.085737668165990 141 139 126
91.322616749219662 -1.165965894585799 71.713891377223916 142 140 127
89.936187667601018 -0.894015862604235 69.492023971361647 142 140 127
88.442890460402566 -0.693170271856629 67.100296054355965 144 142 129
85.028829332948902 -0.569267666065594 61.637327168632567 142 140 127
72.597896392810100 -0.961295238210756 41.758158027790330 139 137 124
71.692089653776023 -0.581924169659783 40.302986766262279 139 137 124
66.944229134798661 -0.714400964764176 32.709269856517665 145 142 127
65.343759196005266 -0.801440554891892 30.150058583896509 146 143 128
64.170742499948403 -0.644565197641394 28.270715485415337 146 143 128
61.343769768374401 -0.664061741497981 23.747809337083879 148 145 129
52.491088635545722 -0.501757250179829 9.578656068115151 145 142 125
44.119134043653517 -0.634175332649693 -3.819711438452714 146 143 128
43.052933356505378 -0.611205055462601 -5.527058827362936 146 143 128
41.345334482335701 -1.047529333096847 -8.253142391594196 145 142 125
40.546381213392806 -0.861006758211543 -9.535729130685866 145 142 125
39.587084198049908 -0.796265157512305 -11.072931073128728 145 142 125
38.734699905306258 -0.664776273143619 -12.440248989077730 145 142 125
37.240876512062243 -1.003373236148640 -14.826172427284405 145 142 125
36.121225130177095 -1.085879653977537 -16.617722347357869 143 140 121
34.787748621401249 -1.335637753067211 -18.748692993764649 144 141 122
34.469954866265468 -0.852615359187027 -19.266786852286145 143 140 123
33.831443498368174 -0.609970683345772 -20.294129485106225 144 141 124
32.391057078656544 -0.970892231738210 -22.594528305191403 145 142 126
31.164500385874916 -1.185947414591590 -24.555288469788508 146 143 127
30.151787123936245 -1.251884862364227 -26.176450002782559 149 146 127
29.513321251314878 -1.043574186789976 -27.203460983273970 146 143 124
28.928341365538216 -0.800704530947728 -28.145556324561710 142 139 120
28.129522782852106 -0.728295800036338 -29.427032865975036 142 139 120
27.384185710130993 -0.622400842501181 -30.623580584068492 147 144 125
26.157651168715844 -0.899297531876003 -32.583714780110284 143 140 121
25.465806375888533 -0.768667676275234 -33.695248745359805 140 137 118
24.506626807651614 -0.856150920500427 -35.230939947295610 146 143 124
23.761342859446302 -0.783103110623641 -36.427174967783515 147 144 125
22.855655261461862 -0.845825448375589 -37.877852536461660 140 137 118
22.056926739670104 -0.831426740746031 -39.158775036386686 141 138 119
21.311689176750576 -0.781611416337782 -40.354793103792417 144 141 122
20.245601484382760 -1.000823356649765 -42.059701645791705 142 139 120
19.446910406434341 -1.011261019137475 -43.340386405488715 141 138 119
18.915637878165782 -0.808844518067751 -44.196899872950439 141 138 119
18.330912230367048 -0.656037733934459 -45.138189778433144 142 139 120
17.639245161176689 -0.598347692821842 -46.249057959909095 136 133 114
16.202484939882211 -0.548625375266063 -48.555418504489438 138 135 116
15.403899809976124 -0.602642300829774 -49.835705366119555 141 138 119
14.123915011118797 -1.076615854288656 -51.879099415968682 145 142 123
13.699786247469419 -0.826441811274655 -52.565643915695745 144 141 122
13.008225568491454 -0.811983559285123 -53.676117987361380 141 138 121
12.423675730178331 -0.711099408567948 -54.616957533749968 142 139 122
11.678660949303961 -0.756533274491276 -55.812101731557277 144 141 124
10.880163244803086 -0.856438310942857 -57.091958067824010 146 143 124
9.921175182438930 -1.106478896553568 -58.626067601136242 146 143 124
8.908685199384394 -1.413719168997883 -60.244852098788584 144 143 123
8.217219307259072 -1.443181623598151 -61.354919418262909 141 140 120
7.579278619200508 -1.431160896142783 -62.380161134205423 143 140 121
7.315919668583177 -1.085718095115247 -62.812021355837942 144 141 122
6.838568877530051 -0.937815404854562 -63.582910774594723 144 140 121
6.307740062228177 -0.843535333833805 -64.438523410221222 144 139 120
5.776941764559680 -0.754354146953309 -65.294098160002960 140 137 120
2.271629697872953 -0.632039648380936 -70.935114331834825 136 135 115
132.059996866187134 -0.959537569454232 134.591294990780142 137 137 125
124.070882905173249 -2.097386618529694 121.906998324056190 139 140 126
124.288323041242421 -0.832756526471532 122.233393775131844 140 141 127
121.071615292718434 -1.127964984895585 117.123761369808420 139 140 126
117.801168882819141 -1.480534538746264 111.929568917536756 142 143 129
115.818480667955981 -1.267638360332629 108.774109974069091 144 145 131
112.282253810953918 -0.698574897716412 103.143284720442779 143 144 130
108.045635001244335 -1.625932283207978 96.421762483809744 144 145 131
106.062743041319038 -1.503034404194452 93.267327408988308 143 144 130
104.401787341351920 -1.242523123158020 90.622615916552860 142 143 129
102.096831926275613 -1.317767996251965 86.959141168097631 142 143 129
99.308847533055285 -1.657982744415071 82.531743330850929 142 140 127
97.808766858451833 -1.375819962463965 80.142423562700742 140 138 125
96.201327527639350 -1.163698613210036 77.583467009497753 138 136 123
94.593859412087028 -0.967932155455722 75.024692575929947 140 138 125
92.986363393900490 -0.788513795115194 72.466099770065938 141 139 126
78.676325164739382 -0.753153462381468 49.712286752755830 142 140 127
75.514514988326283 -0.688215220851248 44.683543251123439 140 138 125
73.853067911992383 -0.726095792592255 42.042138328697376 141 139 126
72.352626100650696 -0.687288742025548 39.655496309919386 142 140 126
66.511734380229328 -0.587056006172170 30.365108685833405 146 143 128
65.064896300841582 -0.590757345646908 28.064119270560411 146 143 128
55.580908493027991 -0.612481549820678 12.979427516651867 147 144 127
53.650813355987466 -1.041718574852307 9.916276909591375 148 145 128
52.525992881564932 -0.966191635499545 8.125573148935047 147 144 127
51.938048354877353 -0.549821120501669 7.183110150194523 144 141 124
47.170348860674366 -0.576681906960223 -0.402203020438378 149 146 129
46.099227803755113 -0.531041835243424 -2.107429872899189 149 146 129
43.420053719224143 -0.843048073913048 -6.365454783370325 146 143 126
42.456322926561413 -0.757564241780849 -7.900749132149201 145 142 125
41.599991906410054 -0.606430641195632 -9.266381160167299 145 142 125
40.314095267918631 -0.767195970252948 -11.310171015795589 145 142 125
39.135590472528619 -0.864463672693560 -13.184272604183519 143 140 123
37.742288105618016 -1.127356688184151 -15.397346445752049 143 140 123
36.617478294771516 -1.210557196839314 -17.186421446466454 144 141 122
35.600072796184975 -1.227001850111605 -18.805847683728643 145 142 123
35.334508674902992 -0.703827626242287 -19.238482438093769 145 142 125
34.209723245707991 -0.815872125151972 -21.027272197225045 144 141 124
32.870120051342170 -1.098388001489327 -23.154974665988789 146 143 127
31.423096925765151 -1.474456007888794 -25.452042598635501 148 145 130
30.352010809623565 -1.582527794790221 -27.155703933265613 149 146 127
29.979136615527679 -1.173176911854555 -27.757548045637492 149 146 127
29.445168484368722 -0.890136611367820 -28.613601847185521 136 133 114
28.588963318865055 -0.859332397255169 -29.978055472812400 140 137 118
27.517922946478805 -1.002764599554068 -31.681374708579028 143 140 121
26.715452424084887 -0.948321329794945 -32.960919247037168 142 140 120
25.966712338720569 -0.859843263422596 -34.155659694736499 144 142 121
25.056842613078004 -0.905507977028478 -35.604512130572431 146 144 123
24.308135449706029 -0.832630723442041 -36.799107741036863 146 144 123
23.666884354356796 -0.681556809911959 -37.824197113777274 142 140 119
22.703336493356900 -0.795157247622915 -39.357529702035748 146 144 123
21.900960685830555 -0.788303254571560 -40.636629691429960 145 142 123
20.829985410080909 -1.007396583844539 -42.339201251215599 146 143 124
20.027633600888564 -1.017729278317607 -43.618135810121970 145 142 123
19.493927292591550 -0.815221062800158 -44.473485909623264 145 142 123
18.799068957065003 -0.751162949295117 -45.582892949990907 143 140 121
17.996773981498649 -0.783304085370794 -46.861630212664153 139 136 117
17.087032908349030 -0.913273022252461 -48.309676409690752 137 134 115
16.445961867836587 -0.826031423935043 -49.334194861960782 139 136 117
15.536245924359193 -0.972597657208728 -50.782082236626906 142 139 120
14.519066915709871 -1.219705340179682 -52.399242495458878 144 141 122
13.878049657777737 -1.154483958834138 -53.423560011975695 143 140 121
13.505751703105247 -0.863860292697892 -54.024457676426607 141 138 123
12.811051267428553 -0.856354941869430 -55.133358129545286 143 140 124
11.636690502559119 -0.673083023716991 -57.012329943175416 145 142 123
10.673329243432988 -0.921915055344826 -58.544359794400037 143 140 121
9.387481829622871 -1.466419226234513 -60.584223182274314 140 139 119
9.284111404164676 -0.968395577527279 -60.761615302501980 142 141 121
8.965795955401944 -0.664078832759023 -61.277620077560300 144 142 122
8.432512746813458 -0.556748572475869 -62.132192872005305 143 140 121
7.415459073333395 -0.893643097927127 -63.748488869677942 145 141 122
6.720948110790800 -0.946186451877275 -64.856861854610344 145 141 122
6.187736433996520 -0.857455893435604 -65.711277413545844 141 138 121
133.533065863942085 -0.812650400509844 134.661084042535776 137 137 124
125.776744868505190 -1.826877471767576 122.418441940509609 140 140 128
124.755330880350030 -1.113976518538320 120.793425830197606 141 141 129
121.038678743074243 -1.631543821514799 114.927523993793358 140 140 128
119.801561466018114 -1.051820927178416 112.963634926503715 140 140 128
115.925680856991534 -0.585787884125854 106.831206097954009 145 146 132
112.909539372480111 -0.891926829587587 102.069171532086727 144 145 131
109.354255987801025 -1.486085175885915 96.459436482412229 144 145 131
107.470042778032351 -1.309371748347551 93.478957651123835 143 144 130
105.100612477286191 -1.388409422238062 89.735507623255046 141 142 128
102.623314128023694 -1.544537475839582 85.822737060220135 143 144 130
100.631154604823351 -1.484172505265201 82.673379238543333 143 141 128
98.315492820042095 -1.606603260199658 79.015512088642510 141 139 126
97.347567632177729 -1.067996200690219 77.477560099141954 140 138 125
96.433542450815892 -0.511603904388400 76.024498343827929 140 138 125
79.903630945574960 -0.555019286373097 49.899120573891850 141 139 126
77.857153056606577 -0.770504681418202 46.667729053678954 139 137 124
76.349838366738297 -0.700382507524217 44.284052654134058 138 136 123
75.058187964799899 -0.521887617359709 42.239523203350387 141 139 126
71.666034605791609 -0.675434319742411 36.879788526324319 142 139 124
70.320423032372062 -0.571746155460636 34.750985053302543 141 138 123
56.108821857441171 -0.760486944388504 12.284963526848088 147 144 127
54.277734596514904 -1.121296744893313 9.395461305269151 148 145 128
53.471331974863119 -0.836543795409206 8.115427176386760 145 142 125
52.718873616092978 -0.524651295655881 6.920165820943083 146 143 126
50.297111284915303 -0.531235899688275 3.090146576287765 141 138 121
49.005325666994636 -0.606726426387939 1.048296211853625 145 142 125
47.228109068663372 -1.021765910608508 -1.755560451760061 148 145 128
46.313869635292363 -0.869566509053994 -3.204359149132529 146 143 126
45.399640153584699 -0.726487001079275 -4.653068731700557 146 143 126
44.215724607356861 -0.778039427794674 -6.525052405732538 144 141 124
43.139690267997508 -0.766655763107261 -8.227576142308834 143 140 123
41.149462769412651 -0.662316348086259 -11.378310888986761 146 143 126
39.641899594511472 -0.987760118621726 -13.757796655162366 142 139 122
38.188268985850826 -1.289785250712353 -16.052465751051585 141 138 121
37.759591589981113 -0.870517421511934 -16.738574768002479 143 140 122
36.575693817543225 -1.001403372207587 -18.609750325138606 145 142 123
36.093115824938280 -0.633603083312638 -19.380402585040173 144 141 124
35.125028734159741 -0.626375643158920 -20.912807363377340 145 142 125
33.941151700019773 -0.787983170595892 -22.783676609021512 147 144 128
32.217764391730924 -1.362139178035625 -25.500788269252809 150 147 132
31.141780510283255 -1.469281751473580 -27.202116094609607 147 144 125
30.443475276424365 -1.302759818278516 -28.310928862199489 149 146 127
30.014964889167928 -0.938662878577989 -28.996549873817401 138 135 116
28.831105718271459 -1.154993273342884 -30.866864375212174 141 138 119
27.809117332140517 -1.258771347416639 -32.483199208009097 142 139 120
26.841093995187421 -1.330961679246199 -34.014816998934776 144 141 122
26.088918823295373 -1.244822484416144 -35.207890037833948 144 141 122
25.066957495012815 -1.377309883372204 -36.823942295509426 145 142 123
24.260852128670123 -1.349832213941611 -38.101470366611181 144 141 122
23.562691286480188 -1.244706886875211 -39.209720224570702 140 137 118
22.918518110377988 -1.103360880015803 -40.233311549664705 140 137 118
22.382303715288188 -0.881642772672722 -41.087659526108069 136 133 114
21.576279835422980 -0.883141910302861 -42.364928307229576 146 143 124
20.608363847456118 -1.024178652636636 -43.895888782853461 145 142 123
19.802369034296063 -1.042312917120225 -45.173000235669605 147 144 125
18.834472703410086 -1.201608579496538 -46.703782166937145 144 141 122
18.406325968118466 -0.923524699865891 -47.388691772772006 139 136 117
17.330507560123962 -1.189087709837310 -49.088468058924775 139 136 117
16.524576496975854 -1.239087312193456 -50.365282003597571 139 136 117
15.664682215454434 -1.342484221989235 -51.726589369181568 142 139 120
14.858781037786343 -1.408531081548445 -53.003252428485780 143 140 121
14.160860232676697 -1.390353241498662 -54.110722125199175 142 139 120
13.570929942288799 -1.286310330650615 -55.049020196462664 143 140 125
13.142986624989092 -1.048161073472739 -55.733616049637249 145 142 125
12.823058727693834 -0.720314967927963 -56.249091634375191 146 143 126
12.125251212628072 -0.725438002385767 -57.356375681050650 145 142 125
11.643431558772235 -0.547654244085464 -58.125434792004882 144 141 122
10.783695577918223 -0.708297348665686 -59.486228624244603 142 141 123
10.301936751503945 -0.541579210007471 -60.255202930856541 143 142 124
9.014535812882698 -0.512926972372973 -62.300222904628214 143 142 124
7.938863745611158 -0.898216904447207 -63.998836790326379 140 139 121
7.349213528306294 -0.852527598167180 -64.936668184626626 140 139 121
6.489565508745272 -1.059174721770022 -66.297030554769179 140 137 120
6.278015118652448 -0.678860956749072 -66.643175873601308 140 137 120
5.688456144097543 -0.649550579689421 -67.580882321573796 140 137 120
5.152937929003713 -0.575711651374557 -68.434041153463113 141 138 121
4.401396621340254 -0.708705447260153 -69.625161784880135 142 139 122
3.649870405001806 -0.848979171242090 -70.816214699978360 143 140 123
3.276489599788533 -0.639602432165099 -71.415758017007079 138 135 118
2.687071732077953 -0.638700358717935 -72.353239549070054 136 133 116
131.219143613241101 -2.297737919090060 128.799233517692130 136 136 123
129.112849316545464 -0.840895572334936 125.468384967430381 141 141 129
124.187991031766174 -1.853560917488843 117.746685635221269 142 142 130
122.349557611735676 -1.525137887873553 114.853603171216037 140 140 128
121.918992695934094 -0.573969969297478 114.162922022507047 141 141 129
116.021726765963578 -1.029552285753159 104.905224910585673 144 145 131
112.937614590670819 -1.365562457966557 100.065155884826481 145 146 132
111.098953016500786 -1.140342037787912 97.173244885282998 145 146 132
109.043639746938510 -1.037765276663778 93.942806207306916 144 145 131
107.313210363522842 -0.798158753060999 91.220686985146870 142 143 129
104.770425780479215 -0.974446155374265 87.228593437267762 143 144 130
102.335901480749897 -1.122642385789006 83.406137154233051 144 142 129
99.684705584297006 -1.403734372798388 79.245268243484730 143 141 128
97.629182296136136 -1.410355824180525 76.016054069744087 141 139 126
71.019734299763797 -0.646835106745092 34.195492098476763 138 135 120
55.607931221554850 -0.750192063766154 9.974727566597863 148 145 128
54.635307339568726 -0.567191955571994 8.442683857250842 146 143 126
53.391801454806625 -0.569929594404138 6.487846636860439 146 143 126
52.202473605988047 -0.549576176564469 4.617712026855656 145 142 125
50.958967276398596 -0.576814404142302 2.663127216137127 143 140 121
49.878002350095599 -0.508371613765286 0.962374917209303 145 142 123
48.201045962280404 -0.849865221234263 -1.668485162266705 146 143 124
47.282628879288211 -0.696211652348956 -3.115300254855072 145 142 123
46.310039644350127 -0.588507244777402 -4.646585482759292 145 142 124
45.012353813696620 -0.713058340407055 -6.685108200564343 144 141 123
43.660480740097768 -0.887871906878428 -8.808049435141101 144 141 124
42.958839983632430 -0.624423820077455 -9.916264209739865 145 142 125
41.606971065797453 -0.822844485107760 -12.038964432695195 146 143 126
40.146721283649995 -1.111046528315362 -14.330609226674937 142 139 122
39.011599761863238 -1.183032926469493 -16.114866572694012 141 138 121
38.635149562489033 -0.724152987169909 -16.715509763856687 143 140 122
37.608434439559815 -0.736855108793359 -18.330520832502401 144 141 122
36.744306020901647 -0.641921709342934 -19.691844114899226 145 142 125
35.663417565980950 -0.713650499987356 -21.391190140974629 145 142 125
34.745120391448495 -0.676651921626950 -22.836861808939176 147 144 128
33.393267252817367 -0.969313552505462 -24.958599511007463 149 146 130
31.933013771864154 -1.356052441350160 -27.249228246238459 152 149 130
31.014734712299543 -1.351087964328840 -28.694578837243881 148 145 126
29.933869308554463 -1.477831659188083 -30.393369594876503 143 140 121
29.069813406889793 -1.450606787992075 -31.754030611259310 140 137 118
28.043166029388544 -1.556165273900163 -33.368118271880945 142 139 120
27.450154902848041 -1.338233745258597 -34.306114794444909 147 144 125
27.073991823389790 -0.958188265674611 -34.906083860094327 146 143 124
26.372630844032614 -0.835200325123765 -36.012986652256188 145 142 123
24.749764432862150 -1.441807168659095 -38.556135362513288 146 143 124
23.831591527808271 -1.508267618326956 -40.000801524821611 145 142 123
22.967641312729000 -1.540681991409774 -41.360899204603044 146 143 124
22.808459950118547 -1.018283076369664 -41.622701355582876 130 127 108
22.052985173311470 -0.976888841930908 -42.813735292445557 145 142 123
21.080672208389061 -1.118353039215463 -44.342587869356976 144 141 122
20.108368068414123 -1.269356296000630 -45.871346477761534 147 144 125
19.244508094407138 -1.341062657407616 -47.231082876388200 143 140 121
18.977076118478692 -0.929639139684823 -47.661673749335876 139 136 117
17.896378138730896 -1.195080116084878 -49.359116921240485 141 138 119
16.761458661979631 -1.516369777504932 -51.140904721183944 139 136 117
16.114555130498431 -1.439267012437695 -52.162528565662683 143 140 121
15.413452415453932 -1.414193030413481 -53.268547033023594 144 141 122
14.766600808995364 -1.349859440753798 -54.290064278718063 143 140 121
13.685940407866312 -1.662358759607289 -55.987041032946081 144 141 125
13.364515590225537 -1.333106465217992 -56.501814970729953 145 142 125
12.988905983788783 -1.053680255819936 -57.101013091280919 145 142 125
12.450636852422662 -0.919179955166230 -57.953480312234063 143 140 123
12.075112278277402 -0.647558973845737 -58.552638768808180 144 141 124
11.265724344097450 -0.760945095194377 -59.827146488945914 145 142 127
10.619073476078540 -0.738295477229068 -60.848330693160932 144 141 126
9.863964205460107 -0.818333183301422 -62.038289526965571 144 141 126
9.271607253972675 -0.760137173380908 -62.974954766694168 142 139 124
8.408047748429155 -0.951529202245369 -64.333602923703779 140 137 122
8.086984893608829 -0.660705011518863 -64.848154463484633 140 137 122
7.169214576425944 -0.915475061799172 -66.291074857132742 139 136 119
6.739725468773727 -0.732689305660168 -66.974361325172794 140 137 120
6.256024450990267 -0.603777850323419 -67.742017330907089 142 139 122
5.125960770695997 -0.510858650689830 -69.530391787118816 143 140 123
3.295440929141506 -0.539755463971027 -72.423582007296545 134 131 114
136.162811329969458 -0.659086940326826 134.288313199125781 135 136 123
131.922847494928732 -1.285378448429383 127.676151073747320 140 141 127
127.845966141566009 -1.882586257850891 121.318248129774531 141 141 129
127.087072812799462 -1.049211687957835 120.120697365001831 142 142 130
123.553994281989048 -1.467617318580864 114.609389363276080 141 141 129
121.815904417625447 -1.107525151332462 111.889694669686747 141 141 129
119.316223215812713 -1.114016395549587 107.986091699739717 144 144 132
114.640598152145841 -2.153785843410202 100.699733469597845 144 145 131
113.663924831178178 -1.507941873133642 99.164862713594118 145 146 132
111.980053727994161 -1.206703759711057 96.530694649765110 147 148 134
109.371365878665728 -1.364691060071900 92.459081741516115 146 147 133
108.013818510166587 -0.944191050600008 90.332727208472789 144 145 131
104.428241288228932 -0.573468491504072 84.727552622830530 144 142 129
102.145792202301323 -0.658990184903648 81.164275593050291 143 141 128
100.244117279012869 -0.575774121397811 78.193112800992935 141 139 126
96.655924480578577 -1.368467749003884 72.601165125441099 140 138 125
95.624622937791955 -0.885169167532950 70.983242599927991 143 141 128
58.029384153699553 -0.506169819053729 12.250426372889450 147 144 125
52.488499188669380 -0.843350751334701 3.597031258428530 145 142 126
51.511454340899974 -0.693897451127827 2.067447838105522 145 142 123
50.425567835677597 -0.626151544202121 0.369057179034399 147 144 125
49.339687798895383 -0.569156083383465 -1.329225914774014 146 143 124
45.646652988726956 -0.759394345270903 -7.098936676848439 143 140 121
44.234210432115674 -0.971713055879848 -9.303374503997816 145 142 125
43.311646233545616 -0.859262134849681 -10.747781511156006 146 143 126
42.062500637446732 -0.983356021533192 -12.698671532150911 147 144 127
40.813356278043187 -1.119786763401672 -14.649435155328689 142 139 122
39.836385739532886 -1.076306355096625 -16.177963292734034 140 137 120
39.077169278131905 -0.887572559748879 -17.368723860629842 143 140 121
38.045789819110794 -0.901241392000403 -18.981493576039099 143 140 121
37.068857881899348 -0.885804379875444 -20.509751515408766 144 141 124
36.364132524774888 -0.682321659962121 -21.615873373980008 146 143 126
35.441670383816898 -0.644942135780948 -23.059556457549576 148 145 129
34.247016578372424 -0.816981152990907 -24.925162756176746 148 145 130
32.889038210009033 -1.121809594929988 -27.043844930238322 149 146 127
31.585498617991703 -1.399405894413555 -29.077991857505339 148 145 126
30.717514933896865 -1.362761134258301 -30.436870799886037 146 143 124
29.958440096510628 -1.252303228469755 -31.626893387171492 137 134 115
29.090492275812437 -1.232108340783802 -32.985620159677211 142 139 120
28.168112509637950 -1.262100335920361 -34.428649162167972 147 144 125
27.899146736757018 -0.797490606580676 -34.859053744305584 146 143 125
27.249067837473717 -0.631075474436809 -35.880077840773083 145 142 124
25.618868040154865 -1.236174935037944 -38.419733800483357 143 140 121
24.533187120869769 -1.429514038222230 -40.115535331995318 142 139 120
23.992066500798259 -1.202946398784170 -40.967586105894640 143 140 121
23.614350347775158 -0.851604323732361 -41.566516727911932 130 127 108
22.528717252597929 -1.070604948831812 -43.262076991376830 143 140 121
