ply
format ascii 1.0
element vertex 687
property double x
property double y
property double z
property uchar red
property uchar green
property uchar blue
end_header
-112.020048082784683 -172.363864689113825 -17.705553157539924 62 35 24
-112.013992393200482 -171.935399226791503 -17.269425049244205 80 47 38
-112.008114874309413 -171.505039105131033 -16.833231207379981 101 68 59
-111.995380338588760 -170.975034510956590 -16.733920084237155 109 75 66
-111.982863674362846 -170.444791344425909 -16.634507187863250 90 56 48
-111.972891535929989 -169.946329807459108 -16.422690969872548 68 38 30
-111.972407560704909 -169.574058908987382 -15.761601163809246 66 40 32
-111.955852434099697 -168.978456004543887 -15.886510804452058 51 35 26
-111.939531022691270 -168.383699323745844 -16.011299925940790 77 63 54
-111.932647747904682 -167.913453601754441 -15.686856681690983 58 36 30
-111.930528181697426 -167.503108601128929 -15.137800137527961 38 7 4
-111.907954116273402 -166.816991014104275 -15.599097585730448 63 26 23
-111.894768442987569 -166.253705535447068 -15.611203747035802 108 69 67
-111.872682928040604 -165.571436087213215 -16.072227863538927 111 69 67
-111.866735822391874 -165.098379489637210 -15.747365692936967 126 86 84
-111.851894968270955 -164.506879776208621 -15.871412995292957 47 10 5
-111.846290231049878 -164.032109073861790 -15.546404680950246 98 61 55
-111.829583847058672 -163.412386530794208 -15.782493843085575 77 42 36
-111.806353085380465 -162.708707403922801 -16.355145107197330 73 36 30
-111.792324557988266 -162.120636360117544 -16.478768502211864 95 52 49
-111.780723457576045 -161.561219470037400 -16.490076787960362 87 42 39
-111.780443175407157 -161.140043305098516 -15.940251827233283 75 27 27
-111.775838035749103 -160.661667792315257 -15.614802414967471 112 66 66
-111.760287133977542 -160.046579202157574 -15.850291098764416 102 58 55
-111.747140939162392 -159.459573884683181 -15.973481418841970 95 55 48
-111.743000436830982 -158.979332563400106 -15.647828931375926 90 55 43
-111.745598673825086 -158.576321899165748 -14.985581025403263 98 62 50
-111.735120186908063 -158.014479108963968 -14.996377227712259 104 71 59
-111.724802523598868 -157.452822180810671 -15.007094579387058 101 72 61
-111.719015742720430 -156.942155546347010 -14.793401733888345 77 54 41
-111.732998076254134 -156.656735971400110 -13.570202866395476 60 40 28
-111.760087343451602 -156.514581666301694 -11.674105675848949 36 19 7
-111.782822839311166 -156.314104353299086 -10.002409432447280 51 35 20
-111.794732094087578 -155.984030665160589 -8.891520850865760 56 38 24
-111.791559578551485 -155.480409834257557 -8.565645938872251 63 42 27
-111.794980910350233 -155.046578538991838 -7.903321519404500 77 54 38
-111.783417817607557 -154.445227476798294 -8.025902156834064 103 77 62
-111.778453621353975 -153.914207487484589 -7.812025296976572 108 80 69
-111.767177330742044 -153.313433603622514 -7.934462788063371 109 81 70
-111.762469090356461 -152.781339235730286 -7.720474538914374 111 85 72
-111.755742791178051 -152.225903546474768 -7.618550871041435 107 85 71
-111.749141159451938 -151.670058934128974 -7.516571771937492 101 86 73
-111.746918487554382 -151.157483153226082 -7.190334635801946 85 74 63
-111.736303345625387 -150.557129508279075 -7.312451509894828 33 27 21
-111.730062950021434 -150.000038137332666 -7.210312430180835 31 30 28
-111.711240678545380 -149.316406102353994 -7.780648332903297 34 34 34
-111.703141236581772 -148.739362121646195 -7.790462881751552 42 42 40
-111.686726267159784 -148.080544964238584 -8.248532822501630 47 46 46
-111.674668366012057 -147.464428885693792 -8.482361043227229 49 47 50
-111.658537385332437 -146.809665538706412 -8.940253396829291 51 50 53
-111.642548050152541 -146.157197007890204 -9.398054366014094 49 49 51
-111.639262563487335 -145.623297924626542 -9.183404053204015 52 52 54
-111.621436757218262 -144.954662896606919 -9.753108878660555 51 52 54
-111.616274905007387 -144.401859258097488 -9.650409691700332 55 56 57
-111.592456463733569 -143.681563117625387 -10.556089801746310 59 59 59
-111.589597966159957 -143.148602623551852 -10.341225557448297 57 57 57
-111.570209461316907 -142.470526615794057 -11.022634038213852 60 60 60
-111.567548732432769 -141.937745593989263 -10.807673334654481 58 58 58
-111.556688731403767 -141.334084816005145 -11.040800275403683 59 59 59
-111.541800858930230 -140.697207638965040 -11.497913818968470 60 62 61
-111.524966126860008 -140.045671154360406 -12.066968514028446 59 62 61
-111.506191516957458 -139.380290904799750 -12.747952625741732 57 61 60
-111.508123222485835 -138.882032340149124 -12.308721790465967 51 55 54
-111.489566122799161 -138.220619909242743 -12.989561003286894 49 55 53
-111.475233890807161 -137.594214823651640 -13.446300935851866 48 52 51
-111.469205063206516 -137.032296976224671 -13.454969208997795 49 51 48
-111.461211180791480 -136.455159385836879 -13.575593107011770 47 49 44
-111.459433191341006 -135.923673985012812 -13.360196767455534 46 48 43
-111.447518606541934 -135.317453699004830 -13.704713448687841 42 44 39
-111.443848957701690 -134.770805451808798 -13.601237036214911 41 44 37
-111.432108110170418 -134.166885225041000 -13.945646926468640 42 44 39
-111.424521981854213 -133.592505019328229 -14.066047373173774 45 47 42
-111.419042988490446 -133.032376576071243 -14.074434188269379 44 46 41
-111.415661701778475 -132.485680831013497 -13.970820313262095 43 45 40
-111.410319742153533 -131.925385309094850 -13.979143291711353 41 43 38
-111.405045545975213 -131.365139936654089 -13.987433336146267 36 38 33
-111.401857252089059 -130.817505188805484 -13.883736799660056 31 33 28
-111.406797014516187 -130.318531909769291 -13.332215392268381 28 30 25
-111.403717785904561 -129.768811105105328 -13.228488152159457 28 30 25
-111.404720529569900 -129.242080207667158 -12.900853693999835 29 31 26
-111.395721877210278 -128.656393439052692 -13.132905156417991 37 39 34
-111.390807644798144 -128.094238235033998 -13.141042654276845 40 42 40
-111.379937609950417 -127.499337110390044 -13.484943112578719 48 50 48
-111.381155116419535 -126.970045542555198 -13.157232270896685 53 55 53
-111.370413499367743 -126.376852826444846 -13.501053709057885 53 55 53
-111.369731366142901 -125.835888809026770 -13.285230683801757 53 55 53
-111.359115568190759 -125.244671216740073 -13.628971599595246 49 51 49
-111.362521638970918 -124.722093776616674 -13.189285759438690 49 51 50
-111.352022552194512 -124.132301878986269 -13.532956165614422 44 46 45
-111.345566261497652 -123.562220427679037 -13.652771852636590 40 42 41
-111.337177391428966 -122.983961267100980 -13.884455141196014 41 43 42
-111.338771147505909 -122.449215847705943 -13.556620442225210 44 46 45
-111.340400579883266 -121.912865470143302 -13.228785196475229 48 50 47
-111.344045790130494 -121.382844501299033 -12.789061572797777 44 46 43
-111.341784866917862 -120.827682810703223 -12.684998863963045 41 43 40
-111.339565666619222 -120.272001472150137 -12.580921544026666 38 40 37
-111.335412670105597 -119.708680274693933 -12.588706871397221 36 38 35
-111.329331069261940 -119.138534272533150 -12.708343972532333 35 37 34
-111.327238318288892 -118.582104333643741 -12.604213865391387 33 35 30
-111.323215391085640 -118.018847742188612 -12.611936303027619 32 34 29
-111.319234291184685 -117.455610876199856 -12.619638527581714 29 31 26
-111.309399234806406 -116.875114688391932 -12.962895578480129 29 31 26
-111.307468436311865 -116.318217974901202 -12.858692798574054 29 31 26
-111.301651043694534 -115.750363525486463 -12.978179915295698 28 30 25
-111.299795255257507 -115.192956454997940 -12.873946504196198 27 29 24
-111.288186219515111 -114.611662816230620 -13.328919314225516 32 34 31
-111.284452671638007 -114.050158269486630 -13.336485279107706 36 38 35
-111.270986305368808 -113.468028572063048 -13.903214120586824 39 41 39
-111.265383256308752 -112.904054908384722 -14.022558749208258 41 43 42
-111.261770256670246 -112.344221608068878 -14.030049841247262 47 49 49
-111.256244073351823 -111.781087986759843 -14.149349050583311 51 53 52
-111.242968345427386 -111.206348222178505 -14.715910623040628 54 56 55
-111.231689609966764 -110.637106090663650 -15.170601366328981 41 43 42
-111.230176662682581 -110.082531265319460 -15.066174787475063 34 36 35
-111.234519946025358 -109.534095712818157 -14.626306758581762 34 36 35
-111.231122129799033 -108.975682611073026 -14.633680288796626 32 34 33
-111.221941397882659 -108.412234634915336 -14.976448827308445 44 46 45
-111.216677262546966 -107.853243145424187 -15.095580036744138 40 42 41
-111.211448784202901 -107.294801978669682 -15.214688523248839 36 38 37
-111.210123352837513 -106.738641207044338 -15.110188562363930 40 42 41
-111.203029878540761 -106.180161666135604 -15.341048536464626 41 43 42
-111.195974375469305 -105.622774336089080 -15.571879102586223 37 39 36
-111.192814906838507 -105.066578218036398 -15.579115787601467 34 36 33
-111.191614412378684 -104.510163704477307 -15.474558669222347 29 31 28
-111.192368221091144 -103.952714694085103 -15.258218382579543 26 28 23
-111.193147151197536 -103.394180824466204 -15.041877244948921 23 25 20
-111.190104926192532 -102.836636669384461 -15.049071717037833 26 28 23
-111.190937095216782 -102.276475069492747 -14.832721865136847 26 28 23
-111.187954019910038 -101.718389411196469 -14.839893614177498 31 33 28
-111.192677124693262 -101.152891644645649 -14.400019509949544 29 31 26
-111.183998374513507 -100.600093309443480 -14.742438280014966 27 29 24
-111.173443285989364 -100.051321872119757 -15.196572117950495 30 32 29
-111.164845096871844 -99.502055076198772 -15.538915995971934 39 41 38
-111.165852330488150 -98.939715048311015 -15.322504817423862 40 42 39
-111.159238137227973 -98.389134184358795 -15.553054200069681 42 44 41
-111.154571298475389 -97.836153356914053 -15.671837794103396 32 34 31
-111.146120466209808 -97.291224388919673 -16.014066525670017 38 42 38
-111.137709345737733 -96.747922127881665 -16.356259514738866 35 40 36
-111.135057610262692 -96.193346962478216 -16.363236616672879 27 32 26
-111.136248564291108 -95.629623162508537 -16.146751790770566 24 29 23
-111.137466917436058 -95.064805751377051 -15.930265114313926 19 24 18
-111.131102162920499 -94.519355075166956 -16.160642358719684 36 41 34
-111.124775512162799 -93.974984396750486 -16.390990257458498 34 36 31
-111.122287757424274 -93.420375140083550 -16.397889262488718 31 33 30
-111.125531024107389 -92.847964597186802 -16.069653149335466 33 38 34
-111.121209868568812 -92.298724294853344 -16.188232866600487 1 3 1
-111.113132322439768 -91.762966869544698 -16.530188612062659 6 12 10
-111.103201256572959 -91.235576468684414 -16.983803833948627 5 12 10
-111.110364648759202 -90.647184260383284 -16.432139083661326 10 18 15
-111.108086310191197 -90.092512311587015 -16.438938550035004 11 19 14
-111.103952356713606 -89.545389606416762 -16.557406912984305 26 34 29
-111.092293193345938 -89.030133419003647 -17.122582832157036 11 18 13
-111.086352555070832 -88.493263899678368 -17.352668850648485 6 14 6
-111.082343322572726 -87.949088924702622 -17.471047205041003 6 17 14
-111.076486933634044 -87.414091685799960 -17.701073646615782 10 19 16
-111.068786992804149 -86.889087207759474 -18.042738061509084 11 20 17
-111.059247009788237 -86.374890548907771 -18.496030380885259 13 19 19
-111.059180660345731 -85.815522437707358 -18.390961094281664 12 18 18
-111.057269653713419 -85.265328746986043 -18.397538733356356 10 16 15
-111.059167094649766 -84.695095448788848 -18.180782932074294 13 19 17
-111.055456971737925 -84.154598004102567 -18.298980338799339 13 17 16
-111.061199273147224 -83.561854065989607 -17.858899112930175 17 17 17
-111.059457070999088 -83.010213615137644 -17.865410888747022 19 15 16
-111.050241518126072 -82.502939790983632 -18.318476741639614 17 12 14
-111.052352074130283 -81.929598606924728 -18.101650977870008 14 4 7
-111.052628482595551 -81.366784787788475 -17.996453185460979 15 4 4
-111.051074104651647 -80.815313354952409 -18.002873367035022 33 19 19
-111.027049779824026 -80.410044590906864 -19.348844775707619 18 4 5
-111.019975474496277 -79.899154231412822 -19.690064605008700 35 16 17
-111.020456713560009 -79.338945398261629 -19.584742007914087 84 57 61
-111.032235281752932 -78.700147066300246 -18.809670458956418 130 100 106
-111.032814395607943 -78.137152110706253 -18.704329717855046 73 44 49
-111.037192726580955 -77.546485369156642 -18.375738514060060 22 0 4
-111.039749937449784 -76.967968599970362 -18.158752347031935 86 72 76
-111.042361173632045 -76.388325971316689 -17.941751923516165 20 12 15
-111.039413030324042 -75.850645359582558 -18.059555806733954 18 17 18
-111.038395645953486 -75.298833912553164 -18.065722592360032 16 20 22
-111.037438110115005 -74.746981096009719 -18.071861172490742 12 17 20
-111.034671484672316 -74.210265303572115 -18.189568286814193 12 16 19
-111.041316710025455 -73.596788891766664 -17.749268514992082 12 17 20
-111.040544982715474 -73.043985983608721 -17.755327984729945 13 21 21
-111.039838218461639 -72.491135485678370 -17.761356866229818 15 21 21
-111.035460335847773 -71.970774138595289 -17.990525340859790 16 22 22
-111.044230133049012 -71.335660392635361 -17.438573020177586 17 23 23
-111.049330035171906 -70.731397906590956 -17.109776567045856 17 23 23
-111.052631192105423 -70.142532734886743 -16.892541020076123 20 26 26
-111.056003655616436 -69.552521323842001 -16.675283159101525 18 27 26
-111.061316726305606 -68.943730242649067 -16.346431341963182 16 26 25
-111.064836722672879 -68.351147694098131 -16.129129367785822 15 25 24
-111.059095835536127 -67.848295094766883 -16.469628557691692 18 28 27
-111.055300866244082 -67.328564620861243 -16.698511674692014 14 24 23
-111.051585605019454 -66.809858353406383 -16.927346116954482 20 30 30
-111.061023840022358 -66.159213886220982 -16.375233883434760 22 32 35
-111.078016073919784 -65.428703937861926 -15.376894398573626 29 38 43
-111.089492133691408 -64.751831505280862 -14.713218369372754 33 44 48
-111.084245925823168 -64.249923449946209 -15.053471183746353 36 47 53
-111.114580989579494 -63.367952911982890 -13.274295400308830 37 48 54
-111.122594186067303 -62.721469558665341 -12.833680952815172 39 50 53
-111.128833789035582 -62.093351079023059 -12.504584832431902 44 54 56
-111.148253247735923 -61.317181421118754 -11.394695284952178 39 50 52
-111.197687908519541 -60.196632935995780 -8.500249273221442 40 51 55
-111.245374701584652 -59.083246498956946 -5.717424597777580 43 54 58
-111.268873510461759 -58.238511104959755 -4.384571514881287 40 50 54
-111.279394198796084 -57.541094753615489 -3.832422885897984 32 40 42
-111.293771530094659 -56.796305710047164 -3.057199113218132 25 33 35
-111.312012146955439 -56.002501122941503 -2.058913929739532 9 15 17
-111.328504873999620 -55.226484515640273 -1.172140715066348 1 6 8
-111.339503825547212 -54.515249275249147 -0.619905531368119 0 4 6
-111.335633299450961 -53.988062827155581 -0.959760427492910 0 8 6
-111.339378551434862 -53.367853902063864 -0.853493948893174 1 8 4
-111.331990727809867 -52.890430238930307 -1.416237044596102 3 10 3
-111.322840358107683 -52.439798008192227 -2.090406443548773 0 7 0
-111.321316474829132 -51.894493838316940 -2.318466323684589 2 7 1
-111.334950266817003 -51.152311807372129 -1.654430307292216 3 8 4
-111.337445857735858 -50.556731020193737 -1.659367037387341 0 4 1
-111.341956050008918 -49.935732530943817 -1.552742741355786 0 4 0
-111.327775559714155 -49.569554987242810 -2.561025852999506 10 15 12
-111.326898237763842 -49.027383681795079 -2.788744172264757 26 32 28
-111.311070258603976 -48.694950252852564 -3.908326976730109 36 42 38
-111.314225521333299 -48.104110993062022 -3.912899315168914 38 49 44
-111.315635968505234 -47.539760857141424 -4.028892586451121 38 49 45
-111.290726920277024 -47.352697748867399 -5.705617798095460 35 45 44
-111.294294305429119 -46.765760007953254 -5.709952818286098 36 46 46
-111.290437538978495 -46.288533367251979 -6.160145755368916 37 46 48
-111.294300638337191 -45.702350389671764 -6.164331537738605 35 43 45
-111.285037856093723 -45.312123156633760 -6.948791820400004 28 33 36
-111.270207678963246 -45.010439200208566 -8.067580760026885 25 31 32
-111.284015611996594 -44.285537917065000 -7.514142440657508 16 22 22
-111.317039982626625 -43.269268088167777 -5.845921397018031 14 20 18
-111.357916851414942 -42.128085569894040 -3.731793994556341 14 20 18
-111.399048390347986 -40.976253633632929 -1.617654378579488 8 14 10
-111.421340374712656 -40.110441934768104 -0.618172240148567 5 11 7
-111.441940788611063 -39.269406136218649 0.269896802637334 4 10 6
-111.441696352417040 -38.756148278639159 -0.068080010528121 1 8 1
-111.455044757607311 -38.030859614785975 0.374275599871510 0 6 0
-111.460920507145403 -37.426212576357500 0.370862602594997 1 8 1
-111.470833221967695 -36.759238432594820 0.590457081308244 0 7 2
-111.471321262093426 -36.247520994809172 0.252846538618201 0 5 1
-111.481633281256237 -35.579227955085514 0.472618467100546 1 7 3
-111.484429557200698 -35.037065761041042 0.246657678264370 3 9 5
-111.485481524736571 -34.527895514564520 -0.090656863965904 2 8 5
-111.488658751596290 -33.987691654022520 -0.316415249079455 3 9 5
-111.507564814737606 -33.186715699915965 0.349537808374237 4 10 6
-111.516999039832825 -32.547030534116800 0.458325393480692 4 9 5
-111.522759440670512 -31.973014743667807 0.344313631684059 4 9 5
-111.534588711558698 -31.298670157626205 0.564749116584835 7 12 8
-111.544699943207675 -30.656727778894300 0.673837344679328 7 14 9
-111.566803415968735 -29.809422840009560 1.451702029341760 5 12 7
-111.569556081030086 -29.301538361010966 1.115214330028749 0 6 1
-111.566616199610422 -28.898912959969767 0.444510165797283 1 7 3
-111.579638391755879 -28.219964578149746 0.665468950955812 3 9 5
-111.602798170124387 -27.363607897953134 1.443745794479611 3 9 5
-111.622302742567115 -26.573965984077834 1.999242958780968 5 11 7
-111.626222472936320 -26.067187759050743 1.663324966738713 5 11 7
-111.634346814704784 -25.489667784827631 1.550408035856577 3 9 5
-111.650694903012237 -24.767121093615515 1.883368023958781 10 16 12
-111.659336718622512 -24.188866481698703 1.770691088793996 11 17 13
-111.672241078001605 -23.537066048651308 1.881014065715220 2 8 6
-111.681406265009471 -22.958601985736497 1.768585353648689 7 13 11
-111.686805535641525 -22.455138773370017 1.433409291687411 8 14 12
-111.704565876875279 -21.726756217951348 1.766984825266803 6 12 10
-111.712514886336407 -21.186174721049746 1.543505357392661 6 12 10
-111.730878340943804 -20.455005441954601 1.877340733196007 14 20 20
-111.725131530503063 -20.184168858238667 0.874073657482512 14 20 20
-111.727740752715192 -19.762664980835755 0.316688724687253 14 20 20
-111.742873938024033 -19.108937260907162 0.428058125761424 9 15 15
-111.768589138307732 -18.257312365794736 1.096747296090655 11 17 17
-111.769961078033731 -17.877744297656310 0.428343233026141 16 22 21
-111.759166648190771 -17.740696722346058 -0.908538103795678 9 15 11
-111.802429882603477 -16.564224664853008 0.652073250243461 12 18 14
-111.835796958765229 -15.581891597734845 1.655654261649119 3 8 4
-111.861263007209203 -14.757116893849460 2.213641736178488 6 12 8
-111.874566070991477 -14.175387945177395 2.103158963068097 8 14 10
-111.890289726157391 -13.552352757212233 2.104267891627558 10 16 14
-111.887380874890439 -13.303419241035783 1.102583945132466 11 17 13
-111.884682098908527 -13.059020450993408 0.101047176147773 6 12 8
-111.884316971245397 -12.776961226117161 -0.788901956334570 6 12 7
-111.918269208414429 -11.819279715892659 0.104353860029732 6 12 8
-111.935593723721368 -11.198553190659275 0.106252398818668 5 12 4
-111.944692450732589 -10.749402302488088 -0.337453676774885 3 10 2
-111.962710569680326 -10.128627323494801 -0.335223819140566 1 8 1
-112.000568319269775 -9.114774647376558 0.670181067870629 0 7 0
-112.030268662664099 -8.270755632990284 1.229996123234741 0 7 0
-112.025549809844875 -8.130080237585103 0.006842863581596 3 10 3
-112.025402443417988 -7.906099049419845 -0.993263151184493 4 11 4
-112.029880769466189 -7.597099310516395 -1.770313619337429 3 10 3
-112.069951437010005 -6.570924038747894 -0.763976922629439 4 11 3
-112.112810416039423 -5.493612711358189 0.354026208547083 2 9 1
-112.145135372945845 -4.637904440876422 0.914976546633852 2 9 1
-112.173500632526128 -3.870402529325695 1.253222761615035 0 8 0
-112.188867224157150 -3.377512212267752 0.922923863977360 0 5 0
-112.231686662569075 -2.328048906702757 1.930335847815854 6 12 0
-112.279663262335632 -1.179161452066439 3.160909347097316 0 5 0
-112.226916909766544 -1.422931802033244 -7.615126913786469 55 59 44
-112.250269475393452 -0.855744110836373 -7.720652359193082 59 63 48
-112.254294980338074 -0.542926578349989 -12.488878611014115 68 72 65
-112.236866413440083 -0.850691774527767 -15.819814943520043 36 41 35
-112.135204276378261 -2.958376323801695 -21.722275206331432 24 26 21
-112.121256042411659 -3.245886531387856 -23.610589550299125 27 29 24
-112.102368390869486 -3.645851464938513 -25.721827111558355 24 29 23
-112.125803596262188 -3.172275103067455 -25.937208318865629 24 29 23
-112.112078609362612 -3.483174343753009 -27.825175107134385 22 29 22
-111.589872234196235 -175.831132486880961 -19.316822983703219 28 21 2
-111.538460135928247 -174.710196176693245 -21.126698874567069 26 19 1
-111.575765084764555 -175.025535917678326 -18.334134241535565 26 19 2
-111.567915527976723 -174.602263825246609 -17.898810855195990 44 35 18
-111.555985197725320 -174.108629556760775 -17.687881739959636 33 21 5
-111.544273174091529 -173.614235113990645 -17.476856012441516 33 20 4
-111.528538202279208 -173.051694681471389 -17.490174080289535 45 26 12
-111.523603739357640 -172.656552196898872 -16.942307685931127 62 34 23
-111.506209662082014 -172.060161115733337 -17.067626790797959 81 48 39
-111.497452971543083 -171.596075363129870 -16.744016374563188 94 61 52
-111.480528472799861 -171.000331100027665 -16.869104176646374 104 70 61
-111.474258029443206 -170.566957733380889 -16.433129325343998 103 66 59
-111.461932301673329 -170.035602610327345 -16.333636531551093 92 57 51
-111.456019535860079 -169.599231209469110 -15.897521428810194 86 57 50
-111.442027501632936 -169.035062406919906 -15.910022442922497 37 19 11
-111.424143888759275 -168.408798609317301 -16.146742119738917 16 0 0
-111.412643455153614 -167.876669356426930 -16.046862476553997 54 20 19
-111.405422232063884 -167.405539272187752 -15.722590008798903 103 61 60
-111.375988672098416 -166.599040698614573 -16.631843697328264 120 73 73
-111.369171749044440 -166.128167956001306 -16.307375164875310 134 87 87
-111.348363556574810 -165.447231834829637 -16.767774490078324 135 88 88
-111.337881231038907 -164.916421721670417 -16.667394208914629 126 83 82
-111.325570959599830 -164.356048889029694 -16.679051599648517 107 66 64
-111.327478301938100 -163.998783159782050 -15.905804454794463 107 66 64
-111.309512134467397 -163.350840567899155 -16.253645661087660 92 52 50
-111.287782086248242 -162.647924229817647 -16.825571137256446 82 42 40
-111.276223666269019 -162.088758047698121 -16.836856424169099 100 55 54
-111.268806023589150 -161.585568088897645 -16.623866816187473 95 47 47
-111.273394405576269 -161.247108874727957 -15.738284601327450 72 22 23
-111.264280277848030 -160.713161342077285 -15.637282074057339 132 82 83
-111.253362381704406 -160.151816664697236 -15.648283360908664 106 60 58
-111.232816979589245 -159.456785772417646 -16.219560937586948 96 54 48
-111.233984187569263 -159.056228052541996 -15.557972381600933 94 57 47
-111.231355081580134 -158.600107763164743 -15.120489672486144 117 81 67
-111.230790360790905 -158.167929144081114 -14.570914040007779 119 84 72
-111.216761628152270 -157.553439895786880 -14.805668353982156 104 74 63
-111.212579001854351 -157.067245643051592 -14.480097294991197 75 50 37
-111.216238119289926 -156.680094687718139 -13.706319730580333 51 32 18
-111.239227794034576 -156.537817331808384 -11.812185037634805 36 18 4
-111.260288250575272 -156.361798517294460 -10.030179478769412 48 32 17
-111.273688338410778 -156.079943400745549 -8.696363579941334 49 31 17
-111.268018129307450 -155.551352082924240 -8.482799474675431 61 40 25
-111.262474718679357 -155.021822551985082 -8.269184366952459 82 59 43
-111.253252026226107 -154.444384323913113 -8.279540333170928 98 72 57
-111.247964618443405 -153.913515832879114 -8.065816537153182 106 78 65
-111.242797704831034 -153.381698605880189 -7.852044862953221 107 79 66
-111.237749271449900 -152.848929305756144 -7.638226308383736 106 81 68
-111.227161891316442 -152.248040803584388 -7.760335406882859 100 81 68
-111.222356629115680 -151.714178732609042 -7.546411768493527 99 85 73
-111.221417931724147 -151.223035898012853 -7.108480878351628 45 37 28
-111.218700786067544 -150.708266683989393 -6.782502874876513 30 27 24
-111.206738153802505 -150.085515195978701 -7.016353820898132 34 34 35
-111.187451075569001 -149.379900726550545 -7.697997246741465 41 41 41
-111.173914032076453 -148.739926593594078 -8.043637551954561 49 47 48
-111.160516512611679 -148.101708744138421 -8.389193031042595 47 47 47
-111.145401549052409 -147.445043682506991 -8.846618900841037 47 45 48
-111.134129550828533 -146.830527526891075 -9.080054679491326 47 46 49
-111.117440587453686 -146.158250345910460 -9.649253133714126 51 51 53
-111.117488057863383 -145.663230436699251 -9.210890372953088 54 54 56
-111.101051734899386 -144.994161586811629 -9.779934939905672 55 56 58
-111.093937813710411 -144.422091448051248 -9.789226820739600 57 57 59
-111.072257853524732 -143.701627498667278 -10.693885616104552 58 58 58
-111.061711961382841 -143.095351694108473 -10.926889206021059 59 59 59
-111.043969049516960 -142.418196059279268 -11.607500966885993 59 59 59
-111.035479157074164 -141.833112859680028 -11.728443942544260 58 58 58
-111.027089292266609 -141.248659052613760 -11.849332586671125 58 58 58
-111.013345113567610 -140.613242290194592 -12.305883958273057 60 62 61
-110.997901160017861 -139.963162702644695 -12.874258313082777 59 62 61
-110.984386985247227 -139.332537917814989 -13.330650325361177 55 59 58
-110.989066619895624 -138.867952522095038 -12.668040505528808 51 55 54
-110.972130105588178 -138.206898028012432 -13.348100751435652 48 54 52
-110.958916417143399 -137.580850912094178 -13.804301891840026 48 53 51
-110.953005278911931 -137.019293850848754 -13.812910149041727 49 51 48
-110.947173389594553 -136.457801910844665 -13.821479823508923 47 49 44
-110.945007208322096 -135.926403851122899 -13.606268294543838 42 44 39
-110.933949790192457 -135.320262564425462 -13.950374097000008 40 42 37
-110.926560433686646 -134.744756255408447 -14.070692000292553 38 41 34
-110.917463626922384 -134.155654277741235 -14.302825573903817 39 41 36
-110.912015366083438 -133.595548553438732 -14.311197452807306 39 41 36
-110.908417706343968 -133.049149644665647 -14.207684034429690 41 43 38
-110.906661475674440 -132.515638703579242 -13.992298135450682 40 42 37
-110.903186801150540 -131.967980284554699 -13.888738846139233 38 40 35
-110.901545941425027 -131.432661997742912 -13.673316358013551 36 38 33
-110.894648353615565 -130.858610337563078 -13.793384027416153 33 35 30
-110.896659009016247 -130.346606274827764 -13.354256912109008 30 32 27
-110.891649952063688 -129.784391298529499 -13.362440388969077 28 30 25
-110.890228092705613 -129.245712953806475 -13.146947718582311 28 30 25
-110.883573916195630 -128.671562631166864 -13.266899956435850 29 31 26
-110.880499782733835 -128.120401671493340 -13.163185103063626 30 32 29
-110.872209732890497 -127.535943607586361 -13.394884924792052 33 35 32
-110.869246494318631 -126.984585971166453 -13.291119044177208 40 42 39
-110.862830341544466 -126.411947632692218 -13.410941848678817 45 47 44
-110.859971170032338 -125.860115948404214 -13.307131062352141 54 56 53
-110.853665842396765 -125.288089590872559 -13.426894549060052 56 58 55
-110.852651448970860 -124.745348693473872 -13.211248766263537 51 53 52
-110.842964712536315 -124.155062005496973 -13.554535639945811 55 57 56
-110.833340300073729 -123.566437447074989 -13.897775588919046 50 52 51
-110.825515604332836 -122.988227313962028 -14.129188473749565 44 46 45
-110.826429246841627 -122.453540271585851 -13.801678537874579 43 45 44
-110.822173586923142 -121.892619000684292 -13.809488275416442 41 43 40
-110.821428326592084 -121.347597999517859 -13.593737210523358 45 47 44
-110.818989286468607 -120.793847886819108 -13.489745182127791 44 46 43
-110.820046893041138 -120.254364108613373 -13.162215749549688 43 45 42
-110.815956438509133 -119.691906465516098 -13.169962268051762 43 45 42
-110.811908270281336 -119.129470382985744 -13.177688334997100 39 41 38
-110.811346628914663 -118.580210046946831 -12.961893065024384 36 38 33
-110.809097442307532 -118.023576082134269 -12.857839896295872 34 36 31
-110.805165779355434 -117.460383510037389 -12.865518014443779 31 33 28
-110.797839796426857 -116.885685599566997 -13.096656163702306 30 32 27
-110.793989807875377 -116.323072256643428 -13.104289246800079 27 29 24
-110.791890863924252 -115.765693254952325 -13.000171871538839 27 29 24
-110.791536850423725 -115.212732086766252 -12.784315367631052 27 29 24
-110.784374350668713 -114.640001987058085 -13.015355051435023 27 29 26
-110.778962838548495 -114.072775843187273 -13.134641528853507 29 31 28
-110.766766702173584 -113.489585827305461 -13.700773611095713 33 35 33
-110.758031435880270 -112.916844184110630 -14.043424704763993 34 36 35
-110.756150708586716 -112.360091908059019 -13.939196484199925 46 48 47
-110.750898962769284 -111.796177929338796 -14.058372436187000 48 50 49
-110.742286022090553 -111.226732800473741 -14.400931077022506 56 58 57
-110.726926915527116 -110.647845189069400 -15.190249796391470 44 46 45
-110.721797576603464 -110.087767324387983 -15.309327702291284 37 39 38
-110.721785496948073 -109.534923514993693 -15.093306410371042 30 32 31
-110.718413795669463 -108.977089695978037 -15.100661484436273 32 34 33
-110.711691999834358 -108.415896360031354 -15.331371583290604 44 46 45
-110.706696770933789 -107.857208987072553 -15.450371018385169 37 39 38
-110.701735444879063 -107.299071624464929 -15.569348572941664 33 35 34
-110.701865470921476 -106.744087685874533 -15.353281327567657 42 44 43
-110.700335067223619 -106.187425433531075 -15.248884586736892 44 46 45
-110.697148777095421 -105.629899813344238 -15.256147788297937 39 41 38
-110.693992336956867 -105.072378267926169 -15.263396667782615 33 35 32
-110.684146666389779 -104.515737533962195 -15.717272125222678 28 30 27
-110.682733748566804 -103.958818642911609 -15.612821821263253 26 28 23
-110.679670517511980 -103.402121501289926 -15.620017623839317 23 25 20
-110.681662358295469 -102.842321855666313 -15.292250378246138 25 27 22
-110.683674682101753 -102.280892617180811 -14.964490107863043 25 27 22
-110.682362940472970 -101.720990135910725 -14.860022113152070 32 34 29
-110.684419432982125 -101.156843748178559 -14.532268681595099 28 30 25
-110.673141063777578 -100.608042857326069 -15.097607722629334 26 28 23
-110.668578466574687 -100.052383737729826 -15.216369016869550 32 34 31
-110.657381503570761 -99.507929849045908 -15.781624367579383 42 44 41
-110.656219552544712 -98.948566944223856 -15.677079159426086 41 43 40
-110.653420561580973 -98.391867324662229 -15.684148575955021 40 42 39
-110.653976446938614 -97.828202274123200 -15.467966959990633 33 35 32
-110.651234482505188 -97.270952428610741 -15.475014758975078 34 38 34
-110.643542996265992 -96.725773071733187 -15.816882799384018 34 39 35
-110.635889747136318 -96.182220010252664 -16.158715807015341 24 29 23
-110.631589438858981 -95.631155600235317 -16.277304327478788 22 27 21
-110.628978524963017 -95.075788628436612 -16.284270050970292 18 23 17
-110.626398716080914 -94.520415206585113 -16.291220960323415 36 41 34
-110.620543322565226 -93.975802869345387 -16.521345898728640 33 35 30
-110.621333732004203 -93.409646580447784 -16.305077730815469 29 31 28
-110.620500337407577 -92.848322360108327 -16.200395531198438 33 38 34
-110.619697091457255 -92.286445486056849 -16.095704597314608 2 8 4
-110.610681093844661 -91.756372756613686 -16.548909664239972 10 16 14
-110.598412877686158 -91.241951421310617 -17.225227243548431 10 16 14
-110.599363181881714 -90.674659768213488 -17.008894269405914 12 18 16
-110.597052764863918 -90.120843238117573 -17.015700276745605 9 16 12
-110.601353579921465 -89.536778415913659 -16.576219314506062 18 27 22
-110.592536921325362 -89.013172531245289 -17.029262451847245 12 21 16
-110.582123001267192 -88.499830810327353 -17.593822944323648 6 16 8
-110.575037969949491 -87.972444221204697 -17.935217708880145 7 16 15
-110.571275899671022 -87.429380622330925 -18.053466381761467 9 20 16
-110.570831103917371 -86.869007765440884 -17.948588484928024 10 19 16
-110.558958156098129 -86.372407346497326 -18.624533529573313 12 16 15
-110.558593601594779 -85.812815748272257 -18.519609203712889 13 14 14
-110.556630903099801 -85.262396078583876 -18.526213898112530 15 11 11
-110.561248048601797 -84.671931842542818 -18.086647476854068 19 11 10
-110.557729206956211 -84.130662856763337 -18.204761317137013 15 2 2
-110.555887224772661 -83.579366315124787 -18.211317287350539 22 4 6
-110.547559483275080 -83.071336439594646 -18.663966196740887 21 0 2
-110.536019767807147 -82.587647798679697 -19.339618916754034 51 27 30
-110.526165040109632 -82.095832902619208 -19.903690307099424 97 66 71
-110.522882150234125 -81.560160111562851 -20.021633664420790 131 101 104
-110.518018023963123 -81.036915582903816 -20.251064434385938 127 96 97
-110.508319779444363 -80.551279107390329 -20.814997366128580 125 93 94
-110.501931415327093 -80.043426212418851 -21.155857777357539 125 90 93
-110.498849182625690 -79.511723508127019 -21.273664274877149 132 91 99
-110.512076473224127 -78.850548787827918 -20.276412223651619 127 84 93
-110.513965917888214 -78.277339287285130 -20.059690883304654 50 12 18
-110.520778192017389 -77.662379857817967 -19.508467576446009 75 41 46
-110.521141608445163 -77.099924533905110 -19.403224469554544 156 131 135
-110.523181359283825 -76.522802098253692 -19.186471501055593 102 83 87
-110.523651484383720 -75.958913212231380 -19.081192101476091 17 13 14
-110.529043685399472 -75.350547009234802 -18.641439170255552 20 20 22
-110.539354601410565 -74.695252059100099 -17.867239549049003 13 18 21
-110.546475483838861 -74.066456272350692 -17.316011029614202 13 17 20
-110.547169457766074 -73.496687691554143 -17.210685064174982 13 18 21
-110.538202722883923 -73.020652814843714 -17.774169210134943 14 22 24
-110.534162979319859 -72.499316321120403 -18.003185957876696 17 23 23
-110.526950046731216 -72.011551611008443 -18.455092946978283 17 23 23
-110.532759275887713 -71.393616544994558 -18.015239008038691 17 23 23
-110.535395249786802 -70.807071197827824 -17.798297803233282 20 26 26
-110.539717324177332 -70.202301180914930 -17.469878684492699 22 28 28
-110.539252689393933 -69.647906005112489 -17.475807632229191 20 29 28
-110.540477806337123 -69.075827146952463 -17.370251350637233 18 27 26
-110.545011751948323 -68.467345647174042 -17.041769077588555 16 25 24
-110.546383543628593 -67.893512985999124 -16.936160680080604 15 24 23
-110.546213413329909 -67.337517513499989 -16.941965210538910 19 28 27
-110.544503153319567 -66.800174857134721 -17.059173415885766 15 23 24
-110.546107838188632 -66.225331142926706 -16.953464010351382 15 25 27
-110.547793416859676 -65.649873546089481 -16.847722224501723 18 28 30
-110.543089884725816 -65.151940626297730 -17.187674506597006 21 30 35
-110.548178138631741 -64.536723439131507 -16.858996388174177 20 31 35
-110.559825879350413 -63.839471863406722 -16.084589115234195 21 32 36
-110.576419176125114 -63.077263228148006 -14.975907886112964 25 36 38
-110.581776349620640 -62.453901801212609 -14.647184950231463 30 41 43
-110.595321709535995 -61.724324263441098 -13.761343725218353 40 51 53
-110.621920274171742 -60.820917858334596 -11.984176120301441 43 54 58
-110.653485825859903 -59.844353241219110 -9.872808725270346 49 60 64
-110.678685765725689 -58.944194865881457 -8.207135668967709 48 59 63
-110.692657358002791 -58.189687172292629 -7.321347154471368 44 54 56
-110.706741288954646 -57.430711057513889 -6.435550893242180 45 55 57
-110.727427348047868 -56.577113315334906 -5.104134644803111 41 51 54
-110.748237153428406 -55.716853507559399 -3.772727772552230 42 52 54
-110.762682792037936 -54.942261684436488 -2.886919211950072 31 41 44
-110.769135803593812 -54.279969374602778 -2.558072766031643 14 22 23
-110.780583606735760 -53.545029411865464 -1.895007972964038 4 10 8
-110.787284549174530 -52.878399996743596 -1.566087561764562 0 4 1
-110.774597944889607 -52.500132827245487 -2.573780448053441 0 3 0
-110.768526757247884 -52.028858830923760 -3.135830368005173 6 11 7
-110.770711955937372 -51.436568942042889 -3.140881713809506 20 25 21
-110.764878632842851 -50.969135418474742 -3.702778308261827 30 36 34
-110.755903245952766 -50.554845233934699 -4.487348794019340 33 39 37
-110.730727670458137 -50.399701532179115 -6.385590718749057 36 42 40
-110.712174630662702 -50.150447589890838 -7.838197629401236 27 33 31
-110.696990818940620 -49.855982576419642 -9.067940323318766 27 33 30
-110.681913392681466 -49.567395783930834 -10.297571615313899 26 37 33
-110.675127292786087 -49.151479945404283 -10.970252602430008 22 33 29
-110.681570764602569 -48.523376009438685 -10.751917687103656 25 35 34
-110.693082766842707 -47.812448020104853 -10.199433899023234 26 36 36
-110.691622526246960 -47.318324023417475 -10.537795394404839 26 36 37
-110.688656127817723 -46.853416514944513 -10.987435575461490 22 31 33
-110.680889706595408 -46.474570301835733 -11.771062853584056 22 27 30
-110.696308043421595 -45.703373293136160 -10.995612897879369 17 23 23
-110.705311721518598 -45.042398918733468 -10.665532655659121 12 18 18
-110.729343761102115 -44.120065047831474 -9.333223237125566 13 19 19
-110.755239165625596 -43.161836022777052 -7.889532993125187 16 22 20
-110.817770188742927 -41.549773954455986 -3.996151158487351 17 23 21
-110.840845924905437 -40.630125518010516 -2.775130474627019 5 11 8
-110.870785180030381 -39.584472322078518 -1.108687797428075 3 9 5
-110.886013414700741 -38.802249164873515 -0.444301168549288 3 9 4
-110.904781925343542 -37.955527778577313 0.442832973387510 2 8 3
-110.922108748511562 -37.134934160614812 1.218687478302542 1 8 2
-110.932981109963535 -36.434398581626738 1.549254468881855 2 9 2
-110.934025537680071 -35.919845952608476 1.211880916060494 2 9 2
-110.935248060863273 -35.406700860117859 0.874607051980490 1 8 1
-110.938329444941360 -34.863094223326875 0.648767789523390 3 10 3
-110.936555202649629 -34.416754627192681 0.089030175805448 2 9 2
-110.941692013446811 -33.843246921626822 -0.025274679356073 4 11 4
-110.950404555650550 -33.204637882087333 0.083178732236945 6 13 6
-110.969479869989328 -32.367388779969659 0.859698266069330 5 12 5
-110.980343489294228 -31.692214855121513 1.079663249761666 5 12 5
-110.988042296106215 -31.082689988065887 1.077072186895606 5 12 5
-110.995961815033127 -30.472870095500035 1.074583675103014 4 11 4
-111.007515961458751 -29.794598003277940 1.294847113609762 4 11 4
-111.017603839704520 -29.149261984720322 1.403889237076640 6 13 6
-111.021079015878513 -28.641573772284847 1.067749204873735 5 12 5
-111.028198995308287 -28.065413327079426 0.954365784806555 5 12 5
-111.040712172147266 -27.383926489203702 1.175054929183858 5 12 5
-111.055209274448458 -26.665531689631042 1.507172149431710 4 11 4
-111.061329787970820 -26.123823283167496 1.282806335521798 5 12 5
-111.074618518159511 -25.438806054087816 1.503830161873054 6 13 6
-111.084701361490986 -24.824908160682924 1.502334600149112 7 14 7
-111.093298061092128 -24.247216730251168 1.389641878750069 9 16 9
-111.100398059236042 -23.706559051484067 1.165755462593808 7 13 11
-111.102483989782300 -23.278023926883908 0.608047812699738 8 14 12
-111.106546111338332 -22.814476725293339 0.161784053834339 9 15 13
-111.105548942965498 -22.465826938483552 -0.618294009942758 8 14 12
-111.125975898146663 -21.665075102807602 -0.062469940907278 9 15 13
-111.150283577541217 -20.784625695211240 0.716108055986439 14 20 18
-111.167834085990890 -20.053944952599117 1.049559549885913 17 23 21
-111.164284452419736 -19.786819231778150 0.047381793831448 15 21 19
-111.171669347749685 -19.289778001080855 -0.286778247397052 9 15 13
-111.182908554397869 -18.715237869085318 -0.398174364584662 10 16 14
-111.192632477468294 -18.180446723574011 -0.620745116876236 10 16 14
-111.197207824969979 -17.766089551201151 -1.177115897447180 6 12 8
-111.225631213489137 -16.831375672975202 -0.286268645951566 8 14 10
-111.254470738415918 -15.891683164930397 0.604726436237314 11 17 13
-111.276419168750778 -15.110072386032110 1.050616517363721 11 17 13
-111.298745435915777 -14.325703390412748 1.496658962624281 9 15 11
-111.321455981301966 -13.538563209093205 1.942856720062082 8 14 10
-111.331609800675267 -13.039934820755072 1.610004985193882 9 15 11
-111.308635315878618 -13.296583201709721 -0.726380702198583 6 12 8
-111.334165536244910 -12.467906263039884 -0.168402695704543 5 12 5
-111.345141830718504 -11.975533133679365 -0.500796572780928 2 9 2
-111.373339316605751 -11.099595390726595 0.168829850115969 0 5 0
-111.383112233820711 -10.649948899158998 -0.274558796689774 0 8 0
-111.402660148037768 -9.985426501734308 -0.161188519476582 2 9 1
-111.445435835667183 -8.796607721255270 1.288203617909943 4 11 3
-111.471591845425010 -7.994691989290062 1.735897581527695 4 11 4
-111.503957552068528 -7.057385926144915 2.517745256918857 2 9 3
-111.477017783533384 -7.493297438535510 -0.151268817917781 2 8 4
-111.508192889739775 -6.600279829716537 0.519606276693764 3 9 5
-111.504816024038774 -6.513475252958593 -0.813209346443813 4 10 6
-111.527053772571932 -5.843917200459732 -0.698604096241098 1 7 3
-111.555612165731432 -5.036337129717380 -0.249819146523237 0 6 2
-111.604415070342867 -3.767029504007642 1.312486763610309 0 7 0
-111.610224350268226 -3.504512288337475 0.425692602272051 1 6 0
-111.646232722628611 -2.549144789791677 1.209097001028255 8 14 4
-111.706883739732547 -1.028205087874920 3.328775256799190 5 11 0
-111.706084043651245 -0.550872090379016 -7.208114810844791 62 65 53
-111.679088440441276 -1.185227772727372 -14.087750538245302 56 61 56
-111.636954467104033 -2.197448311613125 -17.644972309619163 36 41 37
-111.605318149788658 -2.973521386031614 -20.645308398214809 25 30 26
-111.597473506969749 -3.202565884744927 -22.420445737090461 22 27 23
-111.622654723049607 -2.669402814834332 -22.524746129868987 25 30 25
-111.615116241201960 -2.910994369096446 -24.299607849239550 20 25 21
-111.598715855639099 -3.368933549127279 -26.519917637857560 24 29 25
-111.624819495312380 -2.844738427506799 -26.623684434754011 20 26 22
-111.122006887972447 -176.915819897005434 -17.866599655408777 40 32 11
-111.089754415392605 -176.069069159113894 -18.777616237818705 32 25 6
-111.050283302376954 -175.086850216844567 -20.136916175032638 31 23 6
-111.035900756610673 -174.564092790932960 -20.038318855503206 21 14 0
-111.044398744134810 -174.455391026902277 -18.594206865298418 40 31 14
-111.043543858426560 -174.168588963327835 -17.710696958044508 29 20 3
-111.029710958209790 -173.639933788732407 -17.611897398458154 35 23 7
-111.019833707286963 -173.178437075301673 -17.288796404189270 47 29 15
-111.013863657189376 -172.782423847365379 -16.741434394185035 62 35 24
-111.000660963384433 -172.251442009233926 -16.642357295528058 91 58 49
-110.985835926535529 -171.687376145423826 -16.655255755639160 96 62 53
-110.971241259774700 -171.123627153222770 -16.668040745771094 106 69 61
-110.960527989334153 -170.624782580934806 -16.456583025567483 106 68 62
-110.950010340396204 -170.125132435976752 -16.245040012871669 106 68 62
-110.937872151225903 -169.592928331854267 -16.145466240244190 96 66 60
-110.920517605668124 -168.966064120415979 -16.381938993431390 102 81 72
-110.907003666142870 -168.402970121497390 -16.394200225183369 37 13 11
-110.890113221285290 -167.778330188228153 -16.630428058573926 192 151 152
-110.869881666764414 -167.093797646956432 -17.090588541917555 178 135 134
-110.857027524780989 -166.533179651481646 -17.102508642039851 176 128 128
-110.846148148772343 -166.002904339818343 -17.002312803480919 173 126 126
-110.831916994775895 -165.412717228649910 -17.126054916112793 173 125 125
-110.821416697196241 -164.882392021466956 -17.025678241332486 126 81 80
-110.811095543542422 -164.351757699512319 -16.925219046585681 115 71 68
-110.811453651010609 -163.994682461636586 -16.152711089559745 111 68 64
-110.796213889745815 -163.375650830573505 -16.388091512505554 94 53 49
-110.775962691738798 -162.672666518044480 -16.959310211497012 86 45 41
-110.762880981381855 -162.085267659768220 -17.082473733344017 93 48 45
-110.753442663169579 -161.554389527565291 -16.981594702809446 98 50 48
-110.751057163570636 -161.133577952332217 -16.432773117979877 67 17 18
-110.743637644509846 -160.628242490664888 -16.219806492391342 133 83 84
-110.739789487296846 -160.176111316932349 -15.782865911232193 118 72 69
-110.727532074912489 -159.588097100314172 -15.905641425947067 106 65 57
-110.729061737535545 -159.212836412375339 -15.132760192923854 107 69 58
-110.723895337817623 -158.729011320862611 -14.807635380798388 120 84 70
-110.723933144368743 -158.321578213263592 -14.146657898404385 132 99 85
-110.707200140447853 -157.654258575251873 -14.604967506072740 111 83 69
-110.699069885071125 -157.116325198949625 -14.503535325933115 83 60 46
-110.697790897766836 -156.678527874630817 -13.954359232262846 49 31 17
-110.718359937313465 -156.561254785424381 -11.950266296500104 33 17 3
-110.742247516718635 -156.483430812222139 -9.722461943234492 38 20 6
-110.752791063530637 -156.200357392101324 -8.390025144451386 47 28 14
-110.745120643692701 -155.646520547705876 -8.288536682952497 55 32 18
-110.734274161523004 -155.044777244699532 -8.410778533872019 88 62 47
-110.725226932411033 -154.467217186771933 -8.421051813085427 104 76 62
-110.722902794858214 -153.982642327938976 -7.983716105293780 106 77 61
-110.720680495055433 -153.496021080190900 -7.546352743180734 107 79 65
-110.713644036075493 -152.939365632648332 -7.444590010278546 108 82 69
-110.701828142060606 -152.315136545855836 -7.678385966890801 102 84 70
-110.691786891037907 -151.714250353850218 -7.800233775315689 89 77 68
-110.693263019593658 -151.266926470740458 -7.138978820396545 35 30 23
-110.691572049543936 -150.773312824881174 -6.701433248217313 33 31 30
-110.683498515864898 -150.192460569252830 -6.711274603117914 41 41 44
-110.664241448658714 -149.464587254384469 -7.503991678187077 47 47 49
-110.648376008022879 -148.782152305416417 -8.072900720963048 50 48 49
-110.635877074526292 -148.143511579732149 -8.418030672481507 44 46 45
-110.621908579707281 -147.486420628487167 -8.874912459460148 49 47 50
-110.612879952120650 -146.891404145526707 -8.996215412440250 52 52 54
-110.599175953300474 -146.238076239774614 -9.452931930521999 54 54 56
-110.590385931039037 -145.645177140699673 -9.574098940236354 59 59 61
-110.578526527827961 -145.014706774117371 -9.918838841047716 58 59 61
-110.566789078956802 -144.385969945003097 -10.263502555148818 60 61 63
-110.553587744739417 -143.740401693056640 -10.719898726192866 61 61 63
-110.546831024241754 -143.170262403622246 -10.728999848238374 61 61 63
-110.532284867753916 -142.510129982429135 -11.297048178877873 61 61 63
-110.521011835220889 -141.888296967789699 -11.641418653364155 57 57 59
-110.506707654431793 -141.233241881562151 -12.209298960099346 55 55 57
-110.492523951334547 -140.580993835076583 -12.777092736449532 58 60 59
-110.480023043331528 -139.948474832252685 -13.233019503516857 58 61 60
-110.469193648575541 -139.334863968462400 -13.577093108482160 54 58 57
-110.464701234239428 -138.788479299174440 -13.474007591062417 50 54 53
-110.454061626435063 -138.177191377796049 -13.817966491387381 50 56 54
-110.445072902799254 -137.583440991950511 -14.050096206800987 47 52 50
-110.445475953661088 -137.084217036980448 -13.611606611925453 47 49 46
-110.442839092644633 -136.552297733669775 -13.396625619958655 46 48 43
-110.435632885907935 -135.974299695655930 -13.516881553647721 43 45 40
