ply
format ascii 1.0
element vertex 682
property double x
property double y
property double z
property uchar red
property uchar green
property uchar blue
end_header
144.021229351345482 -2.139045505868920 23.787000732667707 156 153 142
142.594366529787010 -1.776818867979618 22.248700736464542 149 147 135
140.595175055866036 -1.663938883077678 20.099896376769578 155 153 141
138.596017498309664 -1.566174817972257 17.951231387358092 151 149 137
136.239143908420090 -1.635343935513539 15.421120424173523 150 148 136
134.168497558068992 -1.599793993053892 13.196436944489562 149 147 135
132.240988609762212 -1.518077781958429 11.124519579547496 150 147 138
129.240207313850220 -1.918602791389215 7.908132704163052 150 148 136
128.028306681430649 -1.555569724485901 6.599563887286990 149 147 135
126.601801232595975 -1.296822047245429 5.062158086123077 149 147 135
124.674446204892376 -1.272775695364510 2.990760710923809 150 148 135
122.818688841285592 -1.231008593749350 0.995787734978137 147 144 130
120.962972389195343 -1.203239508005264 -0.999060724287403 146 143 128
118.964171265070632 -1.255083394321336 -3.146356240430237 146 143 128
117.394790674347931 -1.123520443752043 -4.835819657007136 144 141 126
115.467633651857057 -1.170535185076274 -6.906580289691107 141 138 123
113.826784316338006 -1.097579852669713 -8.672108910996599 147 144 129
112.042846498928441 -1.104768635926442 -10.590077299229364 147 144 129
110.330523042348091 -1.091223891750241 -12.431660287902389 149 146 131
108.045662549181117 -1.366095571834221 -14.883245784986002 145 142 127
106.404991769397071 -1.345788577422686 -16.648317890951830 144 141 126
104.692793554994424 -1.372805439470860 -18.489543274064118 145 142 127
103.123797628305852 -1.342186892385705 -20.178151641141227 143 141 125
101.125370638216239 -1.536536950303238 -22.324159254110810 143 142 124
99.270136726605728 -1.674336141226962 -24.317534281641741 144 143 125
96.913844789455368 -2.078623344255562 -26.844473966700264 143 142 124
95.488185791208693 -2.028168098025705 -28.380140648294571 146 145 127
94.563708544568058 -1.732058341322263 -29.382087412789161 143 142 124
93.424547182343488 -1.553493956044049 -30.612696733467544 144 141 124
91.426340051897739 -1.829418465688424 -32.757969839726059 145 142 125
89.428153731648791 -2.120387401523556 -34.903098041674923 144 141 124
87.787977877268830 -2.237841274909602 -36.666988876440229 144 141 124
86.649048917876755 -2.101713624421321 -37.897272555207508 137 134 117
84.937369849272429 -2.280136447411719 -39.737187798274391 138 135 118
83.583754664007358 -2.278757803767116 -41.195955938008780 143 140 123
82.659849841695475 -2.054671237509381 -42.197435177459511 145 139 123
81.592814182106594 -1.915576901300712 -43.351284017089029 141 135 119
79.881334505555699 -2.138574209270966 -45.190835821064667 143 137 121
78.098268488307923 -2.414045738008267 -47.106459706433640 144 138 122
76.458464531155855 -2.623114612215999 -48.869585416331148 141 138 121
75.749785978594417 -2.322232361296285 -49.642242007296204 141 138 121
75.685846413182375 -1.662499626154505 -49.729303383754115 141 138 121
74.762529219555574 -1.491657785581096 -50.730515668044319 142 139 122
73.696041350550814 -1.409616035257129 -51.884039297884328 142 139 122
71.770014220599577 -1.830717840761856 -53.951489801209505 142 139 122
70.560370627642442 -1.850861659996353 -55.257194145847279 141 138 121
69.064226077532595 -2.047279359477791 -56.867458478706510 143 140 123
68.356214003095019 -1.791854089086888 -57.639965998985332 143 140 123
67.290071885572203 -1.753417776733050 -58.793206182470698 144 141 124
65.579138341322036 -2.106669441855232 -60.631678480734649 141 138 121
65.014708197815239 -1.786049717641464 -61.251828414036254 139 136 117
63.733811233219754 -1.901409306964019 -62.633324171085064 139 136 117
62.524630526297827 -1.982833602293975 -63.938619168090355 141 138 119
61.387176427447756 -2.029494322137085 -65.167726882564693 143 140 121
61.038171418051235 -1.600339357895136 -65.559476014596754 144 141 122
59.972568651488444 -1.616521921091709 -66.712412002208367 141 138 119
59.122077455915445 -1.506852116741289 -67.636975434921339 140 137 118
58.128317107866394 -1.493095399563397 -68.713729884427408 141 138 119
57.349701213641509 -1.351269015376208 -69.562150333847256 141 138 119
56.857961080597363 -1.033474282414026 -70.106186955019098 143 140 121
55.721092332354047 -1.130244385871376 -71.335058898158991 144 141 122
54.871090443006764 -1.051592371740901 -72.259537131596403 145 142 127
53.375831470518420 -1.395260515640801 -73.868709398957492 144 141 124
51.522029763879203 -1.982686000030226 -75.858141359126080 140 137 120
50.170197812903993 -2.256536850684571 -77.314929516584016 142 139 122
49.105273467838458 -2.352189149284011 -78.467372036805813 142 139 120
48.829394927713835 -1.934866972174975 -78.783123935338267 139 136 117
48.266768153645771 -1.709779674032927 -79.403153231144984 139 136 117
48.134693208962531 -1.201208254588979 -79.566921781269173 141 138 119
47.213662223097074 -1.223262798305695 -80.567242200129556 140 137 118
45.790485291246654 -1.591293321359857 -82.099788609527621 144 141 122
44.295559694840193 -2.018707364525334 -83.708258324252114 145 139 121
43.087656206639593 -2.261232058274165 -85.012506050984939 143 136 118
43.028008292190037 -1.723873663437381 -85.100360877992443 142 135 117
43.470967791216424 -0.839430632255965 -84.656221890891686 144 137 119
201.302050302910970 -1.271297502267974 83.621062597953426 173 173 165
196.783758322108213 -1.641813326245151 78.802302149678155 181 179 170
191.332370024799900 -2.367128938309637 72.992418409321488 183 181 169
189.038994596062764 -2.036573498565037 70.538674462743074 180 177 168
185.238351249683774 -2.252687213370224 66.483592878383263 168 165 156
181.007029109482090 -2.650405616298001 61.971262591507212 170 167 158
176.273235867440917 -3.260355491237708 56.925485168138493 172 169 160
172.759620922117250 -3.463768837280708 53.176394988970969 173 170 161
169.963778467678395 -3.430840299111070 50.190080973944873 172 169 160
169.177770371407121 -2.675315756144588 49.338879825201843 172 169 160
166.094839710117014 -2.784386485187083 46.047933954387247 169 166 157
164.160411858433918 -2.483083433100743 43.977066251439140 167 164 155
161.221057378860962 -2.579650302490626 40.839023088761110 166 163 154
158.640622927859738 -2.560185570471297 38.082373867729075 164 161 152
154.983431949279094 -2.978982486594212 34.182469252179544 162 160 148
154.054077401743996 -2.354194381263010 33.179472520358587 159 157 145
152.406917957965504 -2.021013436388040 31.414284000259954 158 156 144
150.472649445257929 -1.815181846680677 29.344322805815125 158 156 144
147.318002580664256 -2.117002485685496 25.978810907570448 157 155 143
145.886314861907010 -1.740027441148458 24.442667312890165 157 154 144
143.880348433341140 -1.610205169077856 22.296929672801809 148 146 136
141.587245480996955 -1.614773866929525 19.846504975551113 158 156 146
139.653135667705271 -1.486180429677220 17.777262910954022 153 150 140
137.360087407499464 -1.523960987486669 15.327153915530573 151 148 138
135.856823619767596 -1.242060542699858 13.715371832601704 149 147 136
133.133052069038627 -1.496836146516463 10.808399712463284 149 147 135
129.834895411695072 -2.021552259448075 7.292119012404925 149 147 135
127.757331649602889 -2.036534980428337 5.071264956877258 147 145 132
127.474848140426147 -1.274172097776756 4.755121175583696 148 146 133
125.828204605587587 -1.121687876728645 2.991545848569132 149 147 134
123.104536907417284 -1.465515778303764 0.085440705759510 147 145 130
121.386164026848519 -1.374378881194759 -1.754046954222218 147 144 129
120.098686624150602 -1.099309649101416 -3.136413532232126 147 144 129
117.949559109679470 -1.230821689842421 -5.432691124014610 144 141 126
115.872270205824790 -1.345146427739237 -7.652654093495727 143 140 125
114.225889814188179 -1.273353743256908 -9.415524708794294 147 144 129
112.435929874398397 -1.281699538982935 -11.330600224611885 148 145 130
111.148729497111944 -1.064314577512416 -12.712505557453483 149 146 131
108.999775428308226 -1.269815503728843 -15.008104520281705 146 143 128
107.497228417654313 -1.179069393219492 -16.618261859317329 143 140 125
105.635626929427431 -1.274487519627290 -18.609026909608730 146 143 128
104.276832859402077 -1.137085258157490 -20.066717648056169 144 142 126
102.343493032312779 -1.294059165141054 -22.133388583282198 144 143 125
100.410184998605359 -1.465541748983777 -24.199925383253770 143 142 124
97.758602324365768 -2.012261555189981 -27.027568401206082 142 141 123
96.184496231695661 -2.033754412925784 -28.713195673525519 144 143 125
94.969614804122983 -1.883932800102477 -30.018143795612502 142 141 123
94.042154464611826 -1.595593455715842 -31.018583473945540 143 140 123
91.965352279785890 -1.908739470429495 -33.236732720860147 146 143 126
90.247775144870218 -2.050290992974702 -35.074205884038633 145 142 125
88.817613419402818 -2.053861948671619 -36.607162357527727 144 141 124
87.387508369279359 -2.068106000346884 -38.140036080768510 140 137 120
86.244857260760384 -1.939994740163856 -39.368456579419444 141 138 121
84.743022191875056 -2.013014052941930 -40.977268789186269 144 141 124
83.241236780175328 -2.097245762490950 -42.585989339947844 146 140 124
82.170645116368263 -1.958227148797123 -43.738136219898479 143 136 120
80.812693594481388 -1.984535297911963 -45.194544876990165 144 137 121
78.664305615469260 -2.456821334176192 -47.487668502075223 147 138 123
77.306438089192227 -2.506362785070547 -48.943878190332128 143 140 123
76.523579679451061 -2.244635884412820 -49.791503231120004 143 140 123
75.812697856411788 -1.948183411794304 -50.563060187107254 143 140 123
75.173802717165643 -1.616177852758916 -51.258562406729851 141 138 121
74.031876634691699 -1.575749509583577 -52.486427191042679 143 140 123
72.458733716576248 -1.791387976031308 -54.170516804486738 141 138 121
70.741853830468600 -2.101858093622305 -56.006584765148773 141 138 121
69.815765828719847 -1.965164875155460 -57.006119995408767 143 140 123
69.249230356789326 -1.624798848358787 -57.625466005421089 143 140 123
66.669745830059199 -2.474797551685347 -60.373619843047436 142 139 122
65.096776040295424 -2.747228380749714 -62.057207688182956 140 137 120
64.818083819976096 -2.258855857101080 -62.372344888664287 139 136 117
64.539550214034932 -1.772308925571636 -62.687539177983638 140 137 118
63.685892023383943 -1.635343682350771 -63.610868496771189 141 138 119
62.113186991909728 -1.942065341972267 -65.294230028619836 144 141 122
61.835036392904485 -1.468124615744322 -65.609477785140541 142 139 120
60.909745358083882 -1.394669297154612 -66.608743342175757 141 138 119
60.488034220998102 -1.015954594320177 -67.076049789907785 140 137 118
58.340122613387265 -1.716565715209850 -69.367051044641670 140 137 118
56.695702549945267 -2.117446073162024 -71.125994013152734 144 141 122
55.914563990692074 -1.985760842953573 -71.973103240277624 146 143 124
55.781034040117063 -1.448583066704212 -72.136470180171727 146 143 125
55.359896463619478 -1.095896009221876 -72.603783101694347 144 141 126
53.931555326912004 -1.393392513001196 -74.134585015283847 142 139 122
52.503234434312347 -1.701521953872478 -75.665287163422050 142 139 122
51.002967274499724 -2.067079130613664 -77.271838216322777 143 140 123
50.006487922680762 -2.114331913723761 -78.346663902310240 142 139 120
49.729823668060376 -1.695388000811625 -78.662056611062411 140 137 118
49.165419653301782 -1.468680706355770 -79.281252356450551 139 136 117
48.817106710777395 -1.102198721919869 -79.672687446436584 140 137 118
47.317121731094389 -1.508961574000176 -81.278949342627840 140 137 118
45.601144105108602 -2.072319028048787 -83.112845845045626 144 141 122
44.101127688135634 -2.502320707237182 -84.718853492823541 146 141 122
44.401276747903538 -1.717902889163475 -84.427082641168823 142 137 118
43.045404162619491 -2.064709337318549 -85.881186804408713 145 138 120
43.994146029148851 -0.834863892574420 -84.906555574359317 146 140 121
41.872170532884198 -0.577568888130518 -87.219824784818456 138 135 116
206.166115849784546 -1.188685230784190 87.168780844124257 156 155 150
190.692848053150101 -2.948657108429610 70.754595136879800 183 180 171
191.056427602990510 -1.701724499816598 71.122119047339254 181 178 169
187.819096071833201 -1.712169907808920 67.682305053611628 169 166 157
183.285384760463614 -2.205536906531549 62.872185729083242 170 167 158
179.039719061408761 -2.630090865865747 58.366993583460157 172 169 160
174.866042244161235 -3.060620164210606 53.938282595624315 173 170 161
171.484590132614414 -3.233435881113795 50.347368982867465 171 168 159
169.111466500161782 -3.059906080632536 47.822533762459898 172 169 160
166.162156443206584 -3.118886821231463 44.688866420971380 170 167 158
164.077162073743523 -2.874864121263040 42.468901069628970 167 164 155
161.848138398107835 -2.701280289726600 40.096846137485670 165 162 153
159.907249992659843 -2.433896758517527 38.029418291981841 166 163 154
157.462187311650666 -2.376519921684406 35.429335201701917 162 160 148
155.521354872796906 -2.140233359221563 33.362200678692261 158 156 144
153.364460756188976 -2.003913359116344 31.066881673006634 157 155 143
150.775397476074204 -2.056186741907330 28.315098890699318 158 156 144
148.402449407730501 -2.040928614486755 25.791808850863418 158 156 144
146.317662305132501 -1.926420324438042 23.573077500646974 157 154 145
145.169377437983655 -1.443507240902501 22.343700019408772 145 142 133
142.796518151320697 -1.476053677723317 19.820859583115862 155 152 143
140.855913224431731 -1.345907821441099 17.754708778771374 154 151 142
138.915345443400213 -1.230328282169287 15.688690142394563 152 149 140
137.046856647726884 -1.098681519398649 13.698882663405925 150 147 138
134.890237092153853 -1.104656725199398 11.404897024699693 147 145 132
131.725027742435088 -1.563241980497473 8.046051840080850 148 146 133
129.712538511049274 -1.542498956992011 5.904557494005473 148 146 132
128.780791535148694 -1.061099818052791 4.904181266377577 149 147 132
126.552248303877249 -1.162428083681867 2.534726299617290 148 147 130
124.107580028482261 -1.377253829809897 -0.062743555027339 147 145 129
122.095238273144503 -1.415232828599924 -2.203703997863670 147 144 129
121.019625579774925 -1.041841330348884 -3.355861352321796 146 143 128
118.214766852323862 -1.470278046100972 -6.333112948915442 147 144 129
116.346643137095498 -1.486250814204614 -8.321575559148556 145 142 127
114.622676322657398 -1.448968001204112 -10.157832753199926 147 144 129
113.114937182054859 -1.322902198594532 -11.765869758399134 148 142 126
111.174881997576307 -1.413078534179224 -13.830015670627148 148 142 126
110.027566920840428 -1.138974800960172 -15.057707716735166 147 141 125
108.303800054450036 -1.151068224553089 -16.893552310839425 143 138 122
106.580078833104409 -1.176042642649882 -18.729286150829381 145 140 125
105.000542870702560 -1.143388557420920 -20.412873153766185 142 139 123
103.132771358672613 -1.264623877851365 -22.400420736471716 142 140 124
101.192961228432651 -1.435620963619554 -24.463851953225003 143 142 124
98.532417271392561 -1.981835229354438 -27.287213127984302 142 141 123
96.808880147694268 -2.075539788360466 -29.122327565790243 142 141 123
95.229545728788494 -2.108879155657279 -30.805331682685619 141 140 122
94.371093010962952 -1.785099222580959 -31.728290293557450 141 138 121
92.791880318925408 -1.839255821922056 -33.411138361942250 144 141 124
91.356892179411233 -1.830310796959270 -34.941914728771366 145 142 125
89.273146551098776 -2.171416418028030 -37.156454453848255 144 141 124
87.694063859479698 -2.262240010418673 -38.838987282208222 140 137 120
86.763888302543293 -2.020532284151296 -39.837648007161022 143 140 123
85.184919691298930 -2.132420519261541 -41.520018582231728 145 142 125
83.605995043206079 -2.256067995711060 -43.202289145345020 147 141 125
82.027113211230670 -2.391473205091997 -44.884459163290501 147 140 124
81.385661421523821 -2.027094740989733 -45.579071520670766 148 141 125
80.167448160886082 -1.984336264224457 -46.881323650596642 152 143 128
78.444515562582055 -2.229869975045337 -48.715164437547060 145 142 125
77.226419869739388 -2.207053356553847 -50.017267539937961 145 142 125
76.008392496731787 -2.193245246286171 -51.319310597203213 145 142 125
75.655898053645785 -1.699808009131255 -51.710052085846712 142 139 122
74.582295543772645 -1.618727965462532 -52.860162196552523 143 140 123
73.076001607513845 -1.793160843117627 -54.465797398682469 140 137 120
71.786143582282307 -1.854158435208091 -55.843565790385554 141 138 121
70.568480013801988 -1.882882892771608 -57.145345081402439 141 138 121
69.134463987292690 -2.046880265366498 -58.674806320784114 142 139 122
67.339776410580171 -2.433361508247595 -60.583727813186357 143 140 123
65.617238935168047 -2.790593872778603 -62.416607855218615 140 137 120
65.409865524115105 -2.259371736298078 -62.655445917262739 140 137 118
64.625427092350591 -2.074978958460465 -63.501519041954992 140 137 118
64.201886334942898 -1.678910000764948 -63.968128841659734 141 138 119
62.912547995588554 -1.810709947181568 -65.345417045104028 143 140 121
62.272756482478172 -1.555839434180772 -66.039696452764304 142 139 120
61.705260215654178 -1.261228327011647 -66.658111843419903 141 138 119
60.488325579210482 -1.371794416256183 -67.959397415995937 140 137 118
58.694014584298046 -1.850149513459186 -69.867553360104552 139 136 117
56.755320097612852 -2.432164495886938 -71.927287483222301 140 137 118
55.899409175838855 -2.347607134419235 -72.848999642507977 142 139 120
55.837715546213900 -1.766739403586753 -72.936323669840334 143 140 123
55.631827861391073 -1.277888501504300 -73.175436349819137 142 139 124
54.487494318638539 -1.391329335551335 -74.400565560648374 142 139 122
53.271012188563574 -1.559697774370371 -75.701472622098578 145 142 125
52.199001820454981 -1.643445272963886 -76.850647755272348 144 141 124
51.054839919558660 -1.782119227103234 -78.075599341796135 142 139 120
50.560735967062499 -1.503045515812078 -78.618106544916799 140 137 118
49.416728736678891 -1.656030712193380 -79.842984812477965 138 135 116
48.778407108546588 -1.482063296880940 -80.537134631846669 139 136 117
47.779018378092559 -1.553533654387076 -81.610319197408558 139 136 117
46.129500060099161 -2.068498547562816 -83.365648848985359 143 140 121
45.419202908420303 -1.962073755324252 -84.135529459371583 143 138 119
44.853533190581487 -1.762643224702952 -84.753838923311775 143 138 119
44.071215980835362 -1.715058144617533 -85.599518602987445 146 141 122
43.433538405323930 -1.573898196934278 -86.293638831176992 145 140 121
43.157360587053972 -1.187869154900013 -86.608925440110852 146 141 122
42.592250800063738 -1.004098185482394 -87.227341581319564 143 138 119
41.376698052787518 -1.278108953067139 -88.527605826754865 140 137 118
40.378050859381787 -1.408946478810507 -89.600534045012665 138 135 116
205.929036054425694 -1.632960761702974 85.291312228238525 156 155 150
202.825381995878217 -1.494050539964108 82.007727767136686 173 172 167
197.337084381989541 -2.183167777660559 76.215128709265514 186 183 176
193.727547171702042 -2.272462635923273 72.399893849019293 185 182 175
189.612146571042842 -2.563370760112277 68.052725412956875 181 178 169
188.459548284682199 -1.852053051626000 66.823060373139270 171 168 159
185.428098525280575 -1.811618384767907 63.616806166098314 171 168 159
178.855608326719619 -3.055272077323125 56.685705972931316 173 170 161
175.535038627036272 -3.177716890228574 53.176006814927945 173 170 161
173.587549447113815 -2.825701470783667 51.110865598766054 171 168 159
170.483783953764686 -2.913187233432888 47.829664855290190 171 168 159
167.524554322215323 -2.970317294792067 44.700723954314981 170 167 158
164.782137813484525 -2.968362156396668 41.800028859675052 168 165 156
162.112000030868444 -2.959614465986223 38.975544835982873 165 162 153
161.465517234461629 -2.196960488668651 38.279239645029008 168 165 156
159.445896046513838 -1.969463142758006 36.139028976421656 164 162 150
157.715406407655365 -1.644369785555747 34.302929700699565 159 157 145
154.467152538045127 -1.929789885678904 30.871171368890657 158 156 144
151.146613540317134 -2.268295102082994 27.363681541449665 158 156 144
148.837966769984405 -2.225731107611630 24.920207792965499 160 158 146
148.047222719516640 -1.585808290260210 24.072462255111645 160 157 147
145.883210402303860 -1.513047207394550 21.781202816060642 151 148 139
143.574661791448023 -1.516112002154498 19.338151788468650 150 147 138
141.266136927151194 -1.536460943478276 16.895267315007516 154 151 142
139.319061737531342 -1.422313665947133 14.832376543583365 152 149 140
137.588883614984212 -1.230846774420574 12.997503723865066 150 147 138
135.714175626950663 -1.114105404471423 11.010824913880185 148 146 133
133.550350765355461 -1.136056769479685 8.720450719509614 149 147 134
131.386555151642710 -1.174189567867843 6.430229096675049 149 147 134
129.656543091041499 -1.038217380211325 4.595848068356133 149 147 133
127.781990377748699 -0.979130498086256 2.609688442073718 148 146 131
125.835183297424535 -0.966298920887304 0.547712301481681 147 144 129
123.599225324737304 -1.098123500543118 -1.817881564520547 145 142 127
121.652487162851969 -1.115453326090409 -3.879580208987250 146 143 128
118.765878676915804 -1.577269847756807 -6.928238291145931 147 144 129
116.963796475715029 -1.560507766590253 -8.837773006646131 145 142 127
115.161757285810722 -1.557185123038139 -10.747189959720345 147 144 129
113.504372747381595 -1.499519681697508 -12.504650810101850 148 142 126
111.774730252922268 -1.488361045622190 -14.337923869008932 147 141 125
110.406682501877214 -1.317918091137835 -15.791527782626872 147 141 125
108.821764754228028 -1.261754883112712 -17.472782149159485 145 139 123
107.092272863453715 -1.287340423490446 -19.305749030086332 145 139 123
105.941352577827786 -1.043793238686248 -20.531401822715793 144 141 125
104.501238697229468 -0.950856339489898 -22.060590623135255 137 135 120
101.614783763903290 -1.584540013593530 -25.107553049397524 141 140 122
99.162235447918718 -2.023404291735122 -27.698946978477238 145 144 126
96.998982128594733 -2.335224892019783 -29.986610827054761 141 140 122
95.052722302547380 -2.553342893600863 -32.046471492183457 140 139 119
94.191427330183814 -2.232650141193455 -32.968038600325229 140 139 121
93.330228898171200 -1.918270030471941 -33.889586913847950 145 144 126
91.890453922614896 -1.909667512131094 -35.418069749129671 144 143 125
90.233726104918986 -2.024859652151632 -37.174065462537754 142 141 123
89.083415505055399 -1.886501681126927 -38.398927161326185 142 141 123
87.860840401476423 -1.794879594586560 -39.699595578222528 145 143 125
85.987234238393242 -2.059026436645338 -41.682880823778987 146 143 126
84.113649851592768 -2.337120273931024 -43.666032923606224 145 142 125
82.529487109161082 -2.472863806414650 -45.345673089561188 144 140 123
81.379485737992198 -2.384275382513316 -46.570170419346596 146 140 124
80.880767148021306 -1.947557615064794 -47.112092705180629 146 140 124
79.441506737639699 -2.033020707671661 -48.639853442090185 146 143 126
78.219384746794077 -2.008627709217119 -49.940046603788346 146 143 126
76.707868844613898 -2.155019530946480 -51.543472275996209 144 141 124
76.281929539190500 -1.701829262901180 -52.009522596894499 143 140 123
74.553429825888372 -1.989481961347488 -53.840266543213886 143 140 123
73.114452833871951 -2.124906925280486 -55.367648583857601 143 140 123
71.603142234296669 -2.312521079713258 -56.970748149949060 145 142 125
70.670930217659077 -2.176789082548130 -57.967343778143885 143 140 123
69.449266166937761 -2.216222077571198 -59.267099023813586 141 138 121
67.865715716425498 -2.476487123169030 -60.945750345635332 143 140 123
67.223309580159437 -2.194132201338275 -61.639061837367194 141 138 121
66.653424178150232 -1.873439097287399 -62.256602749035835 141 138 119
65.866465850932556 -1.686353799306961 -63.101498079843196 140 137 118
64.717588313419355 -1.722294135391081 -64.325251210712906 140 137 118
63.786008079117778 -1.635424063329265 -65.321646121070501 142 139 120
63.071761900029173 -1.423255962695775 -66.090725999274184 142 139 120
62.212797139663039 -1.304794636629783 -67.011326203184524 141 138 121
60.484862768172661 -1.727451279461706 -68.840950943669100 140 137 120
59.915754232585400 -1.445317590507081 -69.458466594140958 139 136 119
58.332740287206164 -1.798984283447550 -71.136413148102292 136 133 116
57.256786767761838 -1.846548874983171 -72.284074340032191 138 135 118
56.180903765965482 -1.901976594539262 -73.431688328236277 141 138 122
55.612210186886017 -1.643536315615418 -74.049158604307138 141 138 123
55.261005672709217 -1.250350322224949 -74.439485254105307 141 138 121
54.620146803081226 -1.045530689413291 -75.132738843212991 143 140 123
53.399731055043816 -1.219588870291035 -76.431705507939910 142 139 121
52.904021123715012 -0.931875365408962 -76.973533350027566 141 138 119
52.118576778241561 -0.836963714878929 -77.818204174854628 139 136 117
50.970857510474815 -0.985825014386261 -79.041349065797675 139 136 117
49.243333820181448 -1.526373103070298 -80.869956758883404 138 135 116
47.878210702595823 -1.838847155295356 -82.319988899776860 140 137 118
47.020556903018218 -1.822120779339905 -83.240169053886149 141 138 119
45.003006037463294 -2.591549214333301 -85.371108299754468 141 138 119
45.305528764384931 -1.807172416158366 -85.080472580091453 140 137 118
44.375641768835791 -1.858255053725637 -86.076257513522563 142 139 120
42.285552275275677 -2.709505309143618 -88.282511180213930 141 138 119
41.935912818691534 -2.379557548424917 -88.672935605302825 143 140 121
42.674405586907241 -1.299547895693009 -87.928756246976917 140 137 118
41.164631659856923 -1.776763087349098 -89.529609942977856 140 137 118
39.799914668294889 -2.163769104356575 -90.979069178213734 137 134 115
206.335778654262270 -1.862452573031764 84.101360272890133 151 150 146
204.671814857246773 -1.243569568229091 82.341270022952386 168 167 162
198.657509548307615 -2.100041682057875 76.026021716758521 187 185 180
194.600814199966521 -2.335924773742029 71.761061373830728 184 181 176
191.051642723854684 -2.427716911375703 68.027832343942777 182 179 170
187.937505653653091 -2.394911831416608 64.750355113210446 170 167 158
184.895871598375322 -2.359954672631186 61.549029421150095 172 169 160
180.404020373349340 -2.862523072157843 56.829837974360771 173 170 161
177.072312931846511 -2.982561613097392 53.325442304900690 173 170 161
175.190846276092628 -2.601920352817308 51.339280364243223 172 169 160
172.584272691361718 -2.500871896722712 48.594296232933971 171 168 159
169.470106613386690 -2.607083238750720 45.318263845288442 170 167 158
166.428452093162491 -2.709492352025764 42.118361923633501 168 165 156
164.982164266243643 -2.232594950866350 40.588174419639387 166 163 154
161.868012161403811 -2.402159816239695 37.312787476935739 168 165 156
160.421792719770735 -1.953103164723220 35.782853836477443 161 159 147
158.685541559543537 -1.627560687612746 33.949506229812414 161 159 147
154.773692445468726 -2.168530946090534 29.840110130214327 159 157 145
152.457308049956509 -2.106835121254925 27.400141101552606 160 158 146
150.648612114647051 -1.859473107019372 25.491396692825447 161 159 147
148.404806579829938 -1.801200644952979 23.127600309299964 161 158 149
146.596184236764714 -1.582448265948473 21.219115187643155 160 157 148
143.989800109770499 -1.705083340557393 18.476342907352574 154 151 142
141.310899653533397 -1.877255312499746 15.657913213655604 155 152 143
139.502372274023543 -1.705192675913239 13.749863262732987 150 147 138
137.838950975894221 -1.485355505029164 11.993621062419493 149 146 137
136.538244406602360 -1.123422145720183 10.616689136264142 148 146 133
134.439720982298041 -1.113995621924806 8.405610854676382 149 147 134
132.268693383725235 -1.151645527301407 6.118844017949328 150 148 135
130.387845396484238 -1.078627990835518 4.135552633922089 147 145 132
128.361959870817316 -1.083576609826162 2.000731486094708 147 145 132
126.626272714060747 -0.974589541454650 0.169343175712868 148 145 131
124.310292284403062 -1.138723825691713 -2.268494526068935 144 141 126
122.211965233960782 -1.221715663148355 -4.478715443619819 145 142 127
119.605845612992965 -1.551824155101496 -7.219478634576376 147 144 129
118.160496114648396 -1.367870815081267 -8.747099611360312 145 142 127
116.207359986208701 -1.429940834852126 -10.805276957263118 147 144 129
114.399362371465571 -1.438760284872871 -12.711718435649402 146 143 126
112.518853637399630 -1.495172116969290 -14.693839835722429 143 140 123
111.363937743884648 -1.221239225554839 -15.917893918576226 145 142 125
109.556082025038691 -1.268170035813568 -17.824010980096944 145 142 125
107.748267502261825 -1.328525414064961 -19.730009563853571 141 138 121
106.013055191672365 -1.367053721053132 -21.560106589150195 143 140 125
104.713270096131453 -1.205325644158714 -22.935418531643052 137 135 120
102.397630109025727 -1.554321426682640 -25.371516227706508 138 137 119
99.719155166645848 -2.100886947859744 -28.186295664892810 147 146 128
97.838938869031139 -2.267673114866841 -30.167420827085152 142 141 123
95.958753253639870 -2.448418175264589 -32.148416981645966 142 141 121
95.239804410331189 -2.052945928741117 -32.917133963063918 143 142 124
94.158073368091053 -1.848487045764051 -34.064625412120876 144 143 125
92.786103723082178 -1.801701346164052 -35.515080238865067 144 143 125
91.269030809529184 -1.840453035643027 -37.116955449835046 142 141 123
90.260110094161192 -1.624570832814026 -38.188537810744009 142 141 123
88.815747703036550 -1.645588606118578 -39.714521145600344 144 142 124
86.500346369228922 -2.139580201882217 -42.149240497838235 144 141 124
84.547902751490724 -2.456805668774044 -44.205122695290612 144 141 124
83.321442506060436 -2.397795008342837 -45.503596787850881 142 139 122
82.312852674441544 -2.229761486966241 -46.574844911895951 142 139 122
81.159145082660288 -2.148341207111148 -47.797495413136630 143 140 123
80.078119709788695 -2.035489829398331 -48.944381489929299 142 139 122
78.779348540071808 -2.051058701383525 -50.318353484499823 145 142 125
77.335414829124645 -2.157069970136168 -51.843667017737914 143 140 123
76.762920311438876 -1.785115441142846 -52.460487397008649 144 141 124
74.810788181373709 -2.196080889193739 -54.515553696379072 144 141 124
73.003899887047538 -2.539004897545861 -56.419086763791825 143 140 125
71.414899974460084 -2.770697892536703 -58.095425188106276 144 141 126
70.697487340088173 -2.512330460635159 -58.863465797881418 142 139 124
69.762289142244398 -2.385383779868590 -59.858542415547930 143 140 125
69.190370950337226 -2.053388578959761 -60.475227185657815 144 141 126
68.255378551542051 -1.938641598330794 -61.470276679241636 142 139 124
67.465770021793375 -1.744839321086591 -62.313973303484175 141 138 121
66.095078077738364 -1.902269975200842 -63.762937276466886 139 136 119
64.724430638649551 -2.069787233248980 -65.211818713991505 139 136 119
63.862427797245289 -1.941163739989603 -66.131070114638845 143 140 123
63.291172352844967 -1.642666141277572 -66.747727133237163 142 139 122
62.211390449001840 -1.658267419950679 -67.893885853629570 141 138 121
61.495035270461486 -1.458857685770320 -68.661825465449368 141 138 121
60.415424163777530 -1.488812281066378 -69.807918148718784 141 138 121
59.553925042498378 -1.391241716032859 -70.727090883957487 140 137 120
58.619842158031844 -1.345278200672594 -71.721867463316727 139 136 119
57.685850055119488 -1.306065853055693 -72.716617979099226 144 141 124
57.551582367915302 -0.768015892336894 -72.879640966151555 145 142 124
56.399728341565222 -0.877961796414318 -74.101208378475690 142 139 120
55.247934079206104 -0.996316752536887 -75.322717823091182 139 136 118
53.732651615421233 -1.357063031818164 -76.922135127024035 139 136 118
53.089948099864969 -1.164101269089549 -77.614384184828879 138 135 116
52.665534834313220 -0.833584262941146 -78.079901820460492 140 137 118
51.659481387884114 -0.886957169015923 -79.150084294903564 140 137 118
49.780730151213831 -1.522562353456859 -81.127084547569012 137 134 115
48.483810743995306 -1.786628861710239 -82.499384507966795 140 137 118
47.114174036982718 -2.108692364397516 -83.947158654118738 139 136 117
46.181039801344127 -2.148336159022246 -84.941507864778458 141 138 119
45.320740758776353 -2.145676225719062 -85.860277750747770 139 136 117
44.533294399073782 -2.099869422065524 -86.703485357972880 140 137 118
43.236582229950102 -2.406813336042093 -88.075443101687995 138 135 116
41.867110420405439 -2.773164246631191 -89.522840261685758 141 138 119
41.953236244362344 -2.146509837939174 -89.459634144364458 140 137 118
40.947822661947029 -2.275245362735490 -90.529346982265025 139 136 117
40.088056948022455 -2.309825238324728 -91.447988682768539 135 132 113
206.232717999865713 -1.089474738553823 82.368965328802545 167 166 162
199.397978192680313 -2.211850912383644 75.229499424298695 184 182 177
196.200712149216969 -2.152765619242788 71.880661409075714 187 184 178
193.003435794804318 -2.117543491057186 68.532073962120251 183 180 171
189.005863185076436 -2.383291500931179 64.349995803221873 173 170 161
185.299277941869633 -2.577011552371326 60.471404405323000 171 168 159
182.538489098883758 -2.463832640255660 57.578353690238714 173 170 161
179.704947802132892 -2.397251540868594 54.609728269435664 173 170 161
175.634535402272775 -2.798515519162884 50.353032465482499 172 169 160
173.528565192122556 -2.513318961123273 48.142678061220550 172 169 160
171.277100591171120 -2.297458532333389 45.780923616573773 171 168 159
168.516333986537575 -2.288016068688394 42.888930074114739 170 167 158
165.537289256915585 -2.381235909818179 39.769840138370114 169 166 157
163.285871247020509 -2.220311384825430 37.408628887576867 168 165 156
160.597893315358732 -2.243588041121396 34.593009172725488 160 158 146
157.982689884538217 -2.258707992411093 31.853349309980103 160 158 146
155.513030842342857 -2.236404805300484 29.265394065278429 160 158 146
153.843830579656128 -1.916564278779393 27.510887117023628 159 157 145
151.228682068471358 -1.986024482717294 24.771760332431427 160 158 146
148.977395802281876 -1.928632649428293 22.411551769907078 159 156 146
146.653363511946225 -1.917521340348416 19.975762159746296 158 155 146
144.329353953818952 -1.923695587923747 17.540139603493117 155 152 143
141.641496876199142 -2.097542813240302 14.726011970989475 153 150 141
139.535851916363669 -2.048587819315003 12.517933721188797 151 148 139
138.449114630776364 -1.586578482836548 11.370186145589031 149 146 136
136.780222684700760 -1.379749483767472 9.616694984148523 147 145 132
134.674700860511393 -1.372288715689818 7.408984947588408 149 147 134
132.641991972571191 -1.349027469474008 5.277137694570030 151 149 136
130.390968341465111 -1.435981797211707 2.918289315870737 147 145 133
128.139969203021280 -1.539654132251030 0.559601306813363 145 143 131
126.471284887275360 -1.402022241620096 -1.193276903666458 146 144 129
125.312167678097026 -1.049080626650112 -2.416134367989883 144 141 126
123.498017310618280 -0.999856867935180 -4.320229858463307 145 142 127
120.737619905535396 -1.393966941698746 -7.208246055726931 145 142 127
118.850740107208779 -1.408503766851132 -9.187750600978490 147 144 129
117.327876277856134 -1.268957949954745 -10.788690763481583 147 144 129
115.732273255340417 -1.174553930716547 -12.465226963024406 146 143 126
114.136724505834195 -1.091947777957437 -14.141667685222615 145 142 125
112.614031224620675 -0.986706525309118 -15.742336323257916 146 143 126
110.727379618202008 -1.066223142858658 -17.721281165089835 144 141 124
108.695154234019157 -1.229657700779874 -19.851437970948496 143 140 123
107.099801961635308 -1.196665158983838 -21.527461989307199 139 137 121
105.504502614125911 -1.175456044297722 -23.203390034009601 143 141 126
102.962698949362974 -1.631331959517670 -25.862768285769675 138 137 119
101.003402193138001 -1.817554979599509 -27.916720439255556 146 145 127
98.752865585714673 -2.163636401359684 -30.273134483062222 144 143 125
97.448984692492431 -2.050459162705269 -31.645987251815711 142 141 121
96.217994174860735 -1.909986297909952 -32.943132609075974 143 142 124
94.695780571091149 -1.927182274947118 -34.542770415243922 142 141 123
93.319273581653349 -1.880738472449907 -35.991051072647451 142 141 123
92.234147363613104 -1.693604912302362 -37.136739942987930 142 141 123
91.294769766779794 -1.438452692985669 -38.131136834516866 142 141 123
89.262963553617212 -1.763901373361222 -40.259826477603468 143 141 124
87.449681780502672 -1.988818694587337 -42.161515628790909 143 140 123
86.000629692882086 -2.033145271733753 -43.685015499691247 142 139 122
84.697319025732227 -2.009989349864108 -45.057214428006660 143 140 123
83.175533592369746 -2.114435060472788 -46.656158964091645 143 140 123
81.653794318530643 -2.230086452419453 -48.255010237027051 144 141 124
80.277805909891839 -2.277153923856694 -49.702576423188617 142 139 122
79.047586494253608 -2.253990556991495 -50.998883147406019 144 141 124
77.963154973073614 -2.158948068584583 -52.143956418679153 145 142 125
77.024531044628887 -1.990376743986926 -53.137822641938016 146 143 126
75.794537121680136 -1.992577866235054 -54.433976151656623 144 141 124
74.054521433831837 -2.292646034315842 -56.259083096560630 144 141 126
72.824636319016022 -2.314767194605930 -57.555083612758551 142 139 124
71.157553548648693 -2.596785617953182 -59.304408325561838 143 140 125
70.292180240137654 -2.428086400389672 -60.222459825860881 145 142 127
69.426908350201757 -2.265625894826969 -61.140495626261981 145 142 127
68.707515442766166 -2.024113779741745 -61.907415379947821 144 141 126
67.405099004396064 -2.131080485379633 -63.278702686673483 140 137 120
66.758806500053936 -1.858831468805841 -63.970050928079502 139 136 119
65.966838933253612 -1.678091332438660 -64.812484541904780 141 138 121
64.591740658522113 -1.852994037727478 -66.259160692795490 144 141 124
62.560498387964600 -2.434192074065481 -68.385487567492987 143 140 123
63.154117643944048 -1.435654172907664 -67.792880357672203 142 139 122
61.852138168397971 -1.591252964815081 -69.163876111420450 142 139 122
60.987743704719335 -1.487257727980446 -70.081729857153988 142 139 122
59.467100835398824 -1.795642080537913 -71.679121749068685 142 139 122
59.113393616144322 -1.388686757960713 -72.068392847958648 144 141 124
58.905729903626110 -0.892671546043610 -72.306729628215919 143 140 122
57.677062798265851 -1.041337372630710 -73.602010248141625 145 142 123
56.813183708221530 -0.967762805242842 -74.519797411622591 143 140 121
55.584641835631771 -1.132970976828677 -75.814967663809199 139 136 117
54.137273573899364 -1.447538705615082 -77.336491343311451 139 136 117
53.784368829415968 -1.066594784763702 -77.725878594956328 141 138 119
53.139763877398792 -0.877347066343240 -78.417179781552022 141 138 119
52.422316673188831 -0.740233057328105 -79.183955730840836 141 138 119
50.756249052030782 -1.231052718542147 -80.931616791512084 140 137 118
49.820011261463648 -1.252254981806124 -81.924671100078598 140 137 118
48.518898833757433 -1.522550421167543 -83.294901016330556 139 136 117
47.728795130820430 -1.461097208310011 -84.136998416010869 138 137 117
46.719786163728841 -1.552348071964691 -85.205377082654110 139 137 118
44.542681357373240 -2.439913567246845 -87.480487995880964 140 137 118
43.752756989869880 -2.401438551583470 -88.322434662891112 139 136 117
42.451773649836298 -2.717698800604622 -89.692253195366590 141 136 117
41.808068634633301 -2.592073510641628 -90.383330011032200 140 136 117
41.894857375797883 -1.966518050790586 -90.320429718998241 136 133 114
41.543651689060880 -1.644116297511000 -90.710027190105222 134 131 112
206.848218572017885 -1.248650187060382 81.410997128175836 162 161 157
201.669487737879024 -1.811649768325120 76.023298616187219 182 179 174
197.804624234696689 -1.969541333293727 71.998340424877313 187 184 178
194.012730203573824 -2.131261354661456 68.049372181397956 184 181 172
190.512802595070468 -2.220426310406395 64.403416896057479 177 174 165
186.355867606162377 -2.564755645214151 60.076668260322919 173 171 159
184.388894938457042 -2.168051125456155 58.020387870573188 173 171 159
181.983942697344389 -1.941982686729381 55.510238540852640 173 171 159
178.118965939057574 -2.259268571383373 51.486975256201902 172 169 160
174.764983717884689 -2.419460681191133 47.993649085840104 171 168 159
171.337985404438911 -2.631391528117071 44.424927251635580 171 168 159
168.641025066890450 -2.597900582318390 41.613020351525336 169 166 157
165.506034586266338 -2.748597868662009 38.347408202899686 170 167 158
163.393143838767600 -2.535741704056250 36.141109195993948 167 164 155
160.696210791914382 -2.561786510609442 33.329802071515786 164 162 150
157.415207143298744 -2.833244413084288 29.913567401811832 161 159 147
155.959471269079984 -2.417920269602695 28.388533615733877 161 159 147
152.897513662379311 -2.645156678119474 25.199629531113914 160 158 146
151.952949587562074 -2.054443498460576 24.204259735338638 160 158 146
149.694186754000668 -1.997388475017448 21.847631403970411 160 157 148
146.924334147301465 -2.163801929059324 18.961794747058519 158 155 146
144.665611706339178 -2.142134116696420 16.605511350350014 153 150 141
142.918048600660256 -1.926677418805785 14.778708507842907 151 148 139
140.805427435608976 -1.875887156066061 12.573948759361173 152 149 140
139.496080756909748 -1.503935686792912 11.201047110491913 149 146 137
137.894703834656355 -1.265209227481601 9.525787541415269 147 145 132
136.001279075927357 -1.162965210820678 7.548211998915548 150 148 135
133.158546605060138 -1.483369633615769 4.587967040689733 152 150 137
131.192154112013583 -1.444371181569292 2.535091145622971 149 147 135
129.006708479225040 -1.515848780856424 0.255570052490810 146 144 132
127.551607980931720 -1.280997498051269 -1.267909997435282 146 142 130
126.242635892360951 -0.991830156004607 -2.640138710329239 146 143 128
124.349449744235486 -0.974651307316469 -4.616952784816789 147 144 129
121.433782947156814 -1.434385157462871 -7.651730908512633 145 142 127
119.467611784495389 -1.482323943764282 -9.703817798609151 146 143 128
118.158844947382107 -1.242292599053323 -11.075638921592486 145 142 127
116.631019131858196 -1.113531838873081 -12.674094270912803 143 142 124
114.957161745315503 -1.064333668545522 -14.423587409346766 146 145 127
113.137260482424836 -1.096329281483254 -16.324095659374024 150 148 131
111.463499106377654 -1.072349997854470 -18.073375138230290 146 144 127
109.789787265492521 -1.060703604867305 -19.822551365899500 143 141 124
107.823910351236364 -1.202368838750066 -21.873814250015386 139 137 121
105.858063975184095 -1.358543258515647 -23.924942393164258 145 143 128
103.600014452223661 -1.672388557094294 -26.278094106540067 138 137 119
101.999518516679288 -1.678349815144567 -27.951256443043206 145 144 126
100.252947487972435 -1.768760184569266 -29.775385448394928 143 142 123
98.652547460905851 -1.798816938885067 -31.448345640137461 142 141 121
97.052196760933199 -1.840645149494222 -33.121208260279531 142 141 123
95.524965155822059 -1.857086770868329 -34.718453236767829 141 140 122
94.509298823478289 -1.622744890441443 -35.786998532372507 142 141 123
93.128343355174962 -1.584307000301335 -37.233068643857138 142 141 123
91.528214979956957 -1.669918989811714 -38.905586934968483 142 141 123
89.562724731195203 -1.958539584659232 -40.955522113177096 143 140 123
88.547347083457538 -1.760853517545877 -42.023828197807035 141 138 121
87.239710421844407 -1.725733256817948 -43.394080740149803 142 139 122
85.639778737063338 -1.856461583483989 -45.066228722169143 145 142 125
83.893701332977955 -2.077634130827887 -46.889247875061159 145 142 125
82.220747764145884 -2.272037352058144 -48.636665885291791 144 141 124
81.132624930028754 -2.159595060679932 -49.780152350021524 144 141 124
79.679069103561815 -2.255902034324395 -51.300962587361425 144 141 124
79.102840800812444 -1.877555267710576 -51.916062535169061 147 144 127
77.722533077008677 -1.951153692548601 -53.361289279329668 145 142 125
76.488506730055363 -1.952868016572406 -54.655518702085260 143 140 123
75.108313769474677 -2.046113323116966 -56.100598113355261 143 140 125
74.020656044158187 -1.983288661067161 -57.243796345356515 141 138 123
73.006203691444142 -1.886540744552423 -58.311506080863097 142 139 124
71.991839445227569 -1.797132794407407 -59.379182412254863 144 141 126
70.831298593829658 -1.799796650311263 -60.597698385267762 145 142 127
69.012603277122764 -2.194685138410844 -62.495048117149906 143 140 125
67.559607159434648 -2.388377443823812 -64.015123681108946 140 137 120
66.984380712937963 -2.074372012970835 -64.630040615822537 138 135 118
66.482438881766683 -1.720909800480448 -65.169563922863460 141 138 121
65.395418473166686 -1.720882389177681 -66.312420641348780 145 142 125
63.650057464979682 -2.124942935992026 -68.133899957529394 144 141 124
62.709472470783012 -2.054548744432000 -69.125817427104124 143 140 123
62.281145644834439 -1.678876148483488 -69.589927638026438 143 140 123
61.121264143879358 -1.754629598152253 -70.808006694125453 143 140 123
59.741918224929165 -1.974197570950935 -72.252191024545311 145 142 125
59.753042211715325 -1.341075287370669 -72.264029747412195 145 142 125
58.300668891154757 -1.621221721360788 -73.783513339606031 143 140 122
57.507034252048555 -1.498323284194176 -74.624554038087382 146 143 124
56.493922110431086 -1.519786228118830 -75.691688122218096 144 141 122
55.700493239923787 -1.408985389132747 -76.532702733036444 141 138 119
54.101900807100094 -1.818605255455388 -78.202620637880813 140 137 118
53.894330309930993 -1.345493466967747 -78.440766255598533 142 139 120
53.174433811475737 -1.205039905994916 -79.206404846601885 142 139 120
52.015317812681999 -1.355462306519479 -80.424081511289302 142 139 120
50.563336731419838 -1.705954836379972 -81.943028641715387 141 138 119
49.550769630316509 -1.777918248434549 -83.009903644672164 140 137 118
48.904480406041657 -1.614792152234094 -83.700130198213088 140 137 118
48.844301699973670 -1.066104766828466 -83.787847711320836 139 138 118
46.953016169617783 -1.743316658913687 -85.758423322107888 140 138 119
45.867507231738514 -1.892060138572396 -86.900471749488361 141 138 119
44.562253396387035 -2.197443322064769 -88.268359254741398 142 139 120
43.989742497331321 -2.013566027525022 -88.883235823764778 142 137 118
44.736410969966599 -0.930694480748543 -88.142997153322369 140 136 117
41.819142416195675 -2.363720612655968 -91.166990415710757 136 133 114
42.346371947575392 -1.434613497087852 -90.652766788171817 134 131 112
208.412995151428959 -1.094365571177599 81.436837441576898 157 156 152
203.290262513545969 -1.630781503931673 76.132934830517058 181 178 173
198.240709589177982 -2.180529188733568 70.905019410692404 187 184 179
193.117855678698334 -2.792618950636772 65.601953764765824 184 181 172
191.290853981381474 -2.309337027195949 63.699538327694711 178 175 166
188.584957622869183 -2.145075464423460 60.890560301729408 173 171 160
183.754973336600187 -2.746977895699031 55.890717507823638 173 171 159
181.195548307155690 -2.578682872385579 53.233344351499426 173 171 159
178.709380071474584 -2.403073500713113 50.651708990800444 173 170 161
174.904764604607038 -2.723636098637217 46.710461685012064 172 169 160
171.686114034241825 -2.857866660213928 43.373843851365137 171 168 159
168.906955025977254 -2.853417939934928 40.490700574868356 170 167 158
166.713810829602380 -2.650687074082443 38.212039882685332 170 167 158
164.007924110445515 -2.657577696229862 35.404819000704350 166 163 154
162.254342499858751 -2.321794265191117 33.579656806804138 164 162 150
159.182213716490423 -2.506051256241280 30.395176169503117 165 163 151
154.718214029313344 -3.253450869141921 25.776039698066313 165 163 151
153.843774614279937 -2.626896835856658 24.857612462426800 164 162 150
152.969408974308749 -2.006773041216280 23.939216122727117 161 159 147
150.629916492397911 -1.978225094622241 21.510643131153415 160 158 146
147.924138421869316 -2.114609486311760 18.704703216463088 157 155 143
