ply
format ascii 1.0
element vertex 682
property double x
property double y
property double z
property uchar red
property uchar green
property uchar blue
end_header
54.616656418509152 -1.661279832259576 -81.000251740729738 145 142 125
54.036128194695578 -1.432426587866860 -81.611755809115863 145 142 125
53.010386941009216 -1.495052411199982 -82.672424459125580 144 141 124
51.613553431892086 -1.805990190413584 -84.107302271034371 143 140 123
49.548571235898194 -2.563387722940430 -86.215674371124607 142 139 122
49.116894984125082 -2.263075768291979 -86.677406503274540 143 142 122
48.982404929790292 -1.769368287963509 -86.839866671227384 141 140 120
48.848145082796677 -1.276196542945828 -87.002431454990528 140 139 119
45.743454496570720 -2.767952453600270 -90.157875894206398 142 141 121
44.421004891261532 -3.085365294842092 -91.517413174743410 143 141 121
43.915648981705530 -2.860407264614738 -92.053980440284562 143 141 121
45.639097103188519 -1.125085918023233 -90.346580295316500 142 140 120
43.945561294515215 -1.710134701834450 -92.080130721537955 140 137 117
210.944071420240505 -16.810803952687067 77.948860957651959 255 254 255
210.254557684020881 -1.921608493371381 77.016871147847127 139 140 135
205.063788097192912 -2.465471514836318 71.745593836576603 171 170 166
203.806561994347788 -1.741936060997271 70.454997737219855 184 183 179
197.502407338217438 -2.720868558344335 64.057955141607323 186 184 179
195.280321179820817 -2.361420832492886 61.791527019482970 185 182 177
191.202692677914854 -2.654318732345326 57.648026792450423 178 175 168
186.531237745196336 -3.182756397283913 52.904164544215234 175 172 164
185.051390729636068 -2.627910321351966 51.389229276168408 173 170 161
180.751001884238519 -3.081692109258633 47.021376237823119 173 170 164
177.267065717242872 -3.275080164161838 43.479702407316864 173 170 164
176.009962443127165 -2.689881403817054 42.190471516197505 173 170 164
174.827144697985034 -2.086773593637056 40.976377220720451 167 164 159
171.862843058969588 -2.148555628835827 37.960769520755775 172 169 164
168.378913485006933 -2.425301031795067 34.419950575223680 172 169 164
164.375327306914357 -2.922711080286191 30.353992785479164 165 162 153
162.895692496174490 -2.491944994294996 28.840233217042595 165 162 153
159.634435406652756 -2.754303805007146 25.525317084551631 166 163 154
157.041305045737488 -2.782148077578569 22.886087403575232 164 161 152
155.561776745689428 -2.394290989616718 21.372718564661085 162 159 150
154.527749910380749 -1.841718764473671 20.309681165936951 159 157 145
152.305919255109757 -1.768936363240577 18.046081602187655 158 156 144
149.415919046266595 -1.980456243741469 15.107328564496470 157 155 143
146.897144906114875 -2.062748757504866 12.543946470398197 154 152 140
145.046609747144203 -1.890398334048647 10.655989934844229 155 153 141
142.305129644750707 -2.098781078081090 7.867870865031250 152 150 138
140.528910764389593 -1.925741765332441 6.055213470362247 152 150 138
138.826990959986801 -1.734466846587914 4.317682829097862 151 149 137
137.199375931824591 -1.524136826225617 2.655267778762521 151 149 137
135.794583825732047 -1.230544177580326 1.217974596983055 151 149 137
133.795793824933469 -1.202862654307483 -0.819285950591507 150 148 136
130.980180500278323 -1.544336091022037 -3.681428856543590 149 147 135
130.243893351886356 -0.996035985927327 -4.443424386162803 147 145 133
127.948166884464882 -1.141446301700774 -6.780285364346668 144 142 130
125.132596926739041 -1.534948154686353 -9.641913462263631 146 144 131
122.762623511035486 -1.749001661357806 -12.053407260959773 146 144 131
120.021310198174504 -2.148303183903769 -14.839640899416793 146 144 130
117.577074721764220 -2.432085779138673 -17.325749111202896 146 143 126
115.801315528347331 -2.426351523212972 -19.136904263533609 145 142 125
115.065478336095964 -1.951647293422383 -19.898357491312282 145 142 125
113.512676408171458 -1.863783604557007 -21.484443379971111 147 144 127
112.108495394924148 -1.717232087729153 -22.920515338236186 148 145 128
109.812969758820330 -2.003663341182891 -25.256020794079603 147 144 127
108.037458226212649 -2.058221608818910 -27.066673805259171 142 139 122
106.484855333433231 -2.018302405852646 -28.652361394970569 139 136 119
104.858015732355582 -2.025668357004844 -30.312906552969366 139 136 119
102.339688839973533 -2.480755041539616 -32.872665251192188 143 140 123
100.415724386278640 -2.661354849611910 -34.832719254725077 145 142 125
99.160487230853605 -2.524031331026356 -36.118232685772881 145 142 127
98.053931192511982 -2.321443281014993 -37.253828684364294 144 141 126
96.575931086080089 -2.313905544598267 -38.764013787724707 142 139 124
95.246605973802772 -2.241644394066396 -40.124272959448177 139 136 121
94.214597921483971 -2.027074088829723 -41.184796913475736 143 140 125
92.662475640902770 -2.087591869032193 -42.769680578092391 145 142 127
91.036083383915539 -2.197838711196428 -44.429380739276553 145 142 127
89.707019197854166 -2.164673269134277 -45.789362305440136 144 141 126
88.972622329337781 -1.828536433738090 -46.550078235355812 142 139 124
87.643717286347098 -1.812298399199031 -47.909961692709658 142 139 124
86.091881660927797 -1.924464100838036 -49.494450854172158 143 140 125
84.317082703667268 -2.167503105885397 -51.303504632040529 143 140 125
83.062678505256500 -2.142237218850445 -52.588263081374322 143 140 125
80.990571933420526 -2.570812578914794 -54.696611636289248 142 139 124
79.736265196454099 -2.566574128631857 -55.981200264874218 145 142 127
78.258974312857688 -2.694305410517173 -57.490332266049393 144 141 126
77.673980924268349 -2.337500495839296 -58.101017285731729 142 139 122
76.568615797190233 -2.275519506085822 -59.235735673083326 141 138 121
75.909508597010017 -1.970529504015616 -59.921290427336913 139 136 119
74.060663438732462 -2.343595056734323 -61.804441212793421 142 139 122
72.732412125260581 -2.433485667167679 -63.163544976651139 145 142 125
72.594222648397562 -1.850606296902300 -63.325153244606270 144 141 124
71.712428537595869 -1.697631732336823 -64.235187227622561 142 139 122
70.235665339945243 -1.896452118430834 -65.743839916083743 142 139 122
68.089432864625365 -2.497176206974348 -67.925813764432405 142 139 122
67.133447668911245 -2.413515638366180 -68.910500387872105 142 139 122
66.475152248137334 -2.160510719839205 -69.595908386031169 143 140 123
65.816990916291829 -1.912051004050690 -70.281333745818813 145 142 127
64.414878582053120 -2.113951514151288 -71.714808561270303 146 143 128
63.236040870819252 -2.191359258533792 -72.923802002861891 144 141 126
61.908427913204306 -2.367461961133110 -74.282323729599483 146 143 128
61.846066455456182 -1.781035153692515 -74.369385492614981 145 142 127
60.816341763951669 -1.788697637549182 -75.428714244891069 143 140 122
60.084439228109090 -1.619773993273684 -76.188902245631084 143 140 121
58.236051105921590 -2.149679601575149 -78.070657242104744 144 141 122
56.834296059538545 -2.413840649978456 -79.503662103843908 146 143 124
55.432560657852576 -2.688090628524361 -80.936572513112651 147 144 125
55.073257736828765 -2.313201873897676 -81.322836570163872 145 142 123
54.714138502096191 -1.940578485675401 -81.709165183552784 145 142 125
54.727557227167793 -1.331976437805995 -81.721849302245630 145 142 125
53.102737422364456 -1.777223659352446 -83.378853391969983 144 141 124
51.775822552310288 -2.041411715314942 -84.736802374611358 144 141 124
50.523417665421277 -2.266643461248207 -86.019938789748835 143 140 123
50.611977419207349 -1.623004295985538 -85.958071888746758 143 142 123
50.551802692281640 -1.076318891354549 -86.045770698068736 143 142 122
48.703636856947767 -1.713558718573062 -87.926527190775772 143 142 122
46.780869145488083 -2.413888002380450 -89.881803875108432 142 141 121
45.156093022467772 -2.928685216775823 -91.538112949032723 144 143 123
45.469080004164084 -2.150664764300630 -91.252417863926013 143 141 120
44.217079311687527 -2.429423099436675 -92.535196668212762 143 141 120
44.530567277233743 -1.651553581858937 -92.249739698413862 143 141 120
211.396084955953029 -16.989773955121549 76.847590380317854 255 254 255
209.811974144671751 -2.416956659382117 75.016522765127092 136 137 132
206.763602212020572 -2.259644741468704 71.928019876425793 166 165 161
201.853626261342384 -2.740220672832720 66.965195945971971 183 182 178
200.145579762915276 -2.185981461916713 65.226860120331366 187 186 181
198.586499233327316 -1.593849415726047 63.638587205662503 187 184 179
190.995611401247118 -3.073788296835767 55.977669417616170 179 176 171
188.542895910012390 -2.834905718727224 53.490237960661375 173 170 165
186.611480911196708 -2.432000986576023 51.527741967015942 174 169 165
184.158800843883625 -2.226945214202871 49.040641759683041 175 172 164
178.205945338263234 -3.286519096346257 43.030663361506043 172 169 160
176.721389634332127 -2.781558600013719 41.518494211167024 172 169 160
175.683731104728338 -2.124968007457845 40.456123489235125 171 168 159
173.156617862668895 -2.022741543374854 37.894831446372024 176 173 164
169.437879814990083 -2.380718845108277 34.134603575789754 173 170 161
166.761814782210450 -2.375383019749694 31.423849133220330 165 165 155
162.819593974694953 -2.868181982776763 27.439345781235943 162 162 152
160.664892381911500 -2.707401713125169 25.253584982746304 164 164 154
158.212286260951998 -2.677082381210555 22.768248049693028 160 160 150
156.727997477484564 -2.287958078346882 21.257143565649557 158 158 148
154.722361615266777 -2.114301695863822 19.221655462154985 161 159 147
152.567785657261965 -2.014239541180607 17.036459562477404 157 155 143
149.668344720231460 -2.227699277490203 14.102242904701399 155 153 141
147.364828948704030 -2.221766168491586 11.767550449002698 153 151 139
144.837857169177369 -2.323556316850494 9.208290776429806 153 151 139
142.534380595040716 -2.351895216325810 6.873932347833744 150 148 136
140.901392097858547 -2.119080811415646 5.213856503593490 150 148 136
139.640947618048415 -1.742354503666005 3.928369945507825 151 149 137
137.933576017653877 -1.563245255396929 2.193572652116416 151 149 137
136.673266340031262 -1.206348259714044 0.908225718196775 150 148 136
134.220970781105137 -1.369964509735497 -1.575263510299038 151 149 137
133.184296459922763 -0.938895588369861 -2.635783666312307 147 145 133
131.328124462750424 -0.872869667736210 -4.519949106271667 146 144 132
129.322976368870400 -0.885843442344349 -6.553749478505154 145 143 131
125.678600356494613 -1.640511901783330 -10.234609665597446 145 143 131
123.002846861843125 -1.988459074376866 -12.941876627567467 145 143 130
120.997732880674405 -2.053450441572558 -14.975157875993204 146 144 130
119.439761533703731 -1.929737688057062 -16.559139744731112 145 142 125
117.583764665451028 -1.953845459917660 -18.442461174389251 144 141 124
116.323992800856047 -1.716049126330854 -19.726839433271863 145 142 125
114.542618263722744 -1.730134459911424 -21.535104211425136 146 143 126
112.463174067708806 -1.896942664501028 -23.642636972916421 147 144 127
110.830935672995466 -1.867398352736702 -25.300979302423713 145 142 125
109.273281877678841 -1.814125314966989 -26.884388015404369 141 138 121
107.641148313184871 -1.807863937987729 -28.542540832385242 140 137 120
105.785449343923744 -1.921539921311991 -30.425082805304015 140 137 120
103.631618199641565 -2.193938419062942 -32.606801096709830 144 141 124
101.925061010076817 -2.262329073093472 -34.339440360623001 146 143 126
100.814921372122726 -2.048040179046078 -35.473442420109023 144 141 126
100.003068946707018 -1.693096419984335 -36.308156351132993 143 140 125
98.371246130025469 -1.755535892724551 -37.965750656443674 142 139 124
96.292132827635783 -2.055910922340519 -40.072066845882404 141 138 123
95.033176725134581 -1.953669994480862 -41.355440022666102 145 142 127
93.774295389957700 -1.860449258677364 -42.638756118513299 144 141 126
92.291791793887910 -1.891798382288128 -44.146386485882260 144 141 126
90.809342396960403 -1.933807316615222 -45.653933055148372 145 142 127
89.774380236491865 -1.752077823132229 -46.712705726989782 143 140 125
88.366632894868516 -1.774414075898460 -48.145333119329649 142 139 124
86.436888529812592 -2.084161495790852 -50.101292651832637 141 138 123
84.656316981318426 -2.328078655545075 -51.907575802554078 144 141 126
83.472458053747900 -2.263529353493992 -53.115628346653523 143 140 125
81.691952512379970 -2.530949612070148 -54.921701145754753 142 139 124
79.836867658990727 -2.851936073816216 -56.802402958703368 144 141 126
78.802368580101813 -2.735434502800326 -57.860725743411422 145 142 127
78.588585133227070 -2.172357915068424 -58.096825160159227 143 140 123
78.300375724248866 -1.652102248693511 -58.407737559413135 139 136 119
77.117013943836156 -1.635470854295610 -59.615534693913389 136 133 116
75.038348403058450 -2.132387280824542 -61.720041991640130 138 135 118
73.183509642686474 -2.517256624514754 -63.600203956048830 139 136 119
72.895759407776424 -2.019989528099952 -63.911099389703935 135 132 115
72.160418961095971 -1.782050813366399 -64.670353112473776 138 135 118
70.753508954916086 -1.938003586981736 -66.102005701247435 135 132 115
69.272002914839362 -2.147518493935011 -67.608279346073402 138 135 118
66.745534236320267 -2.980194424648282 -70.160256325920528 142 139 122
65.935842357639032 -2.818616116712032 -70.994013447369696 144 141 124
65.126264502603505 -2.662692811608272 -71.827766907555116 145 142 127
63.868856909183691 -2.779919887271364 -73.109621791363992 145 142 127
62.163526234907920 -3.175291493790118 -74.839482036782186 145 142 127
61.130192756376417 -3.176727394493011 -75.897148451062833 145 142 127
61.291711151376717 -2.458804741359948 -75.760090466273340 144 141 126
61.976236154235949 -1.419419750793512 -75.100533828851724 144 141 123
60.793991270247560 -1.523869535667075 -76.307618933368786 144 141 122
59.238355155087319 -1.867993941041010 -77.887902286102616 145 142 123
57.682718164058159 -2.223320120144374 -79.468069914339509 146 143 124
56.276480552349682 -2.496230105037558 -80.898840274993574 147 144 125
56.065584809738056 -2.025789721853058 -81.135367608572807 146 143 124
55.780185786200988 -1.603862092562969 -81.446612346707070 146 143 126
54.448903892086449 -1.850723793200792 -82.802650508886273 146 143 126
53.117646172946976 -2.107115647070866 -84.158602137635967 146 143 126
51.935876246964000 -2.276618986417293 -85.365244831518538 145 142 125
52.099467529004230 -1.581694357441934 -85.228941778567815 145 142 125
51.665372618987433 -1.275242956764601 -85.689580029306597 145 144 126
51.007198079509990 -1.118734605363395 -86.374052569022382 144 143 125
49.152997429397175 -1.756049795569253 -88.251921251275689 143 142 124
46.850104309677533 -2.704544728664052 -90.577087174164234 139 138 120
46.865048605160283 -2.123047868184549 -90.590222113202287 140 139 121
46.581133477406780 -1.741654256792384 -90.901759504984255 144 141 122
45.699113972390137 -1.765600449260595 -91.809864525951212 143 140 121
45.041579181279999 -1.643451872350801 -92.494289436673313 143 140 121
211.003299716722381 -2.382269469983167 74.667957412155488 133 134 129
206.226755437016777 -2.784289972058147 69.862209387018396 160 159 155
203.766116732873940 -2.457699508380048 67.377665546633551 181 180 176
201.454907566039708 -2.099196562409333 65.043024406431016 187 186 181
198.844870653731505 -1.858146585865645 62.409114898103269 186 183 178
193.918765992744170 -2.424626709390092 57.454891142381257 178 175 170
189.142020933350665 -2.975475684401233 52.650771135795623 174 171 166
187.129651307092558 -2.599728704530347 50.616424221896040 175 170 166
184.967878745845695 -2.291088362581717 48.432524152479317 174 171 163
181.834808350759005 -2.342945536052387 45.275834915499757 174 171 162
177.879826609336419 -2.712297623402435 41.296165649850025 172 169 160
176.241119910385208 -2.271277832827423 39.636682211107683 174 171 162
174.228853086175775 -1.978824145133986 37.603143496759714 176 173 164
171.469393697750604 -1.977060691278199 34.821462515373213 172 169 160
168.560491582475947 -2.051076013668256 31.890336681435627 167 167 157
164.381256183522055 -2.624807973886728 27.687476726813344 158 158 148
161.621780744264299 -2.688785223578839 24.906480126176945 164 164 154
159.086494593308601 -2.686676510927373 22.350128537225771 163 163 153
156.924871330295360 -2.558094499598130 20.168010474896505 161 161 151
154.539081716567722 -2.532888387829442 17.761620271675355 163 161 149
152.078577777163787 -2.554475834112076 15.280595930438153 158 156 144
149.917028781534214 -2.474745205255595 13.098945190667678 156 154 142
148.203927867918708 -2.230317037091964 11.366216420626870 152 150 138
145.444539714003241 -2.422869782809184 8.586501555153347 154 152 140
143.357812654996536 -2.360004858317234 6.480088749458730 149 147 135
141.869052568533931 -2.065247901043541 4.972094691936064 151 149 137
140.230866109771114 -1.843515922674592 3.314619611682616 151 149 137
139.115953570657382 -1.413683493848764 2.180682193867995 151 149 137
136.580918578930095 -1.593954690168739 -0.373912220774315 150 148 136
134.195390633687197 -1.728649185981143 -2.778781668020656 148 146 134
132.632144998837248 -1.526026366747675 -4.361052596463253 146 144 131
132.190263528137052 -0.847071679204378 -4.821800146722524 147 145 132
130.776679785920976 -0.597326565688840 -6.254436095209456 146 144 129
127.568974392881515 -1.150974283411623 -9.481113907766400 144 142 127
124.809793395975902 -1.527922540724218 -12.259029800810168 144 142 127
122.424411971274836 -1.756861794387941 -14.662999234344397 143 141 126
121.833392287723029 -1.190191812973717 -15.272961541732172 141 140 125
119.672383633091627 -1.344651285176701 -17.452460142426816 142 140 125
117.436625977671909 -1.549131102719277 -19.706543077740321 143 140 125
115.126110517575910 -1.804448696612722 -22.035197721694743 145 143 128
112.965151510826402 -2.006541137030446 -24.214229763695357 146 143 127
110.505100058257725 -2.365169941369489 -26.692001237070087 144 140 123
110.064093784822475 -1.782911395302566 -27.152172136740717 143 139 122
108.501487486240947 -1.740382791864991 -28.733100991275080 143 139 122
106.565011031457857 -1.889346059544705 -30.687494947178038 140 137 120
105.077289304258429 -1.834309992347428 -32.193518184666004 145 142 125
103.813999984924735 -1.680150675197643 -33.475352787432598 147 144 127
102.401200149756605 -1.608770248572480 -34.906527757039413 145 142 127
101.212855669741373 -1.436072503661687 -36.113547654475951 144 141 126
98.977396571382883 -1.795743435672207 -38.366175958361623 141 138 123
97.041144837761095 -2.020779068912269 -40.319894369023643 140 137 122
95.104911453449873 -2.259767116258489 -42.273477938725392 144 141 126
94.365645068910538 -1.900825631218418 -43.032099048581898 142 139 124
92.579121000985864 -2.086298080515832 -44.836136135176076 143 140 125
91.465969011342224 -1.935504432023818 -45.968043507479535 145 142 127
90.727002533593435 -1.597297224340463 -46.726594663383736 144 141 126
89.389573488949338 -1.578975911129587 -48.082421711798332 141 138 123
86.854981620810861 -2.204045326719721 -50.632649583728266 139 136 121
85.517624595904195 -2.209228373678597 -51.988269143951584 143 140 125
84.180330740256224 -2.223964297352429 -53.343820591572722 142 139 124
82.019879788975885 -2.693086237456088 -55.520347016783973 142 139 124
80.607824211081279 -2.770664574409802 -56.950344729135281 147 144 129
79.495204286025569 -2.694382496693464 -58.081739654284490 144 141 126
78.906618289264642 -2.337136190544761 -58.690710525996082 144 141 124
78.542736173772553 -1.859299312734119 -59.075843608858492 144 141 124
77.505294383044728 -1.760188447090933 -60.132579599042884 141 138 121
74.820959238247582 -2.594456611441639 -62.830735182723799 136 133 116
73.259531008778012 -2.812666622023857 -64.409543707945318 135 132 115
72.521719466395979 -2.572975083346652 -65.167633309699056 138 135 118
71.858909351819861 -2.295478550780646 -65.851133598305097 138 135 118
71.345996662208165 -1.936143765292670 -66.385468933617005 136 133 116
70.009492726380515 -2.058484326810555 -67.740290647579371 135 132 115
68.673037668813748 -2.190358804758494 -69.095037607342931 137 134 117
67.261733869006207 -2.375796507868553 -70.524284717114540 138 135 118
65.326158312895956 -2.881471199296851 -72.475437849973446 141 138 123
63.765074143593225 -3.178198326130879 -74.053602756278281 143 140 125
62.878202170090077 -3.082366926256126 -74.960619303883249 144 141 126
62.216183797237335 -2.857315400278459 -75.643958516216856 144 141 126
62.378446951112480 -2.137188688597612 -75.507279509002160 143 140 125
61.866618197637322 -1.826732452644776 -76.041630264181606 143 140 123
60.605614139893390 -1.979433097450359 -77.321399464517924 144 141 122
58.895019604192882 -2.418632330477940 -79.048290356896729 146 143 124
57.933851940359645 -2.404817962365396 -80.029778743322822 146 143 124
57.497433808837016 -2.070053472144417 -80.489597013710494 147 144 125
57.435978356036443 -1.502650601478878 -80.576896383449338 146 143 124
56.400232678970795 -1.551105100918624 -81.632924824162643 146 143 126
54.539891879920603 -2.131023995926438 -83.508446889110871 146 143 126
53.804133726606722 -2.005408566053876 -84.266344582461585 146 143 126
53.593384299606839 -1.547345692756218 -84.502814505000714 144 141 124
53.607825056346854 -0.944909598625938 -84.515924090881157 145 142 125
51.822605114838410 -1.512490714135083 -86.316651830626512 145 144 126
51.162375505617590 -1.357130316747026 -87.000129415553914 146 145 127
50.052220869546090 -1.502264445502407 -88.130424578259635 143 142 124
50.142411387397715 -0.861317618766679 -88.069310115603798 140 139 121
47.757046753600022 -1.865966967938619 -90.465302808152302 142 141 123
46.947173498731004 -1.834175975297230 -91.297637193818986 143 140 121
47.187978770157670 -1.101415070340662 -91.087803631598945 143 140 121
46.978819361926426 -0.670812051621195 -91.324751555588989 142 139 120
206.804078921985081 -2.943429428956686 68.922504603560725 158 157 153
204.635302451598506 -2.519792119941553 66.740771458717518 178 177 173
202.766363659314777 -2.012290760884396 64.858169281312570 187 186 181
197.899224286190048 -2.524848973819803 59.986040573600008 185 182 177
197.229610871076773 -1.648302092712246 59.299628634476704 178 175 170
187.490121308525715 -3.887061620505952 49.570356693839045 172 169 164
186.520663405297768 -3.156942808579825 48.585461048042191 175 170 166
185.176465855279616 -2.565067478202899 47.226968149770613 173 170 162
182.707889406995662 -2.380717312511970 44.747685849817032 174 171 162
179.489692532528238 -2.482147350158223 41.521372222257810 172 169 160
176.196518379292002 -2.633923576473166 38.220586821552189 176 173 164
173.877890540439807 -2.454152446902848 35.891334524987400 175 172 163
172.533864514532581 -1.932235464524746 34.533479686589033 172 169 160
169.990391019462493 -1.866079522996871 31.980385624696908 167 167 157
166.472311800245706 -2.184270351641898 28.456330370986279 161 161 151
163.628956393763019 -2.272096500655059 25.604848262934723 162 162 152
160.335758668261349 -2.552640882234646 22.305399614429774 163 163 153
158.617025051442454 -2.248692714342072 20.574752841036741 163 163 153
155.548752881291506 -2.483427688266327 17.499805693348009 163 160 151
152.855362962789144 -2.592783575689703 14.798519996139447 159 156 147
151.436644434237792 -2.215290407674734 13.367025536934676 156 153 144
150.167953173250737 -1.787891423273550 12.084962611379865 148 145 136
147.399654679351215 -1.976132001324742 9.309466034704542 153 150 141
144.031469981647433 -2.429149607863711 5.936807365294442 150 147 138
142.762906738503091 -2.042131741011561 4.655098859571183 151 149 137
141.569405825544948 -1.633071559680046 3.448112784683389 153 151 139
139.776051242303453 -1.483882766695425 1.643898556917492 150 148 136
137.682770238073715 -1.474346222438053 -0.458829928039847 149 147 135
134.239602319854612 -2.055159166546728 -3.905160305088401 148 146 134
132.821323431395484 -1.790593722998401 -5.335702664808423 146 144 131
131.853109704449139 -1.341174716797496 -6.318304136161885 147 145 132
130.509980848497605 -1.062537843679820 -7.674083973213783 146 144 131
127.966860858253625 -1.322307759247243 -10.223992232024813 146 144 129
125.348735953590023 -1.633737588436844 -12.848345520350676 145 143 128
123.405683292944417 -1.661699916315491 -14.800838965369309 143 141 126
122.287786510190969 -1.331096645935840 -15.932327315679515 140 141 125
120.269816988216931 -1.418143212668359 -17.959231492200729 142 140 125
117.801781761338205 -1.726181326435473 -20.433704310704229 142 140 125
115.483781197941468 -1.982636084588254 -22.758766401493460 145 143 128
113.465870446407450 -2.115951808161140 -24.785222421916728 145 142 127
111.823102717961277 -2.087619208736847 -26.438515081493961 144 138 122
110.405464462502096 -1.964549659749925 -27.867907429521068 147 141 125
109.363037862414984 -1.672724984858111 -28.924242404044207 146 140 124
107.795482993663953 -1.640661864991140 -30.502696153091961 141 135 119
106.303017869779680 -1.583497542879454 -32.006472073061872 145 139 123
105.185801197904752 -1.354014726400833 -33.137244902454569 146 141 125
103.918593020075093 -1.206212273415505 -34.417139302353149 145 144 126
101.375720031898993 -1.698918103357311 -36.964767999723165 143 142 124
98.982912266175916 -2.135118160363214 -39.363051257600176 140 139 121
97.190485445452452 -2.287008784595522 -41.164610162083846 139 138 120
96.073567882351085 -2.110047159897980 -42.294985457077161 143 142 124
93.755832848869105 -2.552878238208020 -44.618256111376638 140 138 123
92.714097218270439 -2.357629717598638 -45.673927536462799 141 139 124
91.822582649165895 -2.092168564108560 -46.580469166514177 142 139 124
90.405707538165302 -2.106429460465638 -48.008812988971641 144 141 126
89.289173497394543 -1.973438753696371 -49.138919144986005 145 139 125
88.172726591773468 -1.848355377545953 -50.268985592030873 140 137 122
85.930195329676152 -2.329515679894115 -52.516980045905342 142 141 123
84.588618810001492 -2.344855681601813 -53.870476463657212 141 140 123
83.021846635860271 -2.491065060462043 -55.447469602737641 144 142 125
81.304931637145387 -2.729905041296560 -57.173399205709813 145 142 126
80.038599182206852 -2.735106339845902 -58.452137603960779 143 140 125
79.147823857656832 -2.542974941771094 -59.358278066062923 145 142 125
78.782873330729572 -2.066289876010402 -59.742888168376936 147 144 127
77.066170883841863 -2.344689302793263 -61.468512250164480 144 141 124
75.424591437781018 -2.593296592583440 -63.119522698559450 140 137 120
74.158608545275257 -2.641805650840995 -64.397982537753421 139 136 119
72.892687408394778 -2.699302358652126 -65.676379406234958 140 137 120
72.302951568293068 -2.379481379467673 -66.284414959142396 144 141 124
71.187452840120031 -2.366060377161748 -67.413785614120030 140 137 120
71.048782807942189 -1.795321975161398 -67.575039012974315 137 134 117
69.783225278389608 -1.881553686813918 -68.853314046125462 138 135 118
68.893448789489270 -1.756609610353949 -69.759240754925315 136 133 116
66.275332863538139 -2.656957497410337 -72.377536309219778 137 134 119
64.784409294998611 -2.907489020608756 -73.878882436073695 141 138 123
63.744468144905369 -2.899483973921813 -74.933484943342592 143 140 125
63.381103420079953 -2.492512436726421 -75.318136091575838 142 139 124
63.093092292762279 -2.042419937592722 -75.628421123369122 143 140 125
62.128680973888223 -2.005350924044757 -76.608597128089571 142 139 120
60.638081385156198 -2.296868257180895 -78.109676358241728 142 139 120
59.222680738210968 -2.552776065150947 -79.536238166195034 144 141 122
58.860029137084098 -2.167274851893547 -79.921009465531199 145 142 123
58.798369940686655 -1.596781489025078 -80.008243177020432 145 142 123
57.533632437484357 -1.779829145847874 -81.285913932806949 147 144 125
55.968079556533439 -2.161346349519580 -82.861068235920953 146 143 126
54.552952611343471 -2.458766443302743 -84.287333675043925 146 143 126
54.115782390828983 -2.143120935271753 -84.746595347347608 147 144 127
54.054959499568739 -1.589194257401846 -84.834058615136769 145 142 125
53.693424742074967 -1.229238842139710 -85.219101252906938 144 141 124
51.601398501005747 -1.993408712426436 -87.314465863457656 144 142 127
51.390606128134522 -1.546243102273542 -87.550803069835297 145 143 128
51.706872511576435 -0.754768661106080 -87.266815327947114 142 140 125
50.593360663751199 -0.903273268211072 -88.395469718030597 140 138 123
48.426032048286402 -1.758306964109528 -90.564733508702773 140 139 122
47.538371858712821 -1.775882863209089 -91.470205618142131 143 140 122
47.930767612080217 -0.941579560203891 -91.112219879946508 143 140 123
212.040855949455420 -1.592953624483004 72.611444853458522 153 152 148
208.135623753025527 -1.720122603609659 68.716341548536604 178 177 173
204.380755316249861 -1.825705302751449 64.970800307817086 187 186 181
200.550655891867677 -1.983550466530157 61.150928392580653 187 184 179
191.456387386895699 -3.949269585800793 52.107904331825523 181 178 173
194.920845068689061 -1.688172043457649 55.526753745483177 167 164 159
185.600749487045391 -3.817783312128167 46.260874953602098 173 168 164
184.402659979375102 -3.180043362000265 45.053730130957149 172 169 161
182.903800616651040 -2.656995400221104 43.548217618587614 174 171 162
179.449566770256212 -2.841274724480286 40.103099423896992 174 171 162
177.499511692827866 -2.509231873216307 38.150250196904892 175 172 163
173.443569657582998 -2.956564005716729 34.108823792614970 175 172 163
172.546525718733051 -2.273736035942365 33.200631227789557 172 169 160
170.370913750237889 -2.071239669712777 31.024444476627167 166 166 156
167.367953513749228 -2.194039322842771 28.027959002177056 162 162 152
164.665857493795471 -2.224794887922133 25.330029201457563 160 160 150
162.415082633901761 -2.102857527079156 23.079770469294687 164 164 154
159.562566330031927 -2.228829257284027 20.233063554782206 163 163 153
157.236606166619595 -2.170691957721156 17.908571055269732 161 158 149
154.308873940189329 -2.365352889688767 14.987695347831249 160 157 148
153.186558483529922 -1.866377334169503 13.856587735457850 158 155 146
150.634993853665264 -1.946414477871580 11.308869283584784 148 145 136
147.255914224175967 -2.378374768283617 7.941205958662920 148 145 136
145.005274717635075 -2.375735164239101 5.692110465660875 151 148 139
144.108858823870719 -1.833643613729700 4.785066116882717 151 149 137
142.460183070261166 -1.609333592939760 3.132582542243881 153 151 139
140.435375913569771 -1.553903756787026 1.107482885545124 150 148 136
137.883928658315199 -1.734805217816123 -1.439253470851014 149 147 135
135.708693982171894 -1.774265969945960 -3.613130131213182 149 147 135
133.232510792618484 -1.958266836444303 -6.084981769999132 148 146 134
131.885020123400068 -1.672532504900996 -7.438747988240209 149 147 134
130.161362440463819 -1.560293908328033 -9.165065742356802 148 146 133
127.911004100573322 -1.691730618431529 -11.412915629665008 148 146 133
125.735916123168806 -1.806005385312291 -13.586092371963815 146 144 129
124.012378514072736 -1.734335248791924 -15.312049977454876 143 141 126
123.191977092815364 -1.268615999080622 -16.143814365945786 140 141 125
121.318047578193969 -1.286618882548173 -18.018619719732186 142 140 125
119.519419199827169 -1.283632857070096 -19.818806043455282 142 140 125
116.742391283800259 -1.744416228636570 -22.587321074619354 145 143 128
114.718011976685446 -1.875598757235572 -24.610704518272627 145 142 127
113.145278387659900 -1.809908847274331 -26.187026922735328 144 141 124
111.798419884325597 -1.648938247327599 -27.539811311203209 147 144 127
109.698877000827267 -1.855325805148943 -29.637321519328736 146 143 126
107.900463863294931 -1.932564673970699 -31.436785018390708 143 140 123
105.951524673858259 -2.095316024926229 -33.385074917086342 144 141 124
104.906023438468935 -1.832854699534090 -34.439636744912519 145 142 125
103.484179860525458 -1.762137865515486 -35.866478388282928 145 144 126
101.008331374919763 -2.221573517634820 -38.335654959675196 143 142 124
98.984221270079786 -2.474284558473855 -40.357916234746853 140 139 121
98.390767723791626 -2.025333044474539 -40.965502455222378 142 141 123
97.119744888962771 -1.922171732505766 -42.243112422597846 143 142 124
94.719239480934121 -2.401646339677366 -44.637267708097028 142 140 125
92.619934551274540 -2.744303079357882 -46.733489065378706 143 141 126
91.574977744233564 -2.558950533390428 -47.787517626457856 144 141 126
90.530115123368873 -2.380962606697671 -48.841515438155113 144 141 126
89.259392338394449 -2.328353704647635 -50.118748587001789 146 140 126
87.838097597004662 -2.363979594329003 -51.544758152821174 142 139 124
86.492184613403168 -2.369820317647500 -52.896277801939078 141 142 124
84.845015498089808 -2.545870347868180 -54.545361040045776 141 140 122
83.423877247718067 -2.612354460614144 -55.971127831439958 143 142 124
81.776777879562374 -2.811083501399041 -57.620010989899129 145 144 126
80.431072267393262 -2.857603393572988 -58.971211113678976 144 141 124
79.462155450906195 -2.707340308380290 -59.950396867228193 142 139 120
78.267286930815047 -2.688490808209672 -61.152712048985109 142 139 120
76.997136860142589 -2.719899526872209 -62.429354346813994 141 138 119
75.802409839960092 -2.718204818484734 -63.631560638752518 143 140 121
75.587487325877362 -2.174131694076964 -63.866919517457887 142 139 120
74.468332402871596 -2.143067166915007 -64.994722675024605 141 138 119
73.349257998733464 -2.119880206691095 -66.122483264787803 144 141 122
72.305641793842483 -2.061368271643199 -67.175847531212838 142 139 120
71.789798215143037 -1.705833742323620 -67.708741621285668 139 136 117
70.821783276743560 -1.616262756434386 -68.687734095953374 137 134 115
69.326111853968186 -1.841674159507629 -70.187067439630880 136 133 114
67.528869693184618 -2.254965680300714 -71.983631971190590 135 132 114
65.957819635846818 -2.547360196620853 -73.557073828556156 140 137 119
65.517923688987864 -2.177974367569147 -74.015584698840769 143 140 122
64.399462716347927 -2.217738497733680 -75.142990764932676 144 141 123
63.582757663184296 -2.083676046288427 -75.973109573214970 144 141 124
63.746717553178001 -1.361135442642509 -75.837267126146116 143 140 123
61.270805118024199 -2.246257780683506 -78.302031297388965 142 139 121
59.549133598065907 -2.686694375707317 -80.023610261678982 144 141 122
58.883658236637402 -2.487924669847795 -80.705025130550212 145 142 123
58.520126547923027 -2.106387657790977 -81.089334593486797 145 142 122
57.175840245151548 -2.339376939784499 -82.439294286913963 147 144 125
55.756114998677091 -2.629277210448038 -83.863437319781099 145 143 125
55.543925262040332 -2.166748234141874 -84.099264174968766 145 143 125
56.011249991934022 -1.273893707199676 -83.666868014549351 147 144 126
54.214402697858048 -1.823672476797342 -85.462216517171214 145 142 124
53.776326411528089 -1.513349718450265 -85.920989940958094 142 140 122
52.658953069644696 -1.644845758654713 -87.047972083243707 141 139 124
52.523203456616059 -1.146362110674694 -87.209878846127822 144 142 127
51.708086609781915 -1.092502152975453 -88.039931882315813 143 141 126
50.893083831277849 -1.044226636845207 -88.869982004939487 142 140 125
48.869753563806981 -1.800097360283389 -90.887437076156715 141 139 124
49.187883479273552 -1.014610095218687 -90.604279212590171 143 140 123
210.218874495389400 -1.388170830064679 69.268328976698939 177 176 172
204.867588392991394 -2.012301735485239 63.963809569004866 187 186 181
201.100575939819805 -2.146635725516470 60.224373935583344 191 188 183
197.937107075727852 -2.104636612402491 57.081261112071445 183 180 175
190.095835372184524 -3.678821601908616 49.319378462587025 172 169 164
187.686757067961878 -3.439438803170317 46.921924860839653 174 169 165
187.163968142908800 -2.561272735829975 46.386973691687388 173 170 161
183.396812791993369 -2.826998767939800 42.648958904351531 177 174 165
180.987791508010616 -2.637641689688644 40.251992964188588 175 172 163
178.503332029971887 -2.492646109425558 37.780714147745130 177 174 165
176.471627591145818 -2.201509655259665 35.756487880549628 176 173 164
171.874375299738119 -2.863433374179529 31.200219151908925 173 170 161
170.370903810864831 -2.415572529818017 29.697687003650515 167 167 157
167.735567055522381 -2.400669110222741 27.078208693626635 164 164 154
165.854868827978351 -2.120506107992574 25.203572297654091 159 159 149
163.295029940403850 -2.112029383149175 22.658901104593070 163 163 153
161.037067979046327 -2.006075831751853 20.412245186515435 163 163 153
157.269770073282587 -2.500985581298804 16.676657700066016 162 159 151
155.992930473767785 -2.049279853489777 15.398242710212202 160 157 149
153.961445711853742 -1.904464290872042 13.375417504776948 158 155 146
150.646948259943457 -2.285044068036902 10.087188286956831 155 152 143
146.728620516819149 -2.931997744656058 6.203700251694443 151 148 139
145.150025482186777 -2.658694166896529 4.628044870939846 152 149 140
144.401758393349041 -2.057141852028098 3.871232352019319 151 149 137
142.974262715657233 -1.741119968776334 2.444569605692294 153 151 139
140.339103156522015 -1.937849573680001 -0.172815029353217 151 149 137
138.383312194281501 -1.868325184917308 -2.120217994299651 150 148 136
136.050122327624990 -1.972565957754151 -4.439580389490544 150 148 136
134.320864973442440 -1.835694573571861 -6.163472837734275 150 148 136
131.912232003473491 -2.003674661577603 -8.556946295027331 148 146 134
130.334043163120981 -1.828404897363532 -10.131786886442256 146 144 132
127.774460643771064 -2.093979803091188 -12.673759774077979 147 145 132
126.120860643282981 -1.978075949285669 -14.322771726753643 146 144 131
124.316312128485990 -1.941147133726439 -16.120475267690750 145 143 128
123.644361796377297 -1.409142716763407 -16.802222685067022 140 141 125
121.839938102240566 -1.393881311177871 -18.599762906244564 142 140 125
120.337592731460120 -1.253857171412128 -20.099665067694303 142 140 125
117.853663308205967 -1.575398341982880 -22.566395163385579 145 143 128
116.275896344881232 -1.495256882515024 -24.140458375895435 147 144 129
114.849220317754856 -1.355888346777414 -25.565694858594384 145 142 125
112.742935802547379 -1.546176868599966 -27.660145608683621 147 144 127
110.410100181059306 -1.858846178832422 -29.977532013907904 145 142 125
107.850685255414504 -2.296357094114663 -32.517815254078073 145 142 125
106.197587954344527 -2.316329591331680 -34.165669052892781 145 142 125
105.299852245748937 -1.982106282653311 -35.069942314542402 145 142 125
103.797947984390660 -1.949137486193896 -36.568953526799078 144 143 125
101.767337382120658 -2.186847210956814 -38.588259402264441 141 140 122
99.736738718463812 -2.439059911235191 -40.607421702708706 139 138 120
98.839315411755166 -2.140392940472569 -41.511478417102097 145 144 126
97.866453619822380 -1.885970299485974 -42.489849074553405 143 142 124
95.987080181261945 -2.097257872894104 -44.360060497376111 141 139 124
93.049958774312373 -2.861160773936757 -47.270584959487167 142 140 125
92.152829237481427 -2.598834643948704 -48.174408137852964 144 141 126
91.482495134886250 -2.225580618915011 -48.855294656355085 145 142 127
89.981069377969533 -2.289668504930742 -50.353535730306646 148 142 128
88.630832240694090 -2.285183029004749 -51.703093011885130 144 142 126
87.129511591125066 -2.370029004585955 -53.201170695387702 143 142 124
85.854970431180107 -2.345034521123919 -54.476292897653963 141 140 122
84.051427471669015 -2.612116542457960 -56.271348156527011 143 142 124
83.230510831655820 -2.362756959318623 -57.100638967393422 145 144 126
82.258532558230712 -2.201067823750498 -58.078477744513748 144 141 124
80.908684153249823 -2.252498607522074 -59.427645420138589 144 141 124
79.105300677221535 -2.562727060245842 -61.222332847469971 144 141 124
76.697093209554865 -3.220358584875416 -63.610969635389012 142 139 122
75.725361683725836 -3.095467737493883 -64.588547672447334 144 141 124
76.039142605460498 -2.257047042818169 -64.303854135568997 144 141 124
75.218924191301738 -2.055714501178750 -65.132984608825950 141 138 121
73.869469725740601 -2.160516506538012 -66.481791366923659 141 138 121
72.671319987190884 -2.188451665474262 -67.682055247018297 142 139 122
72.607722743911708 -1.572635318216754 -67.768828335769001 142 139 122
71.182874913256072 -1.744531284085417 -69.191735419512156 139 136 119
69.455493028446881 -2.102647591975316 -70.911429928900617 139 136 118
68.106342715799812 -2.251517276031479 -72.259928581955307 137 134 115
66.681581613716602 -2.454509020215340 -73.682557071882883 139 136 117
66.316076469888003 -2.039450283005614 -74.066267496614103 143 140 121
65.572433721676930 -1.852416443831657 -74.821025437333020 141 138 119
64.828921127304270 -1.670457818875088 -75.575793401472595 143 140 121
63.404451865389561 -1.904895018566315 -76.998237822866059 144 141 124
63.342287996110215 -1.321748179740211 -77.085360349163068 143 140 122
60.479891311817909 -2.450296421049415 -79.917020499868556 144 141 122
59.509644929958384 -2.436040001296099 -80.894170208969740 145 142 123
58.842293311427824 -2.241240727277624 -81.574646613225099 145 143 122
57.039471162470633 -2.757439389472245 -83.367482422666598 145 144 123
56.069448385120381 -2.765351801816871 -84.344510908473069 145 144 124
56.462486057388489 -1.922104135596070 -83.986924330903037 143 142 122
56.931582883352817 -1.027541179648148 -83.555393520887577 143 142 122
55.886341200530381 -1.093475874620480 -84.606699172562514 144 143 123
54.538208092794122 -1.360706856575721 -85.954466100660966 141 140 120
53.417337013111776 -1.491114888778686 -87.079786136585739 143 140 123
52.296522640686490 -1.629367623602042 -88.205052551602989 140 137 120
50.721181982433762 -2.071560775423882 -89.774899847590206 144 141 124
49.297345275846340 -2.425725258343008 -91.196414468211941 145 142 125
49.464851823783533 -1.741798128917945 -91.061871262258393 143 140 123
49.481099379371059 -1.156493058625271 -91.075668876280048 144 141 122
49.042866176128825 -0.873418019699307 -91.534086757089881 143 140 121
48.377418263963051 -0.745372482271872 -92.214786758199892 140 137 118
212.606595305095709 -2.105396415695598 70.128894217582030 145 141 140
208.070650002074046 -2.434374907660830 65.650728148282326 173 171 170
204.064471220928112 -2.621708485522932 61.693677762991115 187 187 185
200.588085614604211 -2.661691129678231 58.257671576103917 189 188 184
195.370761577554390 -3.311397393035454 53.111046205378869 183 182 178
192.348458386867918 -3.253288589383329 50.121952152288657 168 166 162
189.174758356276811 -3.268778490551133 46.984325647064452 174 171 166
186.455222130560514 -3.149566261314096 44.293195487157448 175 172 167
184.114177890402232 -2.917271435229235 41.974126467346650 176 173 168
181.470356636015765 -2.808875160063885 39.357744743653768 176 173 166
179.962050973038913 -2.313567863271520 37.857036857546433 176 173 164
174.820100599016200 -3.140777444984358 32.787039000534861 177 174 164
171.873460502135345 -3.204458651520987 29.873860513396835 174 171 162
169.608161834273346 -3.038394105813241 27.630095697901140 167 167 157
167.342886503773144 -2.888532245800316 25.386486500275026 163 163 153
165.380468674263966 -2.641208899427240 23.440423631925739 158 158 148
163.039537372462291 -2.551343052267459 21.122766675822504 161 161 151
160.395779156918081 -2.594051515441381 18.507910191543800 161 161 151
157.752027415414204 -2.655670826982263 15.893245268968741 163 160 152
156.319728675659462 -2.264148061010077 14.468103122554879 161 158 150
153.978886503605537 -2.240128707756193 12.151081318126018 159 156 149
150.805153603976663 -2.563357256165897 9.016638245827494 156 153 146
148.085724596271120 -2.727380919006718 6.328372282514323 151 148 141
145.669186791122172 -2.788482797430781 3.937580320173623 152 149 141
144.312813246687654 -2.434755392210190 2.587363752123849 151 149 137
142.653601606631355 -2.215212421911619 0.939969579092661 152 150 138
140.842986078238994 -2.070300951632056 -0.855943043047290 152 150 138
138.578029058269635 -2.128375801799439 -3.097564122324030 150 148 136
136.464559096614295 -2.138711063281330 -5.190429728771704 150 148 136
134.578324320444040 -2.067444035362799 -7.060267187655228 147 145 133
132.767868539668598 -1.977116517560677 -8.855694372464086 146 144 132
130.957458074887569 -1.899679231612926 -10.651010550657304 146 144 132
129.071349986484165 -1.868173350989749 -12.520499335070895 146 144 131
126.958046493841707 -1.950047647964180 -14.612708192493244 144 142 129
125.223505166025035 -1.879040668707952 -16.333394830455063 143 141 128
123.867762783966313 -1.651057566052431 -17.682618995147152 140 141 125
122.360589018518937 -1.500947722735432 -19.180315086351868 142 140 125
120.247436570178564 -1.636795229384409 -21.272040629489624 143 141 126
117.982788703730648 -1.857063880866697 -23.512140064475233 146 144 129
117.157603152906759 -1.429346569938575 -24.341224568733736 146 143 128
115.271840717815209 -1.500583991497898 -26.209821124083703 145 142 125
112.931513639207935 -1.798243009347702 -28.523778150380764 145 142 125
110.818492199861254 -2.005272687903501 -30.614833653917742 145 142 125
108.250849709709669 -2.443645213534134 -33.151171986441454 145 142 125
106.516711237506669 -2.500814816468348 -34.870731963197073 144 141 124
105.616176594607467 -2.167749870726613 -35.773654300658194 142 139 122
104.564187362690816 -1.914714631982471 -36.825015265739609 142 141 123
102.754445111568231 -2.040494846979042 -38.618559295231677 141 140 122
100.944733698707509 -2.179134037070297 -40.411985713752074 141 140 122
99.362426604410118 -2.217556898369290 -41.982656501051622 145 144 126
98.234938776045269 -2.039397096206577 -43.107987350817297 143 142 124
96.501150994493273 -2.175076939925903 -44.826906951429720 141 139 124
94.009372182357083 -2.708210328513519 -47.287703901390387 142 140 125
92.427221782676213 -2.793670764445755 -48.857965469472049 143 140 125
92.209689428782880 -2.187186620464704 -49.092718237734857 144 141 126
91.158387071620709 -2.014742526114470 -50.143578236209635 146 140 126
88.742465899437548 -2.562703215261713 -52.529653711331889 147 142 127
87.008890364905966 -2.768918063435228 -54.247948797956809 142 141 123
86.109417217819384 -2.545629943621503 -55.150248963359729 142 141 123
84.679246638744544 -2.611666139105384 -56.571699330299936 145 144 126
83.779965266133999 -2.402794890655504 -57.473942839855511 146 145 127
82.577441578663183 -2.364126630202485 -58.672799820233394 144 143 125
81.299151055562859 -2.375167013526293 -59.945757415031665 145 142 125
79.565843636783768 -2.644456625898252 -61.663531507079625 144 141 124
77.453287504416011 -3.135146140853834 -63.751889758685877 143 140 123
76.250969120132623 -3.135759434728495 -64.950440610632853 145 142 125
76.110778294654338 -2.551602095645062 -65.111104595045532 145 142 125
75.363864912353904 -2.309322273902051 -65.864866550278691 143 140 123
74.465339078692736 -2.158002562793349 -66.766879100192625 142 139 122
73.946303597846409 -1.796882301397021 -67.298303691965572 144 141 124
73.427429692220301 -1.439198462415173 -67.829770207947803 142 139 122
72.529286570598913 -1.303730907280170 -68.731802671784834 139 136 119
70.416985628032066 -1.879021211496097 -70.819412166893500 140 137 120
68.760004898403338 -2.203521666094446 -72.462273487549965 139 136 117
67.710244931869582 -2.183052625759523 -73.512307004837737 140 137 118
67.419655203293203 -1.721201430493606 -73.821479480793926 142 139 120
66.294208894004754 -1.757708322242821 -74.945577314168276 143 140 121
65.168835757338769 -1.802073935730675 -76.069629259303667 144 141 122
63.512051892470453 -2.174231802235933 -77.712094197704886 143 140 123
62.766439629070476 -2.006344805335885 -78.465712841042290 141 138 120
61.337512363237693 -2.259892256148259 -79.885827857227099 142 139 120
60.819938866762143 -1.965015429348824 -80.417269980361652 146 143 124
59.239217844096459 -2.329036450846893 -81.985347993463790 144 142 121
58.114229609499262 -2.421653797827886 -83.109087395097106 145 144 123
57.141233035743639 -2.427358614089177 -84.084715950792059 144 143 123
57.611777762284774 -1.534182003896560 -83.653863541096285 142 141 121
