ply
format ascii 1.0
element vertex 680
property double x
property double y
property double z
property uchar red
property uchar green
property uchar blue
end_header
201.765511342513008 -2.472118827152289 31.751464709416126 171 168 163
198.630729167889541 -2.480980000385028 28.927728457230984 170 167 160
194.044694485530414 -3.002051860830186 24.808078943616920 171 168 161
190.103548310454755 -3.333566762380084 21.264836852971882 167 164 153
187.452379065091520 -3.246343148360181 18.873906093653915 162 160 148
186.494467638393360 -2.586778132427057 17.995071783649053 161 159 147
181.988766469561654 -3.182087397252977 13.948614040341113 161 159 147
180.224589087928393 -2.833716838141008 12.350109031198713 165 163 151
178.299189015460200 -2.554995434005997 10.607731568626690 165 163 151
176.615762008112085 -2.201587569135135 9.081402890617227 160 158 146
173.964653716331384 -2.213039634979508 6.691458689657537 157 155 143
169.539275383660424 -2.896580045663922 2.718341869282284 158 156 144
166.968736561137234 -2.919638047754857 0.400831861051415 156 154 142
164.075574866197314 -3.081101094553054 -2.204347337901936 155 153 141
163.360133452408093 -2.436896947663572 -2.866443699061676 154 152 140
161.999543785541277 -2.044042325562379 -4.104187159770191 155 153 141
159.993730586306583 -1.909093498631623 -5.917474219688472 149 147 135
156.616611066943449 -2.321029353331803 -8.953704721390750 143 141 129
153.804106365276425 -2.534116326570084 -11.486079673527826 147 145 133
152.363023691699084 -2.223339708118123 -12.795329570529475 145 143 131
150.841343991451708 -1.954355410778662 -14.176450821800216 145 143 131
149.481099928279320 -1.630557867036116 -15.413648778932725 146 144 132
146.991360092640775 -1.774276339475294 -17.657711841777058 147 145 132
144.017476608698587 -2.132834614105704 -20.333104098291130 147 145 132
141.446991601462230 -2.344904787023462 -22.648694254344861 144 142 128
139.037871054280401 -2.507088808905747 -24.820276348349921 143 140 125
137.435732939361998 -2.346983171186110 -26.272644712011498 143 140 125
135.107324041522133 -2.504623676193624 -28.372026866186530 143 140 125
133.021027223288399 -2.574694037452507 -30.255559358074123 144 141 126
133.113959707941831 -1.722686373324668 -30.197929198164672 141 138 123
130.704932127760230 -1.953041100952818 -32.368854051943714 141 138 123
128.699480710244814 -2.023467034690259 -34.180200161413410 143 141 126
126.613320040676840 -2.142797720658914 -36.063290725087455 144 142 127
125.092266681302988 -2.025717823364788 -37.443147987385316 142 140 125
123.813478832037816 -1.810621024984997 -38.607336521743463 143 141 126
121.323711918743754 -2.148750268087256 -40.849385463004211 138 136 121
119.318353188409759 -2.284035621118832 -42.660108283118404 140 137 120
116.990009454994237 -2.580208509844161 -44.758095628312390 141 139 121
115.469152580591668 -2.520556120963622 -46.137455758153834 143 142 124
114.432897737386995 -2.246488801491850 -47.085701609714135 139 138 120
111.943039873046487 -2.657743152417717 -49.326954326836301 141 142 124
110.341557319180282 -2.668032136657573 -50.777882351215425 143 143 125
108.659346298307568 -2.727224446438592 -52.300545652116398 147 144 127
106.007832781841287 -3.259918334284261 -54.684930591052222 145 142 127
104.648751946872622 -3.189638615491140 -55.920075446241526 148 145 130
103.289741745409415 -3.128354967633920 -57.155161491180365 145 142 127
101.203652176198034 -3.430255684262112 -59.036406783980397 147 143 131
100.006329117291713 -3.310189294952437 -60.127730714148015 146 143 126
99.213124917770742 -2.998464986073807 -60.860062128086497 145 142 125
98.743315733958681 -2.531106925835851 -61.305271085739349 144 141 124
97.546344292428969 -2.430803037029257 -62.396559803109170 143 140 123
96.672757580822164 -2.175411009535155 -63.200715527243261 145 142 125
94.829348951300148 -2.417894331720425 -64.866093508078393 144 141 124
93.390109372392146 -2.466212682447095 -66.172528790340635 146 143 126
91.708389550874060 -2.648795065908828 -67.694156963314981 144 141 124
90.188375388903950 -2.758880305967006 -69.072173049211955 139 136 119
89.881232108417763 -2.247083773235091 -69.373940475124215 140 137 120
87.552750571711854 -2.797288824723805 -71.469247015030334 143 140 123
86.356334373978498 -2.765513505934918 -72.560095960132173 138 135 120
83.704217073937912 -3.515043929078279 -74.941960043688482 140 137 120
82.831366552898345 -3.331033584427761 -75.745733191345920 141 138 121
81.715976115758124 -3.283236450595017 -76.764650618252887 139 136 119
81.652356034440558 -2.673241278548982 -76.851352861083541 138 135 116
80.699053208200766 -2.548234342568638 -77.726889434894872 140 137 118
80.231352294463179 -2.163194217816780 -78.172259641861814 139 136 117
78.550041532774586 -2.450695299508702 -79.693003526788914 139 136 117
77.435213979352156 -2.434912506314651 -80.711860695646237 140 137 118
76.239534933233585 -2.471633890193655 -81.802357220583502 138 135 116
75.853381006258644 -2.061287801024272 -82.176140828581907 137 134 115
73.524564194386912 -2.751735776966427 -84.269843383124510 137 134 115
72.005201214855830 -2.997370650428471 -85.646775711997378 136 133 114
71.295542763925056 -2.789739322586926 -86.307144759424460 135 132 113
71.314868239206092 -2.166992704152881 -86.322800244341295 136 133 114
71.658475050692999 -1.356007640384249 -86.052092902154442 134 131 112
69.005565176454766 -2.288000527649404 -88.431699643126819 138 135 118
67.972524544762550 -2.288652002678385 -89.378655343898629 138 135 118
66.534494232182780 -2.534784713441348 -90.683632932446073 137 134 117
65.015433869417379 -2.838508935335186 -92.060112089297320 143 140 123
64.711880840278440 -2.427545074069869 -92.362559157806402 144 141 124
62.949773036610864 -2.893076214444976 -93.953676346891655 142 139 120
62.403404069859221 -2.637092401434054 -94.470942470419601 140 137 118
61.857240858723799 -2.384401867259316 -94.988273127355654 140 137 118
61.149132829750997 -2.233920187410414 -95.648795621296671 141 138 119
60.522277910361453 -2.038114892018836 -96.237796978172952 144 141 122
61.355361121920836 -0.945557320464917 -95.538998525745768 145 142 123
60.485755161102006 -0.903239650889320 -96.342865346006533 144 141 122
57.993894115980950 -1.878608276379975 -98.577353036694831 141 138 119
219.968871397035144 -2.269614721561661 46.764756551722087 136 137 132
215.369442811665010 -2.629268098146050 42.649853073853990 160 160 155
210.850765133977262 -2.993899741029421 38.607228767257880 171 170 166
205.927678382790646 -3.519850100776757 34.205438485215268 169 166 161
204.400709314949438 -2.967337261306014 32.823929147554281 162 159 154
202.792945658171021 -2.451751578470374 31.370592889153585 168 165 160
200.457436284897085 -2.189990616286861 29.270290468096761 169 166 159
194.644509993926533 -3.117035676290385 24.078877306889297 170 167 160
190.691467017470131 -3.449381083241954 20.541335154055218 166 164 154
188.517608617109715 -3.196041727224480 18.585503919313624 162 160 148
185.939386535774446 -3.097748706653198 16.270420428724663 163 161 149
183.927336257218542 -2.818103558591415 14.458627734252161 158 156 144
181.349136754168399 -2.752431478201020 12.143869226013607 159 157 145
178.770937590027671 -2.704022617216153 9.829288254631649 161 159 147
176.030957696506277 -2.731261544601144 7.371163540494393 159 156 146
174.666143871721488 -2.275932926329074 6.134797826227725 157 154 144
171.683498055664899 -2.424451810343957 3.461435398400113 157 155 144
167.325534204995421 -3.103168883278961 -0.433123043205171 156 154 142
165.960806370910120 -2.690604035014451 -1.669089706160321 155 153 141
164.272544024990111 -2.409333651905851 -3.192362627432630 155 153 141
162.907977706792906 -2.015977228145942 -4.428208837072049 156 154 142
159.925262251718152 -2.253786389724887 -7.100618840149565 149 147 135
157.589823254233607 -2.260552242051802 -9.198190847344705 144 142 130
155.092553352960465 -2.346237253026346 -11.439248920172759 143 141 129
152.999885056899615 -2.288997315452510 -13.321043787768417 145 143 131
151.392795275636757 -2.052525395470148 -14.771829367730192 145 143 130
149.623913403634418 -1.891684112663423 -16.366153431757965 146 144 131
147.045753239248370 -2.070099530924532 -18.678418244235928 145 143 129
143.820075148202079 -2.529946571143329 -21.564886862405160 145 143 128
141.160893338453548 -2.778360852228179 -23.948529548921670 145 143 128
139.958674211459709 -2.440311097557800 -25.039755029183596 142 139 124
138.513711572651147 -2.211727056633294 -26.346302714627541 142 139 124
137.068827145283819 -1.992717054712589 -27.652789265763801 144 141 126
135.704977454316406 -1.748884546069327 -28.887439182640975 144 141 126
133.612567206280289 -1.826087315809014 -30.767973613202571 141 138 123
132.410782088810095 -1.532876840718119 -31.858945168903006 138 135 120
129.427773670302997 -2.022378145002044 -34.528624225614521 143 141 126
126.930517022199453 -2.318931524329270 -36.767518064666831 144 142 127
126.133762965538665 -1.881068400983254 -37.499449649301511 142 140 125
124.770275643194140 -1.700665358414177 -38.733620010727208 143 141 126
123.325883892680025 -1.565587396855728 -40.039478302126014 141 139 124
119.694772556924050 -2.428104158916251 -43.282138588606585 140 137 120
117.926407364547998 -2.467053085819271 -44.874653289401977 139 137 120
116.239074471398624 -2.480616637022742 -46.395335983896103 142 141 123
114.956815598319665 -2.318282148805594 -47.557320883395391 139 138 120
112.864522155196198 -2.541367420057956 -49.436409551153702 142 143 125
111.177299309950257 -2.588553764366742 -50.956798795887494 143 143 125
109.409086841219036 -2.685196659707497 -52.548792686151074 147 144 127
107.640894785412257 -2.793599228393689 -54.140675293662355 145 142 127
105.305485409011439 -3.185380397159082 -56.234298315415288 148 145 130
103.537288061669628 -3.319241104220590 -57.825916338067032 146 143 128
102.093282926765696 -3.307439462548474 -59.130690639959198 147 143 131
100.973536936401260 -3.146651715498264 -60.148687454276768 146 143 126
100.259176015543119 -2.793639680485530 -60.808303332861215 145 142 125
99.626039504826082 -2.404991400573779 -61.396284627693547 145 142 125
99.884834196256534 -1.575213283469250 -61.196055789242592 144 141 124
98.117069258204182 -1.761892421467511 -62.787336988372914 142 139 122
95.619575585110923 -2.329522475075152 -65.023327107096918 145 142 125
93.770667139561098 -2.583525344799165 -66.685955418306435 147 144 127
92.327212177787231 -2.641961621947998 -67.990269926955335 144 141 124
91.370407979860559 -2.458800162941410 -68.864730070273140 141 138 121
89.440436052346826 -2.787453060356091 -70.598668364257890 141 138 121
88.321569226368524 -2.704853053857114 -71.616280942112638 141 138 121
86.716067873618755 -2.885718264171774 -73.063530560096012 139 136 121
85.759605393142749 -2.733461987061292 -73.937836057308289 141 138 121
83.667360350247435 -3.192918820519973 -75.814514788337164 140 137 120
82.548751290322343 -3.144012276420773 -76.831903856853586 139 136 119
82.160590618469556 -2.708103257880801 -77.204990577054701 138 135 116
81.853815075796035 -2.230359174210954 -77.506583408511375 139 136 117
80.410954667375407 -2.375517756788864 -78.810289673191193 139 136 117
78.562248554147928 -2.753482151082925 -80.471738781244767 141 138 119
78.499496847033114 -2.155245290053061 -80.558735417115344 140 137 118
76.975613270846821 -2.370868429546769 -81.933814033897960 138 135 116
74.233748875330463 -3.279050262108360 -84.381969220869735 137 134 117
72.709739438430660 -3.519112075497473 -85.756736066771083 137 134 117
71.997882793940477 -3.308681292156426 -86.416082322135935 137 134 117
71.692314470237079 -2.871007216563383 -86.717840222287322 137 134 117
72.605504969173936 -1.735590096135973 -85.946947111503562 135 132 115
71.163186836133121 -1.953664712057731 -87.250162237505208 134 131 114
68.583347051976773 -2.841969216009478 -89.554316280665603 137 134 117
67.628471399092902 -2.798258397032973 -90.428263597829613 136 133 116
67.405142391600180 -2.330869916048589 -90.658811485344870 140 137 120
65.800328903128843 -2.681248393189001 -92.104645290029708 143 140 123
64.520628574736065 -2.849013172969714 -93.264456310943700 143 140 123
64.623060246437518 -2.198796726161145 -93.209293391186549 141 138 119
63.424894619280394 -2.329668365895577 -94.297631208397661 138 135 116
60.844320385245382 -3.304494084894845 -96.600543286922573 139 136 117
59.158075262492417 -3.752737354661928 -98.117271990338253 140 137 118
61.050784888486902 -2.023085975030387 -96.490787605130294 142 139 120
61.480001243129863 -1.180263610743994 -96.150504407351804 143 140 121
60.445146105413968 -1.239717691462340 -97.095986769901231 143 140 121
57.213246625539597 -2.672466622624643 -99.969464529072809 140 137 118
217.084257002725479 -2.405562861681042 42.824919096647221 154 156 153
216.850572465597622 -1.393780775619742 42.593721542156743 170 171 169
204.379361950783647 -3.291246995976122 31.507169199970122 158 154 151
201.631273719065462 -3.153025471986700 29.051220319486873 165 161 158
198.883180746696866 -3.033166597102491 26.595462722886424 167 164 160
197.595203855432089 -2.440600878907708 25.431784717507810 168 165 159
192.575772038137529 -3.124073768428804 20.966848158458987 166 163 155
190.395495463035644 -2.867232709426879 19.014051311726064 163 160 149
186.998358373851715 -3.046428096231745 15.985001432256809 164 162 150
184.169068392548752 -3.049736629324918 13.458497145494334 162 160 148
181.907683263462047 -2.871427010120556 11.434451831611142 159 157 145
178.753839396143292 -3.026302122720853 8.621337622702470 160 158 146
176.167915018960628 -2.997919539305150 6.310658507295273 158 155 146
175.123658853881238 -2.426965766006365 5.363184459281456 158 155 146
172.781215231086549 -2.338700185469003 3.267985234546614 157 154 145
168.978141548299163 -2.806256722674119 -0.118192148398037 155 152 143
166.716815891112617 -2.723862710415601 -2.141278605908326 156 153 144
165.916266098283558 -2.106495832797258 -2.873242045688443 157 155 143
162.924622468661539 -2.326803288860131 -5.541560994512736 157 155 143
160.663373300581441 -2.287156753953989 -7.564244022890421 149 147 135
157.590503448088441 -2.576362955643302 -10.303854300633418 145 143 131
156.059747245683781 -2.284715647394752 -11.680866666139963 143 141 129
154.447894766443028 -2.035132489911278 -13.129508748268336 143 141 129
151.780846028254530 -2.214830825365504 -15.510095250933063 145 143 130
149.276123955691332 -2.347384128904990 -17.747105791679843 146 144 131
147.502019342929657 -2.201914108813464 -19.338773090301459 143 141 128
144.997296020488079 -2.365415642363406 -21.575464467432141 143 141 126
142.654930262697690 -2.479032530294102 -23.668622864853177 145 143 128
141.043296152480593 -2.306126313243740 -25.116580139706826 142 139 122
139.594119343973006 -2.076202734331503 -26.421125569349158 142 139 122
138.063819770211012 -1.889970800129931 -27.797271291032018 144 141 124
136.289973486195208 -1.817039654081674 -29.388315494169177 143 140 123
134.434961491288533 -1.790541944100004 -31.050911221665842 140 137 120
132.255126811209209 -1.916131537804730 -32.999982918637897 138 135 119
130.643820469012496 -1.809703361256279 -34.447412704722439 141 138 123
128.870125856324705 -1.784923897106434 -36.038033817451975 142 140 125
126.527875520558837 -2.022286167777720 -38.129973658984966 142 139 124
125.485316794990368 -1.698557951529731 -39.075714939388291 142 140 125
123.711743928172723 -1.708507095835140 -40.666036815911838 140 138 123
120.557089950376650 -2.352329298446798 -43.473730492721501 139 136 119
118.133524119792227 -2.685446215780865 -45.636642514498902 139 137 119
116.522427880254440 -2.663270892478716 -47.083305556031888 141 140 122
115.642693518076896 -2.314950376930934 -47.885476824816124 140 139 121
114.275524496438834 -2.198507247046717 -49.117227502407644 143 144 126
112.989700182176918 -2.053085775484153 -50.277332612889467 144 144 126
111.541416786745856 -1.992608267023103 -51.580561254759658 147 144 127
109.280412166688635 -2.326953005427608 -53.599511594019987 145 142 127
106.775506600252285 -2.792788729823186 -55.833003708542236 147 144 129
104.676963621301638 -3.079960840012749 -57.708442941754811 145 142 127
102.740977914047036 -3.302394074541263 -59.440597636475331 145 141 129
101.211485726190290 -3.339522199785892 -60.814830451509437 145 142 125
100.413804059933938 -3.027536289326563 -61.545022553505646 146 143 126
100.917291810912133 -2.077611318132139 -61.130514113169028 144 141 124
100.282651394453239 -1.690451881533944 -61.717760619237310 144 141 124
99.241559317566200 -1.511002762187921 -62.662718402118600 144 141 124
96.085934582815412 -2.404930883521814 -65.467373206264824 144 141 124
94.150174087143952 -2.700548385583413 -67.198882319004440 146 143 126
92.865147569169011 -2.676401337155783 -68.358120753934969 143 140 123
91.417487075873865 -2.744398293887705 -69.660324937841551 138 135 118
90.376666882902654 -2.611244577086854 -70.604936247221048 141 138 121
88.766391066617160 -2.781760499671179 -72.050008308632101 143 140 123
87.562994112830097 -2.749450847533260 -73.137523184127446 140 137 122
85.301723919111083 -3.283691555155664 -75.154288844228034 139 136 119
83.935612523691717 -3.357255133338997 -76.384589652079995 140 137 120
83.627693687557667 -2.873840416432070 -76.685693906540649 138 135 118
82.994402936999009 -2.567388480160804 -77.272755325304445 138 135 116
81.547181713625122 -2.705832033859065 -78.574444512223835 137 134 115
80.588502138142488 -2.587556502094920 -79.447339577902170 138 135 116
78.652814754191070 -3.011344616291063 -81.177564342539938 139 136 117
77.938582939656186 -2.773967969229832 -81.836051692008482 139 136 117
77.305962406764777 -2.495852442354376 -82.423142059710074 139 136 117
75.207385915483059 -3.040682038710945 -84.295913062797212 138 135 118
72.864303256748855 -3.736918777958113 -86.382731298451375 138 135 118
71.580143413369029 -3.850056881862086 -87.540971202498412 138 135 118
72.903337872011150 -2.488473129414484 -86.414256202819075 138 135 118
73.004835775617977 -1.816686740316175 -86.358868601857864 137 134 117
71.476751029815119 -2.081978597849973 -87.731426128430172 139 136 119
68.644552218301072 -3.112544894973751 -90.245964760575134 137 134 117
67.523858559180070 -3.165203120430357 -91.261311106786764 135 132 115
66.240184746208129 -3.320680100778945 -92.419347710790532 142 139 122
66.913384349691270 -2.331399628733806 -91.864716175068537 142 139 122
66.037732011567527 -2.255230736179577 -92.666038876795398 142 139 122
64.999098087147004 -2.281872278221628 -93.610051236682125 140 137 118
62.981763697599192 -2.902072666995447 -95.410053468414276 140 137 118
59.659044928932715 -4.322869738258549 -98.351065502548721 141 138 119
58.457067843300507 -4.480029656236329 -99.437309332635920 142 139 120
59.866247640987751 -3.052682816109812 -98.241547472000263 143 140 121
61.031335910754422 -1.765007727558610 -97.260152004340540 143 140 121
59.095550844282045 -2.381290914178459 -98.988348589513407 144 141 122
56.506545331438460 -3.415580433111990 -101.286615082391563 142 139 120
214.167039561904289 -3.643382281675721 38.912020941885913 151 153 150
212.061622412394399 -3.240585441404780 37.032768091288460 168 168 166
210.932498284460792 -2.537520084352738 36.013675809981805 171 167 166
204.027107637642189 -3.720724164233863 29.906365121466337 157 153 150
201.108081359513335 -3.640096739220133 27.311067491611993 168 164 161
197.944950640160613 -3.659944749701727 24.501006179089842 167 163 160
194.619055358414357 -3.755441501359953 21.547871795961157 167 164 159
192.676367691357513 -3.404718098596841 19.813023506640832 167 164 157
191.303320576124122 -2.872117524415320 18.579801171243219 161 158 151
188.140141714736558 -2.966766065038224 15.770532849138817 164 161 152
185.302428683829362 -2.969013692349120 13.248047199999093 165 162 153
182.301938565857569 -3.047451633933684 10.582500046696453 160 158 147
178.731740236849959 -3.348305518933159 7.415776593351467 156 154 142
176.300860405417808 -3.264306017855545 5.252069975673379 159 157 145
174.521094992541748 -2.960764325450180 3.661483673291400 158 156 145
172.659994036475609 -2.698755517271665 1.999376649897869 158 155 146
170.066389569933790 -2.719180242059525 -0.307125938943045 155 152 145
168.693747215672943 -2.302606084539862 -1.539347592409115 155 152 145
166.507179774133078 -2.200658642420802 -3.487540512390950 157 155 143
163.832205708224137 -2.298216907334361 -5.865181074449652 156 154 142
160.017496081674295 -2.849039297630801 -9.244934764528011 148 146 134
159.296311921467890 -2.232961925536723 -9.903994292463608 149 147 135
157.028382483929533 -2.222933079078200 -11.923176633084694 145 143 131
155.900328101824755 -1.781009944820658 -12.940092609043205 143 141 129
152.573973708456862 -2.215869352392531 -15.889514124447288 145 143 130
150.794630803613842 -2.055917416848611 -17.478824511723388 145 143 128
148.038175377368589 -2.300711551312245 -19.926827982442120 143 141 126
146.666057396547387 -2.002486472351630 -21.158082267845344 141 139 124
144.072455302138735 -2.212732257545263 -23.462632067973942 146 142 127
142.293242529007330 -2.104529385609629 -25.051472030706577 142 139 122
140.106844571478348 -2.177320153682647 -26.997947363079760 142 139 122
137.920450218236851 -2.264623750593498 -28.944275031893852 144 141 124
136.467150885945870 -2.056891466136640 -30.246619834147225 144 141 124
135.095388406012717 -1.824056890757444 -31.477371092653925 141 138 121
133.479321304468442 -1.705068874919462 -32.922652632520510 139 136 119
131.618908862177278 -1.702399840379749 -34.582419523972845 141 138 123
129.677054354954066 -1.747535949237186 -36.313591613285894 142 139 124
127.409309734639663 -1.948610850268859 -38.330689372911081 142 139 124
125.467473500180589 -2.020570254261304 -40.061594098200203 142 139 124
123.851600800284515 -1.960109583015516 -41.506366187789439 140 137 122
121.013400464512827 -2.459245679949512 -44.023503989319181 139 136 119
118.827076925084924 -2.682336016725824 -45.968467814092151 138 136 119
116.477726054706679 -2.994240773342814 -48.056243480950400 140 139 121
115.758475766561986 -2.573295620318399 -48.714219572694645 138 137 119
114.468797792024830 -2.420830619612436 -49.872553607893877 141 142 124
113.586797424587516 -2.086927972983849 -50.673492417161356 145 144 126
112.867985902006495 -1.682196316647788 -51.331511519180964 147 144 127
110.518755376740799 -2.052618373879732 -53.418742410756721 145 142 127
107.354114454226817 -2.826734325236396 -56.220317188436013 145 142 127
105.330861322879656 -3.074860821954650 -58.021317857863920 144 141 126
103.389130300730415 -3.297051797575493 -59.750726507324771 145 141 129
101.284277985466332 -3.611390742822836 -61.622867733790940 145 142 125
100.484321243766217 -3.301073954337701 -62.351954266382165 146 143 126
99.929210284583689 -2.875283308729472 -62.866786157727802 144 141 124
99.619003040338129 -2.331513679287717 -63.167416909026343 144 141 124
97.595894371548880 -2.645220496306949 -64.967811637665164 144 141 124
96.143833750967531 -2.685174262682454 -66.268199478406530 143 140 123
94.120683926500490 -3.023803652171774 -68.068317977751690 144 141 124
93.484645704764120 -2.668951444805129 -68.654563224026248 141 138 121
92.277555781860130 -2.611102198147091 -69.740574287630892 140 137 120
90.988938047899282 -2.603260243179595 -70.897926860625404 140 137 120
89.782007588757565 -2.561420442241915 -71.983849417880094 144 141 124
88.003776320950934 -2.826343591894096 -73.569318155813164 142 139 124
85.980621614747946 -3.231981967304712 -75.368744562598124 139 136 119
84.855445361322907 -3.175225405747571 -76.383072712427776 138 135 118
84.301900331930710 -2.820995321699592 -76.897917130408445 136 133 116
84.156836111605472 -2.251043305075414 -77.056103476910806 136 133 114
82.460429938504660 -2.519563217395255 -78.569821151472667 137 134 115
80.682329163650394 -2.843688945930528 -80.154742914901533 138 135 116
78.577463670531472 -3.358253796629278 -82.024816811297455 139 136 117
78.269639160065921 -2.898108093543317 -82.325726671185976 139 136 117
77.226791164331573 -2.846653000624045 -83.268526921696832 139 136 117
75.448690299545319 -3.211488284665961 -84.853029598196997 140 137 120
73.670531371957424 -3.588128262610637 -86.437382986007435 140 137 120
72.954715717467153 -3.377652768757577 -87.094835724786265 140 137 120
72.239067133953640 -3.171645314150888 -87.752322397975263 136 133 116
74.221065795832388 -1.431088030363636 -86.057806956506766 134 131 114
71.053527342945699 -2.632255167457681 -88.853599713200737 134 131 114
68.866720660132401 -3.288434427914344 -90.793874401977604 135 132 115
67.088587874218547 -3.721841954963995 -92.377655958974742 135 132 115
66.618849893364029 -3.402742731872392 -92.821372877188793 143 140 123
67.049029599613959 -2.557770792164513 -92.481572670176604 142 139 122
68.297663659742526 -1.225862408123021 -91.429741652865943 141 138 121
66.683592246334527 -1.586600180893807 -92.871039864560601 139 136 117
62.369369154175715 -3.572101361396586 -96.662213464894961 142 139 120
59.036362466925866 -4.996806037040652 -99.598263571108248 143 140 121
60.367855505790786 -3.623725496301816 -98.475636925979728 144 141 122
62.027474357099649 -2.041680988030232 -97.068699976213679 142 139 120
62.214342026259274 -1.348434904265431 -96.943514988967081 142 139 120
58.717204801742625 -2.918728984438504 -100.021264753706589 144 141 122
213.766001516113988 -3.013683458801260 37.212793318383206 165 166 163
209.369594139198568 -3.355476380916989 33.333157998419978 173 169 168
206.033936703775964 -3.382549943579548 30.383989481891064 161 157 154
202.453414920152625 -3.512002958043490 27.220440418583564 169 165 162
199.444101288475338 -3.476229763924312 24.557938771398682 167 163 160
196.924438622920775 -3.296780984553408 22.324864164951094 167 164 159
193.262167825254721 -3.519776552327171 19.090527545321947 166 163 156
190.824097861798919 -3.349766520733839 16.929375312559699 162 159 152
189.855219616778044 -2.690177431621073 16.055787243051952 161 158 149
185.866366649602185 -3.086637343432722 12.536036429838674 165 162 153
183.346697923963518 -2.994061227895063 10.303858946484439 162 160 148
180.337251007030119 -3.091700216079881 7.642794341122169 159 157 145
177.164501830735105 -3.267711419684718 4.838941931628341 157 154 144
175.379521012413193 -2.963938244605263 3.250848278567361 158 155 146
173.023118912839095 -2.880113116390265 1.162372449084614 158 155 146
171.156584644616316 -2.631849025178918 -0.496993815120589 156 153 144
170.188208325319010 -2.062807546829305 -1.369889952129199 154 151 143
168.076860787627311 -1.927875090080424 -3.243548462685055 155 153 143
164.577439243620859 -2.331028247103955 -6.332219384653854 155 153 141
161.649522196700900 -2.539730241471617 -8.920285488133231 150 148 136
159.293180719785369 -2.548235028169350 -11.007839921091261 147 145 133
157.753480018987659 -2.255839134814823 -12.380580974788330 149 147 135
156.050518939751782 -2.037428759483232 -13.896175022787133 144 142 130
154.102603592305343 -1.926844347360347 -15.626050536461918 143 141 128
151.582998177445916 -2.056444031561918 -17.855971340357684 146 143 128
149.145052384370217 -2.170003401776553 -20.014264053498295 142 139 124
146.788775623909089 -2.266700293884223 -22.100941640941443 140 137 122
144.922613565114972 -2.179230992087489 -23.758830827317581 147 141 125
143.628329677839787 -1.869084809021275 -24.916584501272951 145 142 125
141.108709426304188 -2.075090340547089 -27.145711723584157 144 141 124
137.935458965700150 -2.570764926555731 -29.946033864602612 143 140 123
136.477892124502887 -2.365258043596269 -31.246314198047429 142 139 122
134.856985030094108 -2.238656880607650 -32.689358667865889 144 141 124
133.808128824809245 -1.878107524960110 -33.632466274044077 142 139 122
131.533628243839928 -2.052664653509042 -35.646604966002997 138 135 118
129.013942709714286 -2.348770247447235 -37.874773512142070 141 138 121
126.657662526351956 -2.590052287625070 -39.959961174518554 144 141 124
125.527330522561726 -2.306265193343872 -40.974159770369624 143 140 123
123.661476394753592 -2.356722365724559 -42.630776523386942 141 138 121
122.122611862683968 -2.273102344128175 -44.001768562409410 137 136 118
120.256818525097074 -2.347078868316802 -45.658172300756974 138 137 119
118.064032663220502 -2.581962653377398 -47.599923176733768 142 141 123
115.135399397981061 -3.168193798219653 -50.183760546623859 138 137 119
114.332480486903478 -2.793682792914297 -50.912090770860573 140 139 121
113.447944650029811 -2.462277366869505 -51.711790915094582 145 143 127
112.808873479012121 -2.021784239972604 -52.297466753836062 145 143 130
110.943279392076022 -2.163270914903356 -53.953270897116198 145 143 128
108.178046224612416 -2.743959558720256 -56.393617595600034 144 142 127
106.148810285850146 -2.991289857249631 -58.191764306135809 143 141 126
104.446738957403639 -3.094595765223742 -59.704472420541975 145 142 127
102.744686665209301 -3.209110646104844 -61.217074262236906 145 142 125
100.879030822024006 -3.414670247561036 -62.872189326718910 146 143 126
99.831527443432208 -3.230599503679834 -63.814127537543811 144 141 124
99.193252357952375 -2.850928333235273 -64.399558149925724 144 141 124
98.555156920574035 -2.475238171605774 -64.985033726820035 144 141 124
96.444193816240571 -2.842055623404224 -66.853711385110557 139 136 119
94.906069125149401 -2.933711778710595 -68.223253155781038 143 140 123
93.695373828998726 -2.869118966759298 -69.307608836087866 142 139 122
92.648476281234863 -2.728662458380876 -70.249387931068298 138 135 118
92.420329565486000 -2.173507551182251 -70.478534467382644 136 133 116
90.800629682834497 -2.340723283573189 -71.919132058262704 143 140 123
89.917845685080138 -2.134261589585074 -72.718384167726214 141 138 123
88.462000174279666 -2.234305723222820 -74.016342789623167 140 137 120
86.269145408894317 -2.733258195318180 -75.955342510745226 138 135 118
83.830477970860329 -3.377423931748058 -78.107828193530196 136 133 116
83.930840692733085 -2.679316058298857 -78.052168465779715 136 133 114
82.229348789580840 -2.950392577048704 -79.563426828083095 137 134 115
79.872426329667334 -3.587782927869493 -81.644229885729885 138 135 116
78.498548787682708 -3.704901946024370 -82.870367057661184 139 136 117
79.091322162344440 -2.752248487461220 -82.387741754419949 139 136 117
78.209420339745918 -2.609201642892678 -83.186763132552215 139 136 117
76.180217831732165 -3.108921786828598 -84.982327860774944 140 137 121
74.724682894870668 -3.301581198079465 -86.279481724601339 139 136 121
74.170909831856335 -2.996948608457733 -86.793706520153080 138 135 120
74.437211742064662 -2.232054072439106 -86.596401230138014 135 132 117
71.260066378366815 -3.423812305436403 -89.387694924206158 134 131 116
71.362753262895410 -2.759985356752972 -89.332794197123803 134 131 116
69.907509680021704 -2.991921882763400 -90.629683144625943 133 130 113
67.714033553486033 -3.660858685062011 -92.566635874599939 135 132 115
66.586825822785357 -3.723361739232649 -93.578764573528673 139 136 119
67.510817744548802 -2.591593925545530 -92.813001262253493 141 138 121
68.189222637702500 -1.597913323034038 -92.260905212021015 139 136 119
66.816502200355657 -1.814781708502552 -93.486569168497198 139 136 117
63.556020467606189 -3.165760401818531 -96.347214978001176 142 139 120
58.735377321508011 -5.473765851041227 -100.557952571466274 144 141 122
60.481690628218360 -3.855584245578643 -99.082003044375170 145 142 123
62.557274239522641 -2.025532757233861 -97.322320645814585 142 139 120
61.372652512941428 -1.592955293385342 -98.422937683312313 142 139 120
220.856658393965574 -3.261706513438257 42.137616767689678 119 121 118
217.429388459067894 -3.245994782714356 39.120976061449397 146 148 145
215.966391484115888 -2.631077983599125 37.819079223443055 173 174 171
212.702791663622605 -2.601902014837196 34.945718471160944 176 172 171
206.983599302396726 -3.388132964417487 29.929731618719956 164 160 157
203.065006982301384 -3.624259659622223 26.485576847354110 168 164 161
200.947191202294846 -3.292282715502708 24.612984443855254 166 162 159
198.420110156880668 -3.110687553067403 22.383436671105358 166 163 158
195.729310131993429 -3.000913974587862 20.011233022756358 165 162 155
193.120370767188973 -2.881128240379947 17.710623339990548 165 162 155
189.037790866043650 -3.284339113895965 14.124921776838988 162 159 150
186.346923426181519 -3.232364347534113 11.753345331791650 160 157 148
184.311046070131596 -2.969059264134001 9.953119626013972 159 157 146
181.702060859741550 -2.921600740388311 7.653276375930517 160 158 146
179.256832342609073 -2.833025144320166 5.496387016263753 158 155 146
176.484071440856752 -2.878464609460964 3.054131971378496 157 154 145
174.120727616130893 -2.793579161987068 0.968966125015328 156 153 144
172.003066813569546 -2.634284989915619 -0.901922908640984 156 153 144
170.049223940225914 -2.428401910566167 -2.629943671300168 153 150 141
167.767830902850960 -2.357622872235613 -4.643310404152004 152 150 138
166.305466639541947 -1.993614512431965 -5.942927202628226 153 151 139
162.304126406702721 -2.603403161532208 -9.454508250890882 150 148 136
160.841816812298532 -2.267063115793942 -10.753866398927755 150 148 136
158.560464589666651 -2.256821914264719 -12.766629511046972 146 144 132
157.016366718755648 -1.974319056976739 -14.137165139644026 146 144 132
154.898902602850910 -1.927340851326653 -16.006992142857627 144 142 129
152.945306938750917 -1.829381905419047 -17.734020252249650 141 138 123
149.844752124492601 -2.202757298053520 -20.459519743414830 140 137 122
147.235710092446851 -2.398549693335740 -22.756831906304654 139 136 121
145.200187600101003 -2.378525590513351 -24.554723164314993 145 139 123
143.656329668591752 -2.170491805283610 -25.924607031530599 145 142 125
141.047259293116213 -2.412570138626631 -28.221429190608234 145 142 125
139.421536951436622 -2.262465215007531 -29.662411998653056 143 140 123
137.222198998063902 -2.363792728020168 -31.602403138317925 141 138 121
135.924398018557667 -2.098262044476721 -32.758014997656034 143 140 123
134.872580956163631 -1.736357967319467 -33.699720084771229 141 138 121
132.017601009239002 -2.156112507323507 -36.209647692084474 138 135 118
128.670700929785710 -2.807760235170715 -39.147008710604354 141 138 121
127.291104986121042 -2.623125558772744 -40.373516321139022 145 142 125
126.239519913052959 -2.303310165885966 -41.314899151181834 143 140 123
124.860108067209651 -2.135583484726640 -42.541320790994348 142 139 122
122.824839016033351 -2.269645140704679 -44.337747212270131 137 136 118
121.363550711555575 -2.159000951271615 -45.635270741078244 138 137 119
118.016264741486495 -2.912367546636945 -48.571400107447772 143 142 124
115.734906388744776 -3.201442962310709 -50.581079270638810 140 139 121
115.175793717582451 -2.713831047144941 -51.094633114073872 136 135 117
114.534848251880831 -2.267664892525701 -51.679470691987319 143 141 125
113.155853771998139 -2.169819215531777 -52.905372677963697 145 143 130
111.202717221528147 -2.350696790625415 -54.629750221356488 146 144 129
108.757350428762379 -2.777303080281920 -56.781270404479415 144 142 127
107.050285278413654 -2.868317729765263 -58.291716011703215 142 141 125
106.327828846965105 -2.498162996042619 -58.947635484179841 144 143 125
104.702932486179407 -2.568621803307842 -60.386743065369387 145 142 125
102.093326943228121 -3.128772696847340 -62.680035121512958 145 142 125
100.960818356076160 -2.982683418356505 -63.691775054553119 144 141 124
99.910486722355913 -2.803436871321838 -64.632310579937410 143 140 123
99.024432889018144 -2.549441587096551 -65.430487698389015 141 138 121
97.071376974521314 -2.834513091108817 -67.153831297302077 140 137 122
95.036189490463116 -3.173778885987844 -68.948184470720150 139 136 120
93.657762893010670 -3.193768374714793 -70.173145193148542 140 137 120
94.742664380450904 -1.966668642730883 -69.263623996026013 139 136 119
94.103611178931004 -1.616913703920581 -69.848374417560706 135 132 113
92.232889530432871 -1.907523170366662 -71.500190557159414 140 137 118
90.772788312703526 -1.996926563240025 -72.796222793939108 140 137 120
89.066306532480070 -2.224828473801874 -74.305538434086657 140 137 120
86.866931661458679 -2.723553349437588 -76.241421301786175 138 135 118
84.667445345894407 -3.236863409070984 -78.177100722172497 136 133 116
83.946769224427229 -2.975853807250859 -78.832748403169376 137 134 117
82.815409330804457 -2.939881191466155 -79.843904381129335 137 134 115
80.122733690052172 -3.754621999866734 -82.205694250257238 138 135 116
78.909200662529230 -3.783257473060040 -83.287732724029667 139 136 117
79.175265233884858 -3.010595128698032 -83.090393849874488 138 135 116
78.537454139688975 -2.733234217776715 -83.674993303198704 138 135 116
76.666624735500733 -3.142539237643518 -85.325536099885767 138 135 120
75.946835044284512 -2.923021588054376 -85.981180748568192 135 132 116
75.309448562648996 -2.661886175806025 -86.565816317876966 134 131 114
73.603114370280878 -3.007393388456257 -88.073991993094438 132 129 112
72.883735861102579 -2.804370339184748 -88.729663562647175 134 131 113
71.341923403103635 -3.075121172577995 -90.095597606778568 135 132 113
71.692305331653600 -2.270030477812607 -89.828070783670285 136 133 114
69.410147042002649 -2.982000913581939 -91.833014188899853 137 134 115
68.444425139019458 -2.944665589685706 -92.701707071020564 136 133 114
68.301820650878255 -2.432784140610672 -92.860472395444560 138 135 116
68.324156777498430 -1.824636968651011 -92.877417886205706 140 137 118
66.453454214033201 -2.334497197768039 -94.526986297776489 140 137 118
63.676964346729605 -3.394961863673903 -96.957009254027412 141 138 119
62.546972269644385 -3.489916612085414 -97.967471889598613 143 140 121
61.252328170218121 -3.691156783405331 -99.119789282651425 144 141 122
64.158371387960642 -1.361791307652631 -96.653946753735056 142 139 120
219.467350915809334 -4.003689399613904 39.594986642985987 116 118 115
217.835863115848781 -3.431558897028107 38.152417889128685 143 145 142
216.286537638913728 -2.844247215595506 36.781245578985079 162 162 160
209.893585383216504 -3.812032889243039 31.202580905219946 169 165 164
206.291765803476125 -3.922616602385734 28.049026403374484 166 162 159
203.593005900209164 -3.762981625759955 25.680117485138879 165 161 158
202.125816501528618 -3.216111489401321 24.380926726757281 166 162 159
198.195472770960748 -3.497155095149655 20.942856142205557 166 163 158
196.810470127986974 -2.950174540823804 19.715205269939275 164 161 154
195.343441893245824 -2.440091689333044 18.416316081285004 165 162 155
191.823577581553394 -2.642006470194848 15.335353461605791 163 160 151
188.550003382147850 -2.782085921198424 12.468506649068246 160 157 148
184.701514587829990 -3.144287119277699 9.102971224378223 158 156 145
183.152458113064938 -2.722334191869470 7.733372345242856 159 157 145
180.453666558031301 -2.719167983736161 5.366089180741199 157 154 146
177.754860197056701 -2.733807505591244 2.998996382674534 155 152 143
175.138173350128284 -2.736517603842994 0.703353979940829 154 151 142
172.850032960385136 -2.636452690505976 -1.307086296889452 154 151 142
170.479763983416490 -2.581738825165127 -3.388628602905328 154 152 142
168.684527005827334 -2.328751829295590 -4.971292976872718 154 152 140
165.492792523453431 -2.611644219835966 -7.764962699264913 153 151 139
164.190526298418177 -2.200256325749626 -8.919939781988006 152 150 138
161.820310120591756 -2.205261082797827 -11.000892633152262 150 148 136
159.532255691286707 -2.194227174727544 -13.010457592298962 147 145 133
156.422555018711762 -2.517506646831892 -15.732097398670817 147 145 133
155.202671483210736 -2.120753088812477 -16.815476554189644 143 141 128
152.996815784064779 -2.121613439196187 -18.753383785592831 140 137 122
150.626614621971612 -2.202483129556732 -20.833562904362537 140 137 122
148.256404126983455 -2.298964203712177 -22.913576862491340 139 136 121
146.132738994427939 -2.311167163192605 -24.779828139131752 143 137 121
142.776235579222401 -2.840903654578859 -27.713849848345063 145 142 125
141.556664332389403 -2.512850562469400 -28.796671233284457 144 141 124
139.926203687265883 -2.363321031180453 -30.235381330400941 145 142 125
138.049192780451477 -2.327644225270304 -31.887547338892489 140 137 120
136.090005282904315 -2.338952195510606 -33.610775595071686 140 137 120
135.610667389459877 -1.734095074797395 -34.052841397601100 137 134 117
134.555997967597307 -1.378739914828263 -34.993114514429095 137 134 117
130.952559582022218 -2.130586047807919 -38.139293748882039 142 139 122
128.664577510182937 -2.333956864739084 -40.146686348050196 145 142 125
127.034427542898698 -2.264011637409915 -41.584725871159691 144 141 124
125.075379038676033 -2.350018294483030 -43.307251710159932 143 140 123
124.021009892348928 -2.046291226356538 -44.247137043889751 140 139 121
121.321801596906042 -2.486870065388049 -46.609653150519335 138 137 119
118.787007451490396 -2.870979756753975 -48.829687918420916 140 139 121
117.074727852765974 -2.897540019538152 -50.338302412796821 140 139 121
116.431920477666822 -2.445145237252074 -50.922313374030153 137 136 118
115.295668757804336 -2.224654753175809 -51.933028454197029 144 142 127
113.665869915718943 -2.241045240186294 -53.370347257519057 145 143 130
111.706981737156426 -2.422228391138681 -55.091970096301480 146 144 129
109.994947076995572 -2.499842495956952 -56.600176245603279 143 141 126
108.941289133498941 -2.275945109074317 -57.539580089317354 142 140 124
107.640849652935074 -2.176916898755490 -58.692215805193001 143 142 124
106.752026373344691 -1.888094463237036 -59.489426523414124 144 141 124
104.546336235623457 -2.243684658801593 -61.423761546338028 143 140 123
103.163780930995514 -2.211809846639219 -62.647280974709133 142 139 122
101.863617296169039 -2.148438606384039 -63.799681619134617 143 140 123
101.222197422288275 -1.767434438245969 -64.383621496739863 143 140 123
98.687139288805199 -2.334219408272029 -66.601649605243495 141 138 123
96.069599039066219 -2.959102248012650 -68.890479406416972 140 137 120
95.757825753986438 -2.436716243722317 -69.190140856752464 141 138 121
96.022828025499436 -1.622946032563451 -68.992716925917591 138 135 118
95.629228413957222 -1.144196887270018 -69.363642650960145 141 138 121
92.599814559853669 -2.025525415035673 -72.007088231898422 139 136 118
90.393992043321035 -2.499904570752236 -73.940137170811397 140 137 120
88.764808451718977 -2.687921067580438 -75.375983675119187 140 137 120
87.053224653733494 -2.929870423595675 -76.882713930044758 138 135 118
85.506436980795456 -3.095939802962350 -78.247345387196702 136 133 116
84.206906744974290 -3.140615129980672 -79.398936869940343 137 134 117
83.484403362345347 -2.884913718551589 -80.053655755590427 137 134 117
81.443145948758612 -3.344019932604694 -81.843871517890790 138 135 117
79.896435451439856 -3.548552396149113 -83.208143975746850 139 136 118
78.761972962917497 -3.538405459111209 -84.217549846256645 138 135 117
79.194315811894072 -2.675985263212742 -83.878964082976495 138 135 117
77.895251682660316 -2.766110924353035 -85.030310706392470 138 135 120
77.503483622934752 -2.360797105222080 -85.401356732843141 137 134 118
76.534557326323053 -2.280297665926366 -86.268960953959265 135 132 115
74.658291465217275 -2.716034872975198 -87.916630888510582 134 131 114
73.772000535569191 -2.604301248352848 -88.713230210171588 135 132 113
73.793516014168006 -1.981828954191492 -88.729930561411436 138 135 116
72.494975899278060 -2.114247708531966 -89.881092527438767 135 132 113
71.113934628913100 -2.302590745469026 -91.103069451662890 140 137 118
70.145634539856459 -2.260965271940151 -91.970573099068702 133 130 111
69.507672731290256 -2.033175940464555 -92.554590185984893 132 129 110
67.713967927147408 -2.486307351204420 -94.130719114994434 139 136 117
64.268599726840961 -3.924234155553256 -97.123738641411990 140 137 118
63.465525711693246 -3.819592735537717 -97.849216761180941 141 138 119
64.892800046509393 -2.391023643738806 -96.662123846335362 144 141 122
64.668605184163411 -1.942097900913069 -96.892067465617970 143 140 121
64.527345848005382 -1.444345338776677 -97.051330870408862 142 139 120
64.634330244969007 -0.796730897258265 -96.998319175064097 142 139 120
63.088799259524620 -1.155128276197702 -98.361572098488523 142 139 120
221.017885012539296 -4.919017395224678 39.638650571219870 101 103 100
219.216912182144881 -4.390211381472930 38.055891065863051 115 117 114
217.004302333241242 -4.001419748743069 36.117204112946098 138 140 137
214.791723245710955 -3.627175184240627 34.178652184174666 158 158 156
211.107781404939573 -2.684209889925279 30.942681096403078 160 156 153
212.354015055329995 -1.228508533202111 31.994386198248549 163 159 156
205.529955232373425 -2.410630175740941 26.069873750145746 166 162 159
199.282089840922822 -3.446927727026782 20.644223014856095 166 163 158
196.657743818602341 -3.312397569697664 18.350832052482161 163 160 153
195.351183153010169 -2.749994352470275 17.196354938816711 165 162 155
193.385800044321002 -2.420868651646713 15.472586386975621 164 161 152
189.196529214378216 -2.870552373574151 11.827544881908977 162 159 150
186.819297938850809 -2.717785555965888 9.748324007363635 160 158 146
182.794591292850555 -3.158916735878179 6.246185295007194 161 159 147
180.417318722954207 -3.042856503492446 4.167362014867905 158 155 148
177.710531563453515 -3.060258096485185 1.804115634845999 154 151 142
175.415648374945931 -2.946794931913316 -0.203236825098401 153 150 141
172.791227236636473 -2.968432885434188 -2.494984335423567 153 150 141
170.496357122576228 -2.886203608376603 -4.502021544043998 154 152 140
168.036708146142814 -2.880152893241279 -6.651162735354063 154 152 140
167.389830697622443 -2.212029473195364 -7.235447190654952 152 150 138
164.435837469559772 -2.418895049257903 -9.811057441633437 150 148 136
163.377140668772427 -1.923543972610045 -10.750844922486806 150 148 136
159.763845484407966 -2.416209833206457 -13.894976570929799 148 146 134
157.716301501526942 -2.326137705013238 -15.687837828588670 149 147 135
156.163294513360370 -2.056289364250902 -17.053981106732806 145 143 130
153.456448162700440 -2.251194882753214 -19.415372032831414 142 139 124
151.326546131707175 -2.234672002074553 -21.278935288140929 143 140 125
148.949365776787829 -2.331181149161254 -23.355614600200568 141 138 123
146.901912702611298 -2.310114583015712 -25.147809039356417 143 137 121
144.607160118915203 -2.403178204557772 -27.153098096235340 141 138 121
142.642174376948390 -2.375919364091160 -28.873949479715776 140 137 120
141.254353421861538 -2.122675243793638 -30.097228504451522 142 139 122
139.289447600120724 -2.119220163567003 -31.817873097432027 139 136 119
137.407021469324718 -2.093956492208068 -33.467341293707591 137 134 117
136.019401399046728 -1.871323590565595 -34.690401324395935 140 137 120
134.466932524682761 -1.728142237972119 -36.055498187397546 140 137 120
133.079475287886680 -1.524071652761974 -37.278445045817534 142 139 122
130.372461033313755 -1.901378283755428 -39.637878100978412 145 142 125
127.087987693736224 -2.548853591625614 -42.494287921768290 144 141 124
125.700582666182029 -2.382541730496992 -43.716871087395361 144 141 124
125.055699495046085 -1.895819343864824 -44.300242346196200 141 140 122
122.183526120056129 -2.408811630003498 -46.800984933497489 139 138 120
120.301287136546122 -2.494901821855755 -48.449396439139775 140 139 121
119.079139097627063 -2.293863439658147 -49.529677669361860 141 140 122
117.692059776781988 -2.176125834772606 -50.751916652740988 139 138 120
115.232277366844926 -2.561165360617361 -52.896968321602969 143 141 126
113.597691212966438 -2.579790414864086 -54.331973889849621 145 143 130
111.137807833878739 -2.994443208994421 -56.476672431169192 145 143 128
110.658787568045895 -2.493739375562312 -56.917818083551140 143 141 126
110.014882630443708 -2.074106564223150 -57.500966739219990 142 140 123
108.710744353240557 -1.973421806051045 -58.651850015141065 143 142 124
106.993895501202587 -2.079402778948237 -60.157461077127067 143 140 123
