ply
format ascii 1.0
element vertex 689
property double x
property double y
property double z
property uchar red
property uchar green
property uchar blue
end_header
-122.041479729760098 -104.951774571461371 -8.949167950066993 51 53 50
-122.059660614169147 -104.390014446784534 -8.613676101690515 51 53 50
-122.013261694686037 -103.831585323927754 -9.306774686744149 51 53 50
-122.010041691494777 -103.271488255853114 -9.314080485723906 48 52 48
-121.978176802846519 -102.715778077018825 -9.778480282947015 47 53 49
-121.989465472143891 -102.154038819412037 -9.557144316780636 46 52 48
-122.000821383671379 -101.591210543220214 -9.335787391977220 44 50 46
-121.990719221610888 -101.033031701238912 -9.457224731825619 51 57 53
-122.059604717757381 -100.451353979320075 -8.321668798385616 49 55 51
-122.056812079292371 -99.888805468422746 -8.328795381477676 51 56 52
-122.046922008413503 -99.328983285693269 -8.450148173363630 48 53 49
-121.994089274837179 -98.787718015062126 -9.257006881793330 47 52 48
-121.984359410448135 -98.230608187006723 -9.378255111814468 42 47 44
-121.946036242841785 -97.688226523721099 -9.956466215368238 44 48 46
-121.957962227572580 -97.121818857867893 -9.734873413954347 46 51 48
-121.984287806886115 -96.546125979446884 -9.284769703366266 49 55 51
-121.974859049643115 -95.990067567834615 -9.405863062003192 50 56 52
-121.972670071785416 -95.429903861149754 -9.412676307942093 51 57 53
-121.970556108254826 -94.869726256217064 -9.419453810345715 34 40 36
-121.997161036373768 -94.288803622910194 -8.969270292740873 46 52 48
-121.995194314793821 -93.727504548446632 -8.975988898949254 48 53 49
-122.014780884587211 -93.149005464137758 -8.639996878023624 56 62 59
-122.098862038995151 -92.514853115444524 -7.275993771611127 13 19 17
-122.283202250866196 -91.786326410908373 -4.312974129535206 18 26 23
-122.417483357680766 -91.089421783620509 -2.149589284246730 16 25 24
-122.394389190392246 -90.532121979451247 -2.498950676326501 14 23 22
-122.342760380818419 -90.004792381905986 -3.305089984756393 12 23 25
-122.269759750032321 -89.503339744387318 -4.453763789410118 13 24 26
-122.282697632579286 -88.915689343473773 -4.231905561692855 16 29 31
-122.367245360152083 -88.247842810753667 -2.868026079440284 15 29 33
-122.373185003929464 -87.663406705010175 -2.760341583728007 16 30 34
-122.229017068678502 -87.255903814725599 -5.050683360156796 20 29 38
-122.235133577664513 -86.676036646942407 -4.942867222361315 20 29 37
-122.241333783906086 -86.095589450869880 -4.835017014608212 21 30 38
-122.233317460493609 -85.533102252885115 -4.955500844469725 19 28 35
-122.218237960183146 -84.980666033907511 -5.190119099093067 27 36 43
-122.267595601273428 -84.340935758082097 -4.397079443437946 32 41 47
-122.188344736498379 -83.878946305117708 -5.659196009145290 49 60 66
-122.130636302698932 -83.391829473586526 -6.578688743684211 36 47 53
-122.094467986456763 -82.877129546741457 -7.155584031712237 30 41 47
-122.122732050973497 -82.266947629246090 -6.704907969452506 27 38 44
-122.143937198021405 -81.665716152018021 -6.368375622656401 17 28 34
-122.243870500598746 -80.936818589298909 -4.776046393139239 10 20 22
-122.236665006953586 -80.376114597659495 -4.896123969380625 5 15 17
-122.150917936714492 -79.947886667213098 -6.271859658123645 4 14 16
-122.186795441519124 -79.317540487973844 -5.706890028082199 6 16 18
-122.251366359831607 -78.634231827246069 -4.685303197117435 2 12 14
-122.251696142706223 -78.061307094595506 -4.691042832206506 2 12 14
-122.237826862993387 -77.514502557911129 -4.925024151709266 8 18 20
-122.259805123130405 -76.901911749392752 -4.588238877564720 10 20 22
-122.281887112840948 -76.287618623091532 -4.251421502359875 10 20 22
-122.296924348038544 -75.685530235655591 -4.028707568978888 19 29 31
-122.319218605911999 -75.068098681901617 -3.691820950822859 16 26 28
-122.334470768464698 -74.463413432843183 -3.469030927733115 13 20 23
-122.371287409629119 -73.813376563698782 -2.903814704239124 11 18 21
-122.393914659818066 -73.190536638599468 -2.566824454784012 12 19 23
-122.423809271407904 -72.550704758408116 -2.115673546354429 12 19 23
-122.367981238987014 -72.095188821040466 -3.033941419440794 11 18 22
-122.419567550332630 -71.406636812572259 -2.240338122194800 8 15 18
-122.392576608350609 -70.891220493078222 -2.701991475103171 6 16 17
-122.465876073738301 -70.148744656155500 -1.565979089683736 5 15 16
-122.446276600298646 -69.617057084558269 -1.913404992628671 5 15 16
-122.526997495406903 -68.850101539867524 -0.663235317678641 11 21 22
-122.521960829006218 -68.283302356544183 -0.782338075270360 16 26 27
-122.552844618165935 -67.629639926479001 -0.330856312479710 5 15 17
-122.569542498430778 -67.009161014932801 -0.107537235093957 5 16 18
-122.665153703653942 -66.189375702794365 1.370929879680546 3 14 16
-122.603340057279226 -65.764607656992865 0.339256127969492 17 29 30
-122.584622336722688 -65.233314059680112 -0.007743892043351 35 49 50
-122.759505133114175 -64.195109126963544 2.725845911471822 31 47 47
-122.848586645464792 -63.372905016510074 4.090305460731429 23 41 41
-122.830314128022621 -62.834693448090633 3.743447214210590 20 38 38
-122.797834352689051 -62.337309671884036 3.168494755347353 24 42 42
-122.808513348509692 -61.722978928469146 3.278138820308641 29 47 47
-122.905423313802203 -60.865558117025898 4.756839856347767 25 43 43
-125.383585737461075 -2.510183735421484 25.185443482428440 126 128 114
-125.012807509635735 -1.178632434243621 16.569082868745141 114 118 109
-124.585962366398832 -3.209900158185774 9.845116264119127 25 30 24
-124.477801969295129 -3.389345727648978 7.799759895711219 17 22 18
-124.307138994986019 -3.948596153349039 4.841540951428101 11 17 13
-124.472966518562970 -2.519803523374982 6.790766033642143 7 14 7
-124.569256697642473 -1.501901940396165 7.713224232279003 2 12 3
-124.564166950444132 -1.091360362504227 7.152268979363498 1 11 2
-124.488605180142187 -1.109808112529465 5.564285990526855 2 10 0
-122.802723563673752 -174.067466876912277 -7.651831197764693 220 188 188
-122.629709723432512 -172.823115675528754 -9.964586856327998 220 180 180
-122.570344893311969 -172.084926152530755 -10.554879767769194 214 170 170
-122.564012583985331 -171.578757778492758 -10.341401598355901 63 23 23
-122.512911181234315 -170.877437500156503 -10.816502915890879 45 8 6
-122.499674495616318 -170.339381265745970 -10.717514899115571 82 44 37
-122.419345392752561 -169.514546819360476 -11.651305581262164 105 70 57
-122.421704387082784 -169.041787253359701 -11.322466743405954 116 83 68
-122.334701894595611 -168.192296455438196 -12.370562637407062 91 58 44
-122.419657867178003 -168.061334144096264 -10.779243663302140 96 63 48
-122.385477812997863 -167.431282982962244 -11.023798487015569 65 29 16
-122.373927337813811 -166.894041039414134 -10.923995411043478 112 76 62
-122.243778324117159 -165.873896626113407 -12.659642385812276 114 78 62
-122.240302263403223 -165.370571215449132 -12.444768532802897 106 75 56
-122.251876916314259 -164.925679597471287 -12.000375211761167 110 82 61
-122.263643218130639 -164.478881143537762 -11.555909834560424 88 63 43
-122.157311862192188 -163.565317532599977 -12.946488778996041 49 29 13
-122.132669984425689 -162.975268695788202 -13.075209922867089 32 17 4
-122.204183183646990 -162.756538914580744 -11.712943129959001 30 19 5
-122.305214646525485 -162.644309697737839 -9.892023097405314 29 20 4
-122.303196654337796 -162.132305356288327 -9.676541046005269 32 25 10
-122.220524550162992 -161.315180122042023 -10.722232142075114 39 36 21
-122.219013716219294 -160.804578379539493 -10.506493030253978 34 35 20
-122.408433120161661 -160.997963467578245 -7.309836049050546 30 31 20
-123.040433802876365 -149.466376657152239 7.839759959495666 92 103 96
-122.992829350464220 -148.761700324997122 7.255438140547852 92 102 94
-122.952612231183195 -148.079595610845217 6.785741622371916 81 91 83
-122.776621421697186 -147.031521066500716 4.141005511396514 74 81 74
-122.622488448852408 -146.053564720552885 1.840024531149766 69 74 68
-122.568776729330153 -145.350451010364822 1.141938216482913 66 71 65
-122.522425307265664 -144.669338513532267 0.558458397352837 67 69 68
-122.483415896126360 -144.009399589837386 0.089567806228501 67 69 67
-122.437466164832429 -143.333779774226571 -0.493663306486752 71 73 70
-122.434479920293469 -142.767473789423406 -0.390062302706951 69 71 68
-122.381772789339436 -142.078493818350950 -1.087522539969399 65 67 62
-122.286557870604582 -141.289783729582865 -2.471498238926017 64 67 61
-122.291187360396719 -140.744616133193006 -2.253177420975362 58 63 57
-122.253284552713183 -140.098614289033435 -2.721395155438529 65 70 64
-122.187136795638594 -139.389444555466355 -3.647210935375170 36 41 34
-122.156697573249787 -138.765249093009800 -4.000774767254427 46 52 42
-122.161899170860252 -138.221916777067719 -3.782161363420954 57 63 53
-122.153032117610095 -137.646502411768694 -3.792326360427495 71 78 70
-122.115944232506578 -137.010097185099539 -4.260055455916927 67 74 66
-122.079017625792090 -136.375984615817146 -4.727683796903619 49 56 48
-122.056409091071643 -135.773615507130188 -4.966417900099231 77 84 76
-122.005638096175602 -135.114624571895121 -5.662643204296955 77 84 76
-121.997467326480134 -134.544090677892939 -5.672424864494815 62 71 61
-122.017688714684652 -134.029275209152672 -5.224614736249805 61 71 60
-122.016806125002120 -133.471463119645250 -5.119919919266209 83 93 82
-122.037214518904435 -132.953271126208818 -4.672055084401279 54 61 53
-122.015369092669900 -132.354459643325612 -4.910387498683377 41 48 40
-121.951334354241382 -131.679946155569098 -5.834835683594633 86 93 86
-121.908618051896468 -131.047505116957524 -6.416075474141110 77 82 78
-121.957644942760467 -130.577340355808275 -5.510589740315055 32 36 34
-121.964470475627863 -130.030920157461594 -5.291231236545855 51 56 52
-121.915078011894650 -129.389719363075841 -5.986613933303715 42 47 42
-121.851761336187721 -128.728973688833861 -6.910576880449412 45 49 48
-121.851893742844908 -128.173233705670128 -6.805375163464475 43 48 47
-121.824006486130628 -127.573411020325693 -7.157467262473830 45 50 46
-121.852447087002531 -127.060316009481070 -6.594848496603959 42 47 43
-121.880956292213341 -126.544554621696989 -6.032224357010847 40 45 41
-121.902514006604093 -126.016043317830778 -5.583915913010031 40 45 41
-121.882046687883275 -125.426553726227851 -5.821493090471478 39 44 40
-121.854675360954516 -124.828677703070070 -6.173318332468000 40 47 40
-121.848449210690305 -124.260285343155061 -6.182147649509375 37 42 37
-121.814287804265035 -123.655985346062579 -6.648146252373948 40 45 41
-121.808261438906428 -123.088791407024360 -6.656867657053141 43 48 44
-121.788323858020192 -122.504758512529179 -6.894135241225740 45 47 46
-121.761489763451877 -121.913693728943713 -7.245633361591985 42 45 44
-121.734762297878405 -121.324312878550771 -7.597063137442234 42 46 45
-121.708140057792619 -120.736614119198492 -7.948425259171813 42 46 45
-121.744538365519816 -120.216781190789462 -7.271210025469031 43 47 46
-121.739063056397839 -119.651230849730268 -7.279650888353814 43 47 46
-121.740659258658042 -119.092530065325192 -7.173779373584409 46 50 49
-121.693454820749920 -118.487571752061939 -7.867742264222613 45 49 49
-121.695227876774879 -117.929766159861373 -7.761776928555349 44 48 47
-121.711035081994211 -117.383433090426394 -7.427261841737391 46 50 49
-121.705983539067901 -116.818344979280909 -7.435495218362036 48 53 49
-121.652201918878205 -116.215171576453429 -8.243445122399748 49 54 50
-121.619446606635890 -115.631365024909911 -8.708560105296812 48 53 50
-121.600726746221014 -115.059570246260847 -8.945119163095569 49 53 52
-121.616925978342408 -114.512034163210927 -8.610428915174936 50 54 53
-121.626226259102012 -113.958535285459817 -8.389959364899966 51 55 54
-121.628633910395521 -113.399889904752797 -8.283699085396364 56 60 59
-121.596316877215500 -112.821672768566302 -8.748546862432192 53 57 56
-121.598880789592343 -112.263348713718969 -8.642208520593414 53 58 54
-121.566740049784741 -111.688175080593140 -9.106940631178247 52 57 53
-121.555551206219974 -111.124181156559317 -9.228957693294262 54 59 55
-121.558343901976031 -110.566192976166874 -9.122506444946623 55 60 56
-121.575105659520318 -110.012574588123840 -8.787609695012662 53 58 54
-121.543298680586503 -109.442109603354879 -9.252133667056512 54 58 55
-121.546307805765039 -108.883356110921980 -9.145586757356284 56 60 59
-121.563273516572835 -108.327334180220774 -8.810617177752164 57 61 60
-121.566417810642648 -107.766974713070255 -8.704022134822225 55 59 58
-121.493292680459433 -107.194137487274588 -9.853490296988468 55 59 58
-121.461904093745389 -106.631640844103941 -10.317732089485503 54 58 57
-121.451410393576367 -106.072956844785367 -10.439361939661183 53 55 52
-121.524207583245555 -105.518051486934723 -9.190800199134969 49 51 48
-121.513843445083495 -104.957204844461216 -9.312390328463039 45 47 44
-121.552073621956239 -104.394977317615087 -8.634735123739034 46 48 45
-121.541847573343730 -103.833325367209568 -8.756267480938988 48 50 47
-121.497055023448198 -103.276326300927423 -9.448582863997416 44 49 45
-121.445425404600755 -102.723691971415079 -10.254983033899180 40 46 42
-121.435438800568534 -102.166679488458598 -10.376353085263560 41 47 43
-121.460144466395406 -101.602022783984069 -9.926910734852328 41 47 43
-121.471064819691605 -101.039007162113663 -9.705764108056968 46 52 48
-121.523575922999797 -100.461804229586832 -8.799713336609898 43 49 45
-121.527699413182518 -99.897425851818269 -8.692691218281880 46 51 47
-121.552646282898607 -99.324316336756937 -8.243220485782530 45 50 46
-121.494650935975500 -98.785020618718178 -9.163387582067628 43 48 44
-121.464410132921486 -98.236987834329682 -9.626931395031505 39 44 40
-121.420421719223242 -97.698215900083170 -10.318674461062926 40 45 41
-121.438738845353498 -97.128350859092521 -9.983200863089166 39 44 40
-121.470945072648618 -96.548662699488318 -9.419466111179673 41 47 43
-121.461745972475285 -95.992410356515208 -9.540451598894578 45 51 47
-121.431891617578714 -95.450593253229229 -10.003746555256470 44 50 46
-121.395209421971344 -94.915848651883849 -10.581094011315656 35 41 37
-121.400057725711079 -94.352739082351292 -10.473712084185848 44 50 46
-121.418791107613700 -93.778165694837767 -10.138087816253432 46 51 47
-121.465216484014505 -93.179044636006381 -9.346032934903945 48 52 50
-121.546228935045676 -92.546108731732502 -7.983485364194763 13 19 17
-121.654912490651739 -91.881538470004898 -6.164590120556682 20 26 24
-121.749838472988159 -91.221310646259354 -4.573949523759154 22 28 28
-121.789598047029770 -90.607941338074880 -3.896089088718611 25 34 33
-121.691388679160681 -90.133004537846475 -5.499985265632830 29 39 40
-121.627783808200249 -89.628878188718872 -6.533332807928190 23 33 34
-121.647075797843328 -89.038054189560015 -6.197608579676768 12 23 25
-121.728541689591466 -88.374432008073626 -4.835159953749638 15 26 28
-121.747979607232224 -87.777827161392253 -4.499425419211974 13 26 27
-121.650217205747680 -87.323188821778658 -6.102898826687664 17 26 33
-121.656023809135306 -86.745326539254165 -5.995210309377057 20 29 36
-121.627422929788025 -86.211856134503222 -6.457819690571682 23 32 37
-121.598908352870041 -85.680531357348627 -6.920365698957255 25 34 39
-121.570480398200942 -85.151350920794641 -7.382848194780877 15 24 29
-121.611104207555755 -84.526193042891578 -6.704695658199029 15 24 28
-121.548366533863302 -84.048994298650229 -7.737351156929577 17 27 29
-121.506407431192486 -83.545590420584801 -8.427759346351678 14 24 26
-121.464537621737563 -83.045416337223514 -9.118091572306014 24 34 36
-121.491711666802132 -82.439442522155275 -8.667893655503661 31 41 43
-121.567239261109165 -81.753012015574143 -7.419379553186218 36 46 48
-121.663538874622162 -81.026188085774905 -5.828767323116779 51 58 60
-121.663395608717778 -80.455772595075857 -5.834707434232257 27 33 36
-121.608183864393894 -79.981257435403862 -6.752876045745040 10 16 18
-121.615120917791572 -79.400653330529650 -6.644674947979269 7 13 16
-121.670418242902457 -78.731670945588348 -5.738235989581909 4 10 13
-121.684440887233976 -78.135141080289841 -5.515950216332755 3 9 11
-121.691665465023746 -77.550546346402811 -5.407652645432506 3 10 11
-121.698988491074701 -76.965345080017812 -5.299314220565265 5 12 13
-121.713307235690905 -76.365903811547497 -5.076916762490299 7 14 15
-121.700143080957076 -75.820923777259566 -5.310541972100310 4 11 13
-121.735355322133017 -75.177726680353715 -4.746022882849786 8 15 16
-121.763777886630990 -74.546180758512563 -4.295490905171391 10 15 17
-121.813001059084229 -73.868207923585487 -3.502909228723581 10 15 17
-121.814052552868858 -73.291315920449563 -3.508344436895158 14 19 21
-121.870399730903941 -72.592188009169135 -2.601713535503819 13 18 20
-121.878573074783546 -71.997413701457219 -2.493066861625493 14 18 20
-121.921357783160047 -71.322929936121966 -1.814388294497149 10 16 16
-121.902160719806943 -70.789892420241401 -2.161635581490714 3 11 10
-121.903777656856121 -70.209320222319150 -2.166838165636420 6 14 13
-121.891707214117957 -69.661933638096315 -2.399964919004134 2 11 10
-121.934974157600408 -68.980271053652942 -1.721129547445486 5 14 13
-121.971468191909324 -68.312417996574624 -1.156251048937889 12 20 19
-122.008093826238195 -67.641734719411815 -0.591338726308948 8 16 18
-122.024136268824947 -67.021409466121796 -0.368331626380154 2 10 12
-122.067936513960376 -66.327872566706972 0.310636646572107 3 11 13
-122.056613953065025 -65.777170342688564 0.077833547768478 5 14 15
-122.079962814362844 -65.134698983127166 0.414966937287716 8 18 19
-122.172556674746900 -64.302223615805872 1.891859939520884 20 31 32
-122.251495440102801 -63.500715010318814 3.140821377693300 30 46 46
-122.233815200958233 -62.964285875082211 2.794264822560024 25 41 41
-122.257754036934458 -62.311499915407992 3.131574280582583 21 36 39
-122.281843076137008 -61.656947702161197 3.468937414378416 28 43 46
-122.333756704597121 -60.919846433770182 4.262197557088598 27 45 47
-122.330482363963867 -60.342529920272113 4.143829629940370 22 40 42
-122.389644761785817 -59.578941717869149 5.051143800669337 23 41 43
-122.421293646519317 -58.894899135962412 5.502678864395364 28 46 48
-122.570836057008904 -57.846566756114377 7.891465012492347 37 55 57
-122.540514220441437 -57.347280782569371 7.317525323865198 30 48 50
-122.648911473764429 -56.413785163300801 9.022656532750261 33 52 54
-124.609258183871034 -2.877575346577570 22.269035228208082 125 127 113
-124.058749367093441 -3.267083528429076 11.145512378429402 107 111 102
-124.007392389374132 -3.118629544918523 9.899967530771079 26 31 25
-123.805650452735051 -3.894945700246281 6.374820459436251 15 20 16
-123.829911243338756 -3.300856930394085 6.269452599428917 9 15 11
-123.847128599428387 -2.753019578877551 6.050332388656102 6 13 6
-123.986036064100261 -1.456074787289144 7.655459528237856 3 10 2
-123.958949807717119 -1.186870804075013 6.752859424828586 3 10 2
-123.058665819209352 -1.102486509433684 -14.520172324343207 87 90 73
-122.181204761392635 -173.683618587829301 -9.172562539781410 206 174 172
-122.115773565284627 -172.908216754384000 -9.876999509843017 187 151 147
-122.058047236752657 -172.169560749102288 -10.466513369477042 204 164 162
-122.058766958815042 -171.695551465513773 -10.138471617825758 203 162 160
-122.016265994046563 -171.025866163434898 -10.498273995686645 130 85 82
-121.959657787105769 -170.294016394947363 -11.087182889769593 88 43 38
-121.896220217890118 -169.533511382525717 -11.790512775097199 154 113 101
-121.883691168517956 -168.997651273700114 -11.691163621743556 156 119 103
-121.842610031330224 -168.336481713430317 -12.050199102148099 125 90 75
-121.830649240329052 -167.801347899839385 -11.950570619815892 117 84 65
-121.768645775761868 -167.050963784442956 -12.653110254918005 108 75 58
-121.793148544103232 -166.669571955242930 -11.980160762701843 100 67 52
-121.710295741877417 -165.832732270883014 -13.026141234838576 112 79 62
-121.728093954777052 -165.419615305785953 -12.467584626646072 118 87 67
-121.681715364595007 -164.737589359498998 -12.940227960584110 119 91 70
-121.714220102413208 -164.380703412013588 -12.152339217327039 95 68 49
-121.661265385297398 -163.671650901532843 -12.739265630771854 59 37 22
-121.687015553735634 -163.282159352668742 -12.065802761108529 44 28 14
-121.734262349337001 -162.975107972337867 -11.048630725864143 39 27 13
-121.724742884343684 -162.437633177792549 -10.947858418430911 31 19 3
-121.729649621343057 -161.955765677404798 -10.617894501758798 32 23 8
-121.670919591579221 -161.223582974243129 -11.318680780591592 33 25 12
-121.718782531507770 -160.905734511906445 -10.301325123802144 37 31 17
-121.780891847676699 -160.637375228671260 -9.054926862629117 45 40 29
-121.949097746975610 -160.765595736082872 -6.090806890938495 29 27 17
-122.296376889034406 -148.937889487568356 4.596034690469281 87 97 90
-122.215841592365734 -148.140880418377577 3.440714016657978 66 76 68
-122.135577036107335 -147.349523172886904 2.285581041191534 63 72 64
-122.145293284798086 -146.815810277720260 2.617312141077832 63 70 63
-122.051698592449171 -145.993951225119673 1.233770333933194 65 70 64
-121.965272610803510 -145.197660828421988 -0.035219910643008 66 71 65
-121.844678014568089 -144.314742161282538 -1.875742436227057 70 72 71
-121.793204561075200 -143.623609833010022 -2.572634641714671 67 69 66
-121.831334891902344 -143.170070589543286 -1.783049534975021 63 65 62
-121.842058113170481 -142.641869870711105 -1.450779963259237 64 66 63
-121.777356197923183 -141.920041472467432 -2.376034359416309 63 65 60
-121.760910473234162 -141.323057849083114 -2.500905874991105 64 67 62
-121.703462993336998 -140.625243629740822 -3.311583699215191 64 69 63
-121.680485834906676 -140.014597345961619 -3.550579351851439 71 76 70
-121.596013797927810 -139.257840717227253 -4.818227895062819 48 53 46
-121.559687874259950 -138.619886860994882 -5.285608411635280 50 56 46
-121.571415717101914 -138.094982897305869 -4.952824297245343 40 46 36
-121.549061797365184 -137.490803924867720 -5.191455223342246 35 45 36
-121.561016752388966 -136.964194379677707 -4.858580015670185 26 36 27
-121.497953300758667 -136.271037262652612 -5.782755448548244 62 72 63
-121.441901981724044 -135.597082341651458 -6.592519758457655 38 48 39
-121.406490247205525 -134.970412731866844 -7.059346775657247 26 36 27
-121.418949796486174 -134.445284715802615 -6.726214921698698 53 63 51
-121.451944473321745 -133.960326795035968 -6.050268987374409 36 47 33
-121.410102395002767 -133.322208808692267 -6.631148987818335 67 77 66
-121.443278830795094 -132.833870912598627 -5.955150892416157 35 42 34
-121.428906973547569 -132.250729123441005 -6.078887795962316 21 28 20
-121.421452523455983 -131.681028588868315 -6.088318193129737 31 38 31
-121.373335529250980 -131.036164610747591 -6.783128416627619 36 41 37
-121.386495611124985 -130.505060357768542 -6.449722946686478 37 41 40
-121.379376129707254 -129.936409372466471 -6.458982292450628 38 43 39
-121.345221282150419 -129.320946679111756 -6.925092660815324 32 37 33
-121.324760291422365 -128.730634608777962 -7.162675277173406 31 35 34
-121.338307148950150 -128.197357347030277 -6.829107142956076 33 38 36
-121.331609380918337 -127.629802352891403 -6.838153460894290 34 39 33
-121.304694647588192 -127.030424616199909 -7.189775727970158 33 38 32
-121.298203849132577 -126.463814811892078 -7.198713303058781 33 38 32
-121.312107569371335 -125.927514648656299 -6.865005563187367 34 39 33
-121.319325667851430 -125.379825376152610 -6.645472320592489 34 39 33
-121.319866303098863 -124.821563966252938 -6.540101262761340 32 39 32
-121.286709527729059 -124.216488930943001 -7.005627231430282 33 38 34
-121.273930330159686 -123.640624812830083 -7.128527299321547 33 38 34
-121.254496514301721 -123.056638587499322 -7.365553403642195 32 37 33
-121.255408877103122 -122.499131783144591 -7.259996745089438 34 36 35
-121.242913027884001 -121.924780377347901 -7.382745688993396 36 39 38
-121.237253118497662 -121.358921521543493 -7.391278039709135 34 38 37
-121.211459100762184 -120.770222883721857 -7.742254234956619 36 40 39
-121.219454347077786 -120.219980765538082 -7.522375485224103 36 40 39
-121.200583794793090 -119.640358154773068 -7.759087209305193 37 41 40
-121.215469139174942 -119.095917165111445 -7.424993661424423 40 44 43
-121.196772615814623 -118.517190863173752 -7.661612904507621 41 45 44
-121.171440553136208 -117.933326871720496 -8.012318336595484 40 44 43
-121.173103956366873 -117.375103700791570 -7.906409756796705 41 45 44
-121.168120084911834 -116.810649533223540 -7.914604234121725 42 47 43
-121.149775208310501 -116.235333221734265 -8.151020149856066 43 48 44
-121.124800402937865 -115.655963361226938 -8.501508410925908 43 48 44
-121.099917152114244 -115.078258368155062 -8.851935735296422 44 49 45
-121.122117496069507 -114.534625835115378 -8.403475509922885 46 51 47
-121.097398781333524 -113.958338808554913 -8.753809524951464 47 52 48
-121.092895583069634 -113.395967138102904 -8.761752613680471 46 51 47
-121.048226916431744 -112.810745123761180 -9.454299244395457 44 49 45
-121.037181216867211 -112.246515714376969 -9.576250250881401 44 49 45
-121.019510791519536 -111.679585415729846 -9.812257190004800 46 51 47
-121.015322717676028 -111.119755712273928 -9.820023358548013 47 52 48
-121.024604280283796 -110.565390825728997 -9.599571677236241 49 54 50
-121.033950098952872 -110.009954406543301 -9.379100285868788 49 54 50
-121.009886824822615 -109.442555539031318 -9.729029250072131 51 54 52
-121.005984554992637 -108.882523391141518 -9.736660774817153 54 56 55
-120.968698920035692 -108.314339833721576 -10.314641118165895 53 57 56
-121.005081572146892 -107.763862170128604 -9.637748815709955 51 55 54
-120.954578686122190 -107.195978529995642 -10.443766929306236 50 54 53
-120.950968845455350 -106.637631438952823 -10.451241211805382 49 55 53
-120.934061040658662 -106.078206698049769 -10.686806057394875 47 52 48
-120.997414025649121 -105.523136244281844 -9.553622976350681 45 50 46
-121.000679262812298 -104.962635200193745 -9.446971531981944 45 50 46
-121.024046768135761 -104.400775775170729 -8.998140559166103 43 48 44
-120.994053167627527 -103.841108340605103 -9.461685872578443 41 46 42
-120.990843626589921 -103.280351598466765 -9.468993456856282 41 46 42
-120.927636082313811 -102.729411217212359 -10.502632799777899 40 45 41
-120.957940678230614 -102.164296694124445 -9.939657768039666 41 46 42
-120.974956869036774 -101.599729552975901 -9.604751999121220 39 44 40
-120.998702864942459 -101.031620497162081 -9.155804288297503 40 45 41
-121.009169822480843 -100.465690602851609 -8.934904562548780 40 45 41
-120.999699370149656 -99.906024873864737 -9.056054999902898 43 46 43
-121.003631944870122 -99.341451084365445 -8.949126226348710 47 50 47
-120.980973670132755 -98.788314722085957 -9.298236232527245 42 45 42
-120.965055363530766 -98.233537161470622 -9.533279869810912 44 47 42
-120.922563842598009 -97.694007675791497 -10.224314625331715 42 46 40
-120.926780899709641 -97.131041085684743 -10.117233212665980 40 44 38
-120.937724695418694 -96.563433963988302 -9.896122633714953 36 42 37
-120.935416995776293 -96.003443772620102 -9.902990889668416 38 44 39
-120.913207493028651 -95.457334509125275 -10.251813871407421 38 44 39
-120.877762238814697 -94.922653082026670 -10.828568928659593 31 37 33
-120.869018829548338 -94.369978333406138 -10.949299589430666 40 45 41
-120.840385479024448 -93.834177283176942 -11.411948495229638 44 49 45
-120.904977251721633 -93.220451451696931 -10.278776551661451 43 47 45
-120.976274599281140 -92.595266596524539 -9.031655752630826 11 15 14
-121.074230915939367 -91.939007867210009 -7.328665713477449 17 23 21
-121.145632364084349 -91.300706837027420 -6.081630124461952 26 32 32
-121.130642027363805 -90.744923167699469 -6.316240180517553 24 31 31
-121.075835373521755 -90.232702074928966 -7.234603124243591 32 42 43
-120.994522711033710 -89.754236385615897 -8.608734530007666 26 36 37
-121.066198682695855 -89.106848813544744 -7.361661142222857 30 42 42
-121.091407239529502 -88.508740227736268 -6.912322547497126 32 44 44
-121.143273354557792 -87.875732550247818 -6.007154762506104 28 40 40
-121.068938373246766 -87.398792296250932 -7.267073482520175 31 41 44
-121.074437113509632 -86.823204151921161 -7.159508837026294 18 28 30
-121.066724702902178 -86.265018597906831 -7.279802997061239 4 14 16
-121.059093329857305 -85.707343958289727 -7.400053129905473 5 15 17
-120.985105714199463 -85.245532582682827 -8.659649942236314 8 18 19
-120.944425438583750 -84.740641420903842 -9.349461654537180 15 25 26
-120.970261902093469 -84.138177303541823 -8.899867505084188 12 21 20
-120.969607596293159 -83.574905185875977 -8.905978565607057 7 16 15
-120.969037017870150 -83.011591615935330 -8.912049997928676 10 19 18
-120.941982238844318 -82.491829321620898 -9.373778625562039 19 28 27
-120.994718869257099 -81.840148709652581 -8.468386598890021 27 36 35
-121.067465108349751 -81.149726364618630 -7.221244177371972 31 37 37
-121.100446169230892 -80.523556079593732 -6.657617211598364 28 34 34
-121.087024018360381 -79.978534775319773 -6.891366270488561 19 25 25
-121.067050889644989 -79.446815188109284 -7.238971258389427 11 17 17
-121.120227853789686 -78.778792557917171 -6.333536794172488 8 14 14
-121.160214981916084 -78.131965132720566 -5.655911899244103 4 10 10
-121.187013860248157 -77.507967691093057 -5.206078987163096 5 11 11
-121.160773440365489 -76.988557863203809 -5.667414400059812 7 13 13
-121.154555126823254 -76.430390145346394 -5.786993605583604 6 12 12
-121.155076917975421 -75.858805613556186 -5.792627589210070 3 9 9
-121.208840248056973 -75.173774846577018 -4.887087682834988 2 8 8
-121.209564867406073 -74.599874069375133 -4.892648476424881 5 14 13
-121.236965958841296 -73.967029019851282 -4.442618540532266 8 17 16
-121.211322803374316 -73.451862460219417 -4.903624546087940 9 18 17
-121.265514478327418 -72.755627750976060 -3.997995048800590 8 17 16
-121.306531560613692 -72.086022963746245 -3.320111886162294 6 15 14
-121.387537856916325 -71.318193622397914 -1.958955785766619 9 18 16
-121.349037933983837 -70.833247981471260 -2.647519115551518 7 13 11
-121.337229910055598 -70.286066855782067 -2.880518213772092 4 10 8
-121.318885027762093 -69.756524582785772 -3.227321841976902 1 7 5
-121.360487077186761 -69.076393891554588 -2.549267181482321 5 11 9
-121.402216307796792 -68.392892150933221 -1.871186377849511 7 13 11
-121.437425120397066 -67.723467455548189 -1.306938902664569 13 17 18
-121.492718321164361 -66.998037485280904 -0.401082960691639 12 16 17
-121.474975817572073 -66.466114694059996 -0.747622916860479 6 12 12
-121.510578926968392 -65.789555906500397 -0.183260246234454 6 12 12
-121.539665800218955 -65.128702195879484 0.267287854681229 7 13 13
-121.602169994053384 -64.371455291633566 1.287124888255875 9 17 19
-121.624886058503321 -63.723729140486128 1.623901459722561 17 27 28
-121.647743647464125 -63.074246674431770 1.960727657398508 27 38 40
-121.670745281087932 -62.423004463087658 2.297604651605184 30 42 44
-121.627281457412380 -61.969144650858169 1.496127705850142 20 35 38
-121.703865515791833 -61.155603758569974 2.743838805903692 20 35 38
-121.733975981126719 -60.479146494024768 3.194715974544863 17 33 37
-121.777576155104370 -59.758893794886021 3.873313534993628 20 36 40
-121.828011625236684 -59.014207611718618 4.665788456488343 21 37 41
-121.845274170002270 -58.371970509064340 4.889153699444250 28 44 48
-121.836010868828680 -57.814732462316691 4.657268466926240 38 54 58
-121.846914275295703 -57.192946887552978 4.766943152847546 37 54 59
-121.911380820513855 -56.393601540812739 5.787285628180712 37 55 61
-121.889237878027373 -55.880135438761307 5.327971616181316 42 59 65
-121.913996562501978 -55.210111600267361 5.665495848769041 39 57 62
-121.785252261827978 -55.065705965031974 3.385240878469006 23 38 43
-122.017522245476982 -53.678989702720266 7.251285962673506 17 32 38
-122.036155585326497 -53.024815101295403 7.475184110627168 21 37 35
-122.034904960673629 -52.440636507880782 7.357713687431357 34 49 47
-122.268025383653153 -51.015756831496297 11.223772783703879 38 52 51
-123.721409333770907 -2.113338674141036 15.517468269155330 115 118 108
-123.347116201661805 -3.992251847677676 9.149650759357399 76 79 72
-123.210975078356938 -4.396338233087297 6.538926423610746 19 24 18
-123.285291300039546 -3.480648106204868 7.230206700372690 9 15 11
-123.316658924828232 -2.838005778451165 7.238597824236990 9 14 10
-123.297540163744515 -2.520155619242727 6.450167488661918 6 11 5
-123.329894817752773 -1.877796090806329 6.459033714917069 3 8 1
-123.333527005787829 -1.422964667537061 6.012653993213632 3 8 1
-122.444795870136602 -1.226066169885396 -16.253739040249599 86 90 76
-121.806005194753638 -174.920920779553086 -7.122142854948862 210 197 193
-121.608472577515954 -173.501406650186453 -10.002725676998324 198 167 164
-121.552038162543781 -172.761026449885804 -10.591639237619177 188 155 150
-121.531029342314341 -172.188627996441596 -10.607581770034301 188 152 148
-121.503332650899111 -171.583959400201763 -10.737914814812029 205 162 163
-121.461991399950506 -170.915461124138432 -11.097150170901557 139 92 92
-121.434950445652049 -170.313254233749802 -11.227144173715288 91 46 41
-121.415183205425862 -169.743818087857846 -11.242462245992897 180 136 125
-121.437422960957889 -169.364070096194212 -10.570578450502268 181 139 125
-121.411225612337986 -168.762418538983241 -10.700163158927666 154 116 103
-121.336784874324607 -167.944724390438296 -11.631063368840785 137 104 85
-121.241990425697892 -167.039701439735865 -12.905176298136951 131 98 81
-121.251411318106591 -166.597698167756334 -12.461783597540688 130 97 82
-121.219581854557489 -165.972854487148368 -12.705160303540254 132 99 82
-121.229442279275233 -165.528724677310663 -12.261579221716431 128 97 77
-121.184371480519445 -164.845886214598039 -12.733605276358617 114 83 63
-121.201558287504994 -164.429485983107043 -12.175374958970053 105 78 59
-121.191419758056696 -163.894437089768616 -12.074873838830285 68 47 30
-121.222702501116757 -163.531728943515787 -11.287629624493633 48 30 16
-121.240402581844819 -163.108451383070218 -10.729224550507809 41 28 12
-121.210323456950789 -162.485216831902363 -10.971747336916764 32 18 5
-121.194197028283440 -161.919243807915223 -10.985288009770784 26 14 2
-121.185139384673235 -161.381205841360469 -10.884300565583260 37 25 11
-121.210425563047252 -160.979776669848661 -10.211182547123059 43 31 17
-121.208578920311325 -160.466887320601927 -9.995627632562559 43 34 22
-121.186497977674421 -159.872682676600704 -10.123166411656854 50 43 32
-121.280306073139940 -159.730584746389951 -8.306009466985330 57 53 43
-121.639636898148922 -148.631968671451801 2.615820259497127 61 72 66
-121.515351484386343 -147.699745557474245 0.662165659098946 66 72 68
-121.497810318595896 -147.091538167178982 0.536654556384974 62 68 64
-121.480438630603487 -146.484031008148122 0.411231739100742 65 71 67
-121.456593247505026 -145.858111228883729 0.171663512997583 65 71 67
-121.359928926648124 -145.026250312642247 -1.324308633030853 64 70 66
-121.237017543467701 -144.127418009645766 -3.276962193516852 64 66 63
-121.220435135824260 -143.530625755327861 -3.401897127890578 63 65 60
-121.217250803229120 -142.970538244025903 -3.298326878886286 62 64 59
-121.240668670188924 -142.480984193352754 -2.737868652774438 61 63 58
-121.204670466038181 -141.831638022800917 -3.205209656267556 58 60 55
-121.208495588253356 -141.287747861371827 -2.987260495728862 54 57 52
-121.153007647904062 -140.590634194217728 -3.796993671814391 47 52 45
-121.124112824241990 -139.964041100545757 -4.149843348659061 58 63 56
-121.029425782168985 -139.175515905541516 -5.644423494946182 51 56 49
-121.027250765020284 -138.619549155430576 -5.540327975826898 26 31 24
-120.998848562302442 -137.999856308373467 -5.892870956795662 29 34 27
-121.016675678634741 -137.490744237226124 -5.446147532070881 31 38 31
-120.968808336044631 -136.826802508193339 -6.141034699965985 33 40 33
-120.907961648272021 -136.136240538697962 -7.064122927455770 50 57 50
-120.893293387993850 -135.553241223346021 -7.188000162641345 31 38 31
-120.924719797486432 -135.072059019792675 -6.512765616684277 25 32 25
-120.962780458156956 -134.601867500731743 -5.723385250146862 43 52 43
-120.948428439319244 -134.016680840161939 -5.847133711954484 36 46 37
-120.901418730267324 -133.363958172228593 -6.541495107472684 30 37 29
-120.900429712145154 -132.808122769114107 -6.436830858463821 35 42 34
-120.906092380550362 -132.264909914283351 -6.217995650269302 18 24 16
-120.892214483425533 -131.682241239521659 -6.341491374981757 19 24 17
-120.884992402090333 -131.112737171271789 -6.350808585406071 66 71 65
-120.884414233883078 -130.555576112299065 -6.245961432847849 62 67 61
-120.883933575730211 -129.997941870121366 -6.141072502526271 34 39 33
-120.837828488950166 -129.357779780243789 -6.834871837510633 27 32 26
-120.817977064308678 -128.766757876431654 -7.072170146214887 28 33 29
-120.830863476434089 -128.232773724189570 -6.738925243193279 30 33 30
-120.837307331665656 -127.686313692844266 -6.519749742717778 31 33 30
-120.804723373998627 -127.075044969682395 -6.985065432101692 31 33 30
-120.772259969282430 -126.466020299329841 -7.450300350204202 31 34 30
-120.772478473672251 -125.909658684587839 -7.345063843125274 30 32 29
-120.785803361606526 -125.372431323682662 -7.011642558755597 31 33 30
-120.799202491681584 -124.833622478643136 -6.678202036210962 32 34 31
-120.773652243866124 -124.237635589014062 -7.029136634401453 32 34 31
-120.761210859432936 -123.661323362043291 -7.151879706255869 33 35 32
-120.722871132974774 -123.050725342797136 -7.730800916728469 33 35 32
-120.710628020391226 -122.476693516962271 -7.853425662695173 35 37 34
-120.698476536643497 -121.903253824175877 -7.976000478617976 36 38 36
-120.692905472725784 -121.338306919193428 -7.984480938798157 37 40 37
-120.667956566620390 -120.750514499803941 -8.335043507377037 38 40 38
-120.656075768308327 -120.179113923314773 -8.457467838666844 37 40 38
-120.644282122273211 -119.608298959656452 -8.579844448599005 37 39 37
-120.690890928749383 -119.099375125130763 -7.675914484668795 37 40 37
-120.672769004938729 -118.520734380111037 -7.912257960616671 39 40 38
-120.667685777285556 -117.955753500624283 -7.920505391316681 38 38 37
-120.643264523387984 -117.372824461411881 -8.270765471672661 38 40 37
-120.631875126874206 -116.803007235230226 -8.392938419806427 40 42 39
-120.620567404223053 -116.233766804257115 -8.515066358201409 41 45 41
-120.609340501751802 -115.665101761344943 -8.637149709741010 42 46 42
-120.598193595699058 -115.097010721472415 -8.759188882766580 42 45 42
-120.612968777127506 -114.548019783361966 -8.425194871370195 41 44 40
-120.569678099659754 -113.958185790363800 -9.117129750202679 42 46 42
-120.584594171281694 -113.408429080389780 -8.783076219895150 40 44 40
-120.522119275519429 -112.811286705905417 -9.816840646605215 40 44 41
-120.556536576978274 -112.272202892453308 -9.140771278541393 40 45 41
-120.532949700177952 -111.700443564524335 -9.490517220304639 43 48 44
-120.548134535101596 -111.148323044825403 -9.156359446435800 41 46 42
-120.518255267099093 -110.575511980183975 -9.619985357556487 43 48 44
-120.520682497138750 -110.017160829165505 -9.513712682993827 44 49 45
-120.497406551206254 -109.449560251739854 -9.863267068387614 45 49 46
-120.487091819747647 -108.887424986587178 -9.984846826158645 47 49 48
-120.451095542517180 -108.319306136804570 -10.562209679122390 48 50 49
-120.479552612234713 -107.767556257968039 -9.999980928588030 48 52 51
-120.443710760296639 -107.202185554832909 -10.577241616967171 46 52 50
-120.420820475742914 -106.641186016930689 -10.926543555463383 45 51 49
-120.391576413901447 -106.081283671521675 -11.389732710202082 44 49 45
-120.445999511859796 -105.527129757806762 -10.371671107018216 44 49 45
-120.481175273529431 -104.968076509621994 -9.695444449612808 46 51 47
-120.490692513576462 -104.406844378970376 -9.474950709015360 47 52 48
-120.468145837922464 -103.847242996592513 -9.824073874274546 46 51 47
-120.458521944963110 -103.287648889180701 -9.945296979862349 41 46 42
-120.429702290305002 -102.731865055801862 -10.408240705745982 41 46 42
-120.433062645105366 -102.171461966621067 -10.301542749126611 42 47 43
-120.436486432331080 -101.610514948010902 -10.194820045591229 39 44 40
-120.465643464476045 -101.041404870972542 -9.632435132671958 37 42 38
-120.469188841220301 -100.478277466394800 -9.525676704935819 39 44 40
-120.440724755306945 -99.926848422029082 -9.988405501919772 42 44 41
-120.444404783856783 -99.363986963373620 -9.881579919706411 43 45 42
-120.448148944264815 -98.800576041977237 -9.774729312927889 42 44 39
-120.439135893597438 -98.243146648531905 -9.895637911168706 40 42 37
-120.398144611762277 -97.703946683966493 -10.585951565521214 41 43 37
-120.395685096230210 -97.145142211821579 -10.592880244472298 40 43 37
-120.399700033715902 -96.582245420080042 -10.485894806673173 38 43 37
-120.390968095309219 -96.027504242571425 -10.606641250614985 38 43 37
-120.375901210409552 -95.477923854258250 -10.841224073569379 37 42 36
-120.360906671962297 -94.929420120613585 -11.075761203681509 33 38 32
-120.352387466700520 -94.376819540489834 -11.196383842571720 41 46 40
-120.337537033116590 -93.830193402343085 -11.430832706377572 42 47 43
-120.367565690427767 -93.244620795194095 -10.868200268058956 48 52 50
-120.429654148905186 -92.626359694715575 -9.736272585234929 11 15 13
-120.510991762958440 -91.983846751099833 -8.262809154007130 11 16 14
-120.534793879556887 -91.393040000748044 -7.814068234008602 14 20 19
-120.565058422913808 -90.793226097123210 -7.251469541433096 22 29 29
-120.518628489567078 -90.275614355815605 -8.055021694520036 24 34 35
-120.504261356793918 -89.725035175885864 -8.289280039519554 21 31 32
-120.502760737746982 -89.160272764482741 -8.295811313740757 10 20 21
-120.552489322425927 -88.532312883110833 -7.391614156440767 8 20 18
-120.519163332080538 -88.006160902133587 -7.967267567248712 5 17 15
-120.505098488593788 -87.457380551964533 -8.201362781831364 5 13 15
-120.516682286710747 -86.874804441356233 -7.980100111244781 16 24 26
-120.534732685690031 -86.282120166593401 -7.644989004462360 6 15 14
-120.533683116640304 -85.715544053071852 -7.651323167258028 3 12 10
-120.462410575590766 -85.253778493950605 -8.909620625590691 3 12 11
-120.378445546819918 -84.817580922984661 -10.395444712237577 2 11 10
-120.422374834012388 -84.186902444620060 -9.604908787781852 11 17 15
-120.428040057129124 -83.614463653607501 -9.497232079585501 12 18 17
-120.452954579567546 -83.009574117051642 -9.048103949639113 8 14 13
-120.407666979887111 -82.522299628979511 -9.850797337628052 8 14 13
-120.439134603417685 -81.904794551745965 -9.287805199758537 8 14 12
-120.509017513177639 -81.215879553664905 -8.042017069299163 12 18 18
-120.540650070906636 -80.591192842059854 -7.479019951644744 24 30 30
-120.559591059801051 -79.987700535711411 -7.143594042198288 27 33 33
-120.546676959301649 -79.443810670892944 -7.377088405057719 24 30 30
-120.597737358191935 -78.775653296128652 -6.472667885397101 15 21 21
-120.629722753370189 -78.141487553780649 -5.909599543941681 6 12 12
-120.655411984072543 -77.517613916969125 -5.460296209097976 5 11 11
-120.630085609583588 -76.998292514295315 -5.921193435606227 6 12 12
-120.668741267396541 -76.344874345787431 -5.244273353343772 9 15 15
-120.701105947538011 -75.702014526238443 -4.681113055766218 5 11 11
-120.739959650352858 -75.042193701647903 -4.004164135209123 5 11 11
-120.727798848452110 -74.494557897498453 -4.237336681436375 3 11 10
-120.696567296127398 -73.992087497076270 -4.811744353869074 4 11 11
-120.671823918326552 -73.477290524714604 -5.272316104525999 2 10 10
-120.723869169575721 -72.781486893058698 -4.367709011683189 3 11 10
-120.763243836383126 -72.112305622695743 -3.690607215508351 0 8 7
-120.841081716294269 -71.344933047832370 -2.330962172927059 4 12 11
-120.823155795133559 -70.812115715481823 -2.677599083393176 6 12 10
-120.830908087552203 -70.215445710054297 -2.569173352459416 4 10 8
-120.851560575866941 -69.584893644658933 -2.233207207250302 2 8 6
-120.865936115744859 -68.969514663662750 -2.010946633398248 3 9 7
-120.880429687101440 -68.352953514943735 -1.788641762337562 2 8 6
-120.907835512275042 -67.700315740104244 -1.338813298305439 7 13 13
-120.922572987761441 -67.080835176287792 -1.116421795351329 12 18 18
-120.931036713459477 -66.478156784678774 -1.007717564512575 8 14 14
-120.894831648434433 -66.002695958113065 -1.695085410181690 4 11 11
-120.909938474233925 -65.382096954479266 -1.472528723966661 4 13 12
-120.925175448958015 -64.760298917677289 -1.249922117203027 6 15 14
-120.966154527040956 -64.060950219346665 -0.572363304664350 14 20 20
-120.981663525135744 -63.435649966180904 -0.349662612924988 13 19 21
-120.958879571741988 -62.926948838226409 -0.809234234073131 24 34 36
-120.993876114308748 -62.241145605244085 -0.245256900659967 31 40 45
-121.041838529712749 -61.512119487279840 0.546196116847739 22 33 37
-121.122006967484865 -60.676854114511080 1.906257235645967 15 28 34
-121.138244415829007 -60.042189263601081 2.129210020978832 17 30 36
-121.167457053655951 -59.364289346214328 2.579642822067257 14 27 33
-121.216071989783885 -58.620227562093021 3.371253233587595 15 28 34
-121.219947487585515 -58.023058496179154 3.366960297264370 23 36 42
-121.262481400822878 -57.294787156705290 4.044965222336629 31 44 51
-121.266672417774103 -56.695686731352232 4.040803348840114 31 46 53
-121.277441116597132 -56.074062309392161 4.150415249912953 33 48 55
-121.217709269815273 -55.700887213652720 3.009409611223930 40 55 62
-121.286615951402553 -54.874555843174889 4.142457336798117 38 55 62
-121.381442093237524 -53.949777188313213 5.730327015638352 24 41 48
-121.367178716142860 -53.416199209624551 5.385434423984464 21 35 38
-121.423831977550819 -52.622867243717515 6.291242064953821 18 32 33
-121.416342247929023 -52.065199834430260 6.060200883342588 21 35 36
-121.428330474085129 -51.435560407057828 6.170313699634306 27 43 43
-121.285929878252404 -51.394948868683564 3.552017354559467 34 50 48
-121.246675725262421 -50.969232005098426 2.752843990339017 30 43 41
-121.201117349488953 -50.572303478365050 1.840092155440828 25 36 34
-121.620006058623630 -48.350877853418318 9.112589463064893 13 25 23
-121.484609800724115 -48.301985840987605 6.608417619089664 10 22 19
-121.394456357202429 -48.083360954623522 4.900154831138877 8 19 15
-121.465848770326502 -47.217168210218126 6.033981409013421 5 16 11
-122.851788268610107 -3.824558576893264 11.017280236438495 126 129 122
-122.588981739928016 -5.078908108548891 6.248392977142885 30 32 27
-122.604691526003222 -4.531549898461149 6.028556482086088 18 20 17
-122.662815776874680 -3.708996882092373 6.491331512738981 8 14 10
-122.763611232146303 -2.606004508787895 7.636786907653544 6 13 6
-122.738863558161825 -2.333377166037444 6.735270335688369 2 9 2
-122.721462539947424 -2.017737371141064 5.947684514804308 1 7 0
-122.746699344774555 -1.422773683146129 5.842774570683957 1 7 0
-122.315612434563093 -1.523354286844625 -4.783155785362283 46 54 37
-122.063229191018777 -2.516827943947496 -9.882318561966997 55 62 46
-121.784724998641082 -2.056310795320237 -18.223851831437912 86 90 76
-121.772037786129800 -1.825385436949460 -19.008310575579117 90 94 80
-121.013085262653973 -173.656019522847430 -11.616272038687953 185 175 170
-121.025691592431116 -173.252635584619668 -11.060099022649894 197 173 168
-120.997995665857431 -172.647497363265671 -11.190436535617323 162 136 131
-120.997588760911469 -172.175110360219435 -10.862917059516462 117 86 80
-120.983959671828231 -171.636107036608934 -10.764126516078761 109 69 66
-120.977328382025917 -171.129319660613220 -10.550797749598303 110 66 61
-120.937392516096764 -170.461264639108265 -10.909356211669945 110 66 60
-120.924610491091741 -169.922569063530148 -10.810157267875610 147 105 95
-120.945556693483312 -169.541417093222265 -10.138906755630870 163 126 110
-120.886471325276716 -168.782061482890384 -10.840142731540737 164 129 110
