ply
format ascii 1.0
element vertex 686
property double x
property double y
property double z
property uchar red
property uchar green
property uchar blue
end_header
83.932795831839982 -0.672405638417135 61.719291949954226 142 140 125
82.339980781873578 -0.579205809190899 59.154563309869047 136 134 119
78.303374619955065 -0.918862581033751 52.663882865228373 139 137 122
77.348654662256621 -0.517795486124217 51.121029306829996 140 138 123
75.649371174968707 -0.551592643679820 48.386824276157967 139 137 122
70.923657232884395 -0.538925613498657 40.781018481632202 143 141 126
69.277461071808361 -0.608797331875709 38.132646874565893 139 138 120
67.631241607237200 -0.695464060867955 35.484459295293135 142 141 123
64.391922186819329 -0.886904309822293 30.273717213068210 146 145 127
54.146726921965993 -0.557361763202740 13.775826573552024 144 141 124
52.713098437205659 -0.674508574519859 11.469685484719747 141 138 121
45.760276223320957 -0.557603983721705 0.272174517299163 147 144 129
44.539391534474873 -0.621903370258585 -1.692850919683337 145 142 127
43.424907374226009 -0.624879568047455 -3.487691465383307 143 140 125
42.416829719817073 -0.564906417105295 -5.112366718174627 144 141 126
36.684769302308553 -0.917845713224046 -14.339295252232034 143 140 123
35.410646097696301 -1.116132210023386 -16.388331254043607 140 137 120
34.934683799550982 -0.742202631753677 -17.162211531352597 144 141 124
31.910513574317449 -0.843381604570250 -22.033373816060731 143 140 123
30.636384795325114 -1.097835958699179 -24.081828987136134 145 142 125
29.628332460359005 -1.163343453339053 -25.705224717341139 146 143 126
29.046028818027295 -0.913952849395526 -26.648667487714192 147 144 127
28.091212041096213 -0.956657001909641 -28.186906767742329 144 141 124
27.402504162141256 -0.803091014641832 -29.300177514961320 142 139 122
26.873480220077909 -0.532069781645255 -30.158472881325906 145 142 125
25.918696825696870 -0.599986704266630 -31.696468603743028 142 139 120
24.697796550854690 -0.887390826546717 -33.659190055315293 142 139 120
23.743017615072745 -0.975798056268308 -35.196976993686548 145 142 123
23.214061250313762 -0.733559367721840 -36.055008415612718 147 144 125
21.993160769215990 -1.052902214582777 -38.017401007176261 139 136 117
21.038401009052663 -1.169169314872631 -39.554910343454338 139 136 117
20.296571266078573 -1.121626210852682 -40.752535311135006 143 141 120
19.820921322852655 -0.863398601994996 -41.525374039471956 142 139 120
18.812959408844947 -1.048658519056590 -43.147580354911042 141 138 119
18.230884484507655 -0.890759253663109 -44.090190776879581 138 135 116
17.755308946311573 -0.649735350900210 -44.862888013938573 141 138 121
16.005646781739230 -0.856160021997965 -47.682074001284292 134 131 112
15.050964744927768 -1.040302856878770 -49.218921841113485 137 134 115
14.202772521526811 -1.142936911393488 -50.585835283643632 143 140 121
13.248098809830324 -1.345578335821508 -52.122496690904285 145 142 123
12.612908066505412 -1.281371754575050 -53.149591146190346 142 139 120
12.190733233002732 -1.038072972340975 -53.836999628889032 140 137 120
11.133482474043063 -0.751153701841122 -55.551345592351623 143 140 123
10.498392967591698 -0.709706434795305 -56.578254205956654 145 142 125
9.277513797760918 -1.196171471490483 -58.538936720102299 142 139 122
8.695705302217988 -1.122476928495975 -59.480807839184365 140 137 118
8.007403412116005 -1.150399252222456 -60.592404659722092 141 138 119
7.691947600161939 -0.847352481289561 -61.109764402748965 143 140 121
7.003694302672017 -0.886875301908591 -62.221265060083653 143 140 121
6.262193366163842 -0.981946270076149 -63.417579329362354 141 138 119
6.053376644886256 -0.593619323251845 -63.765114909691221 140 137 118
3.354011770092114 -0.814190924660537 -68.125280682883357 140 137 120
2.932282940879730 -0.646219700216778 -68.812127148112069 140 137 120
2.350752715594709 -0.634382389279175 -69.753494663167771 138 135 116
1.396273171202537 -0.985136169078453 -71.288724364522096 138 135 116
1.134482030401188 -0.678845821689386 -71.720931605122729 138 135 116
139.286832284836350 -1.059559836942037 148.429017325057004 130 130 118
137.580853564803419 -0.536776672439214 145.692286109924112 132 132 120
128.029501885515060 -1.032100572186918 130.422978230966720 136 136 124
123.759510288574560 -1.747555271742544 123.604381315634981 136 136 124
121.038364426542330 -1.806605969603434 119.252972876277198 138 138 126
117.569366726888788 -2.235175838021443 113.711113450182381 138 138 126
114.420762786078711 -2.551072871504183 108.679972259505604 142 142 130
112.500608521705672 -2.325281483639150 105.605323436523435 142 142 130
110.420162416257696 -2.194816723913773 102.275762270987087 143 141 129
109.034069358395740 -1.754262473893081 100.051998584595708 144 142 130
108.075275034984287 -1.121858702457814 98.508712924163490 145 143 131
105.674203499430092 -1.202213709707177 94.669554629623434 145 143 131
103.379912446378256 -1.254474900059687 91.000741504337498 144 142 130
100.658224009049661 -1.542739864556681 86.651952048735609 144 142 130
99.539043301554301 -1.053440226154185 84.854291072659919 142 140 125
96.125377129370619 -0.711796126372533 79.388891919107635 141 139 124
94.311652606423294 -0.622445071960732 76.486449691372968 139 137 122
91.589725107118142 -1.026338878257636 72.138964827956812 140 138 123
89.401964085427892 -1.175973798042717 68.641908187376288 142 140 125
88.015506071709382 -0.920899498307272 66.420228332921084 143 141 126
85.720823180810882 -1.168510788573366 62.753613498231800 142 140 125
84.227462706752277 -1.004369453368515 60.362293663216064 141 139 124
83.054630528402839 -0.679798791621354 58.481136120084130 139 137 122
81.294100595243535 -0.692231956994330 55.665152383957349 141 139 124
79.586968938340448 -0.692769762485439 52.934359535509117 142 140 125
77.559247280162054 -0.891208789031761 49.693819631942972 141 139 124
74.785990904760666 -0.614836125074366 45.253029117475222 139 137 122
73.132191202392093 -0.652313079581128 42.607961562922270 142 140 125
71.157787395889272 -0.893607554739783 39.453214599454611 142 140 125
69.771093008507023 -0.809121282896711 37.233403773617084 142 141 123
68.704974686010658 -0.548477089420195 35.523570484722256 143 142 124
67.264824163597353 -0.522529267460777 33.219076571402582 142 141 123
46.251541126380985 -0.712330797121859 -0.404687787273048 147 144 129
44.597418809605344 -1.070148928684936 -3.046303571538459 144 141 126
43.584653568525908 -1.002574042043405 -4.668814547418719 142 139 124
42.892586269162905 -0.722535231256507 -5.781780007736614 143 140 125
39.961248648349795 -0.530819590447122 -10.478650233750699 144 141 124
38.788153012745980 -0.626585166018076 -12.355355007785676 144 141 124
37.561601513226648 -0.772604497864973 -14.316828277516720 143 140 123
36.388501345021766 -0.892220425455969 -16.193285379516169 143 140 125
35.536137327413485 -0.789605864050135 -17.560315777108968 144 141 126
34.576869759799024 -0.774069848456179 -19.097025309437925 144 141 124
32.497976522447615 -0.891264515351384 -22.424780078857253 145 142 124
31.111039498699057 -1.226031903745070 -24.640159239749067 147 144 125
30.312173338297853 -1.130819331270138 -25.921847751543453 147 144 129
29.620247801560211 -0.962322337183920 -27.033732874662320 146 143 128
29.035270362694092 -0.718911059960710 -27.975834961724587 142 139 122
28.182988525069845 -0.687128187859042 -29.342175567779293 142 139 120
27.491119723016297 -0.539523726543722 -30.453872775241223 143 140 121
26.424992626994808 -0.690749651513135 -32.159462280876795 143 140 122
25.091519188048593 -1.062532364066013 -34.289178335233260 143 140 122
24.185801247618798 -1.109661973046944 -35.740001891979830 147 144 126
23.868287414035649 -0.698056917380950 -36.257494529473462 147 144 126
22.962602562550202 -0.760236575063132 -37.708178998145826 141 138 120
21.789551505484496 -1.046756068893683 -39.582941572493468 141 138 120
20.937353910600550 -1.084973125537562 -40.948601935554819 145 143 122
20.299079394616371 -0.957214352255328 -41.974875299209515 141 138 119
19.553869162803210 -0.923499576491812 -43.170740710687426 143 140 121
19.129561361659910 -0.632234352209536 -43.857622531662315 140 137 118
16.733656422794567 -0.727339393256755 -47.699100678841091 137 134 115
16.095510744516233 -0.639107233548271 -48.725028810722648 136 133 114
15.136456207005196 -0.830208911235593 -50.259713230340026 141 138 119
14.070424640240176 -1.122401695619035 -51.963897394144823 144 141 122
12.576453218739161 -1.793670121073455 -54.346325661657943 142 139 120
12.580275525498635 -1.182633759547253 -54.354443944337419 141 138 121
12.584162201670523 -0.571286815240649 -54.362596218107711 140 137 120
11.946147223397091 -0.522146957445694 -55.388184479721758 142 139 122
10.987161342409323 -0.762137358477305 -56.922398508195613 143 140 123
10.402683038719459 -0.679664331061562 -57.863082761561657 141 138 121
9.818231569306946 -0.602864032522935 -58.803721460105834 142 139 120
9.073293122419400 -0.675644954761473 -59.998620678842201 143 140 121
8.328370050628138 -0.755732468782450 -61.193452042552138 144 141 122
7.315919668583177 -1.085718095115247 -62.812021355837942 144 141 122
6.731547953149160 -1.035401590997235 -63.752425597411843 142 139 120
6.628814925304681 -0.549130561451777 -63.930001670860037 141 138 119
4.184730438422122 -0.517356249045497 -67.860595805257361 140 137 120
140.474892380365759 -1.053853726913833 147.971453596748404 128 129 116
138.439054964561251 -0.667355501366188 144.728775190829026 131 131 119
132.489244818435878 -0.772981242524228 135.270895003136019 135 135 123
129.058139026458605 -1.071748840188014 129.820430983231915 136 136 124
125.626944599237802 -1.405400584380313 124.370368446169095 137 137 125
122.302978845764301 -1.725660705460974 119.090588002271573 139 139 127
118.281367985110762 -2.396944936035071 112.707006349853884 138 138 126
115.332843263318807 -2.615553886274440 108.022582051180649 141 141 129
113.242805319228182 -2.465006286886733 104.697402865615544 142 142 130
111.796644334072809 -2.033158477264715 102.391606204589920 143 142 130
110.404111630235121 -1.590609613613024 100.170902691199899 144 142 130
108.582253574309462 -1.368358111847710 97.270983506694648 144 142 130
107.135993252910538 -0.982472615873689 94.965707480971304 145 143 131
104.455450506629276 -1.216224399347226 90.707531821171102 144 142 130
101.560193709308749 -1.583461207830273 86.110013116147513 144 142 130
100.435801615922657 -1.094345215483108 84.314847139579939 141 139 124
98.613743971920599 -0.969163838921113 81.416022628888896 141 139 124
92.127689151471571 -1.235262338831421 71.107743032815023 140 138 123
91.432508138990926 -0.597244546625419 69.992582304690728 142 140 125
89.395611599040720 -0.677931932497223 66.755219556324562 143 141 126
86.875656188913695 -1.037868277604151 62.754095001199460 143 141 126
85.268040332517245 -0.930261560854890 60.196298718846890 138 136 121
83.606729872854089 -0.868241699953265 57.553800114134987 139 137 122
82.321093359068669 -0.616262913510052 55.505637233213264 142 140 125
80.230363391533984 -0.824550496615019 52.184482780088416 142 140 125
78.085926008143090 -1.084079241849186 48.778690336718256 141 139 124
76.961246773381120 -0.788565446443685 46.985654572271159 140 138 123
75.782885401690194 -0.535092644328359 45.107874022266941 138 136 121
74.228791572624090 -0.509833149354999 42.636179511739556 139 137 122
72.137923933749164 -0.811947918464178 39.316056730472241 140 138 123
70.798491532453156 -0.695096080564627 37.184161662381598 143 142 124
69.512724622599649 -0.560091646917073 35.137265238268071 141 140 122
54.402415524208607 -0.556259249656001 11.103740320769560 146 143 126
52.848113303730372 -0.756517243972441 8.634466868787001 144 141 124
51.991735972033311 -0.514605313178743 7.267922569097692 141 138 121
49.581046563965785 -0.521427477077818 3.432608521304303 141 138 123
48.295163166454145 -0.597042522117305 1.387935836587445 146 143 128
46.633436185524303 -0.939644382363491 -1.250198531137897 147 144 129
45.293844587808465 -1.079537885651511 -3.379374631432398 147 144 129
44.276405408144043 -1.011855191313322 -4.999650720833273 144 141 126
43.527442023024378 -0.768834501739808 -6.195875127551176 143 140 125
42.671103499644701 -0.608056170631403 -7.561602844106915 145 142 125
39.457779746890381 -0.635336249009935 -12.675612062818630 142 139 122
38.440378594520027 -0.627399158227896 -14.295291352835619 142 139 122
37.422983416872626 -0.629627002908153 -15.914868868352471 145 142 127
35.868579956539620 -1.032006196008540 -18.382013352499484 145 142 127
35.012293431541664 -0.939445393941047 -19.747063747606859 145 142 125
34.102315911039682 -0.894952472690157 -21.196792652578409 144 141 124
32.977529676918124 -1.018766459265119 -22.985460877386515 147 144 126
31.745332789680546 -1.233967470727549 -24.943521291201733 150 147 129
30.781668100246861 -1.259710739245640 -26.477702347116178 148 145 129
29.979136615527679 -1.173176911854555 -27.757548045637492 145 142 125
29.498878073758476 -0.849242877292545 -28.528858385476099 137 134 117
28.427830816099558 -0.982826296941621 -30.232275705819262 140 137 120
27.786483447592744 -0.795586589921946 -31.257691294491622 142 139 120
26.769165811789989 -0.906614686449652 -32.876185970112346 142 139 122
25.536994761781173 -1.195665349130712 -34.833498572810356 142 139 122
24.089954093280895 -1.665989208618603 -37.129587890136804 145 142 125
23.770961615642335 -1.257833088119476 -37.646337647760362 144 141 124
23.344571787593949 -0.938306419324430 -38.332514343446149 141 138 121
22.434735681025685 -1.010472527873656 -39.781110070360654 140 137 120
21.632352746566170 -1.004976271581480 -41.060192674387963 144 141 122
20.883708447800132 -0.963790336676268 -42.254492144400814 146 143 124
20.296256163390410 -0.798339323580112 -43.194607789675587 145 142 123
19.493927292591550 -0.815221062800158 -44.473485909623264 143 140 121
17.516878265033000 -0.553544701385758 -47.632144739896660 138 135 116
14.680273628103791 -1.082355404840631 -52.145200391219447 144 141 122
13.663100613997329 -1.338707926667515 -53.762268356049617 142 139 120
13.183317822689787 -1.141833135261966 -54.532498408659450 140 137 120
9.767860772822360 -0.536676643810138 -59.999753277891216 142 139 120
8.325005080215576 -0.653781975134313 -62.301480529092345 143 140 121
7.469214908113429 -0.844852171187774 -63.663848821376092 141 138 119
7.043495331422719 -0.651794461176161 -64.349044354488626 140 137 118
145.325474795371662 -0.789010056612423 153.297488486382861 125 126 113
136.979871120352641 -0.548734851536469 140.104396242113467 135 136 122
132.347228914696132 -1.325599777611612 132.794768951717828 137 138 124
130.140074703208882 -1.087872283807950 129.303002630744658 138 139 125
127.339930609899795 -1.134997629418740 124.878405035884555 138 138 126
124.162391349373905 -1.379394233793540 119.860370413142277 138 138 126
120.607444900796892 -1.826742208313236 114.248962981483686 139 139 127
117.052413271121679 -2.310025180310895 108.637966197151769 141 141 129
113.066053681440081 -3.028764304395481 102.348867819510957 143 143 131
112.637406349856647 -2.123737888685748 101.657744262753425 142 142 132
111.561869955946221 -1.529002998805027 99.948977583569814 143 143 133
109.677700476352982 -1.331562620400013 96.968264478997668 144 141 132
107.200502507770608 -1.439493915162270 93.054949780738724 145 142 133
104.022438580409940 -1.914310820616859 88.039537988724021 144 141 131
102.946770152643012 -1.385143457308198 86.331509393574066 144 141 131
101.278074390458144 -1.162137700303529 83.690886783572950 142 140 125
99.878901068309446 -0.820507138875354 81.474398922002564 142 140 125
90.993276688835266 -1.315394558616461 67.438629280714963 142 140 125
88.946989109714565 -1.402685518693799 64.205827147204815 143 141 126
87.763299859318650 -1.050959789936217 62.329584069378654 144 142 127
86.633513095134688 -0.682228501736668 60.538238065065258 138 136 121
85.126304257433304 -0.529833549050725 58.153664151164122 141 139 124
79.148778988094989 -0.976147315083001 48.712549656403723 141 140 122
77.533640869768661 -0.952609286984531 46.159217359618964 140 139 121
76.241999556236550 -0.761624391415792 44.114554995072808 139 138 120
74.950347725534996 -0.583669813287302 42.070031789507709 139 138 120
73.389081805321155 -0.574545489905649 39.601934470228372 139 138 120
53.687059583570985 -0.696774471868899 8.454220651653884 144 141 124
52.287411417499357 -0.806350657860299 6.242604451506622 144 141 124
47.713536656034364 -0.695129627333007 -0.993419612719237 147 144 129
46.421744314707752 -0.796440324773059 -3.035000980710663 146 143 128
45.076010379734328 -0.947486724397725 -5.161123805550602 145 142 127
43.892089006673430 -1.000660475668928 -7.033088002937490 145 142 127
43.247570775013642 -0.691908249427328 -8.058237450949235 143 140 123
42.333366958381049 -0.577777259584087 -9.506661329961588 143 140 123
41.095520494137531 -0.700230696863005 -11.462973702875757 145 142 125
39.749786216698041 -0.911390724780855 -13.588477584106556 141 138 121
38.835601354537786 -0.828324251088187 -15.036590768203325 140 137 120
37.759591589981113 -0.870517421511934 -16.738574768002479 143 140 125
36.899372955570328 -0.767427483698786 -18.101852437128485 145 142 127
36.147063454722783 -0.594336584724155 -19.295756251087397 144 141 124
35.071079978855963 -0.665912708028112 -20.997450373810949 143 140 123
33.833251900086651 -0.867598536787965 -22.952955963464461 147 144 126
32.541470776808410 -1.121669041118989 -24.992970264699494 151 148 129
31.735255242154835 -1.025441794788908 -26.271153305590815 147 144 127
30.551382182215079 -1.221520061213737 -28.141669627845687 147 144 127
29.745191498048314 -1.143116547906537 -29.419681088486840 138 135 118
28.777149793516983 -1.196154929393488 -30.951487233072015 138 135 118
28.186817682485071 -0.968742809902154 -31.890862975956622 141 138 121
27.488595792407608 -0.830517116733362 -32.999424347512502 144 141 124
26.196838414825734 -1.160872773895291 -35.038664767206853 143 140 123
25.012996363688401 -1.419555960023737 -36.908551500078005 145 142 125
24.368777109089606 -1.264797451841499 -37.932258842991160 144 141 124
23.778546777897631 -1.073551799505451 -38.871310997387440 141 138 121
23.296275068238728 -0.801939112739469 -39.641119674691311 140 137 120
22.598170559963918 -0.708315466993674 -40.749278090018947 137 134 115
21.792152506303438 -0.708727921324814 -42.026560844153920 147 144 125
20.770272796835528 -0.892552847005197 -43.642123705038244 146 143 124
19.910311349968751 -0.954018629171347 -45.003830557112309 145 142 123
19.320226934122047 -0.801836434256368 -45.942550417118554 144 141 122
18.730171489975717 -0.655377367048674 -46.881225226058433 137 134 115
17.924241825634695 -0.694489952751409 -48.158151905447397 139 136 117
17.280260920060229 -0.605786642638054 -49.181293334379802 140 137 118
16.582326975390785 -0.568844566571474 -50.288949894880460 142 139 120
15.452569584670997 -0.904942334304673 -52.073054791809994 141 138 119
14.052895273365735 -1.482460254919260 -54.279841724818965 143 140 121
13.786866790286609 -1.101004915990576 -54.710795546415881 144 141 124
13.142986624989092 -1.048161073472739 -55.733616049637249 144 141 124
12.607107657117979 -0.907804850778714 -56.587286994560884 144 141 124
12.179240804543568 -0.678292253027746 -57.271830526723789 144 141 124
10.247941495066641 -0.589545728437827 -60.339736926707133 143 140 123
9.550229106185853 -0.620630721495010 -61.446799241941335 143 140 123
5.688456144097543 -0.649550579689421 -67.580882321573796 139 136 121
153.076447406903043 -0.703150630315733 163.113349923227702 114 115 109
149.235276258435306 -0.957581613583945 157.082591190794176 124 125 117
133.114300471642707 -1.481810735396835 131.764259196515098 138 139 125
130.626268784002491 -1.363479414293594 127.853798277548805 140 141 127
127.325945918525221 -1.628085769494191 122.672993169825077 140 140 128
124.242140242703059 -1.829435711846482 117.831391390376439 140 140 128
122.728606446374712 -1.354365042681216 115.446521851754198 139 139 127
119.265620358690981 -1.782652689835940 110.012642470974299 140 140 128
114.881986511268025 -2.669723721560708 103.139319266939594 143 143 131
113.476596818331444 -2.214357394828574 100.924634556477940 144 144 133
112.287786697597085 -1.671314924395404 99.048871966137511 145 145 135
109.582670450327257 -1.861344453032035 94.802002129846130 146 143 134
107.364878939717073 -1.844408907421097 91.317597378750833 144 141 132
104.388883475258140 -2.217894411393595 86.647909211378618 143 140 131
103.849793658134274 -1.426000214766020 85.789067718061318 144 140 131
102.444212404777403 -1.068977244989453 83.575486947024700 143 141 128
100.226266542414734 -1.132703345684690 80.091986328125159 141 139 126
98.116592888067856 -1.163993411788538 76.778072545479375 138 136 123
96.385982988696256 -1.022996481048997 74.057054719610420 140 138 125
95.305241253159451 -0.564453310860560 72.352180147806024 141 139 126
91.516554762008397 -1.526086563048360 66.414451408356882 141 139 126
89.352571908405878 -1.672024114285449 63.016840199716597 142 140 128
88.650872077925669 -1.064101524539257 61.905107836816114 141 139 126
87.786690508254765 -0.550293762655169 60.539498297444595 143 141 128
80.430185779950733 -0.747981280908123 48.984051491228030 140 137 122
78.428505383791375 -0.934578170088019 45.841790525025544 141 139 123
76.589291137537245 -1.049383690724568 42.953643979735858 142 139 124
75.725030972908300 -0.626646604969073 41.589009476142252 142 140 123
63.935689742358463 -0.531834381272773 23.060777047846244 149 143 127
59.771839551620673 -0.578657868835589 16.517096545414290 148 142 126
54.256067946341005 -0.811764407091960 7.850615995709944 144 141 124
52.795844315636231 -0.957228873535328 5.557489421386805 144 141 124
51.769043201316663 -0.833409309167620 3.941114204430932 143 140 123
51.067326662555374 -0.505315859328045 2.832270256626003 140 137 122
45.984939200828222 -0.809487165570982 -5.153937197116818 145 142 127
44.903985066133501 -0.787258789867936 -6.854218950526672 144 141 126
44.202334302943655 -0.514166995115188 -7.962528205473291 143 140 123
41.877907919780512 -0.633288887459699 -11.616236461335603 145 142 125
40.526040108860641 -0.843776122751971 -13.738813006565920 143 140 123
39.553494301597809 -0.798514004993102 -15.269476260263758 140 137 120
38.635149562489033 -0.724152987169909 -16.715509763856687 142 139 124
37.825200875702066 -0.580883788592607 -17.992391104009897 145 142 127
35.825999083703906 -0.595048634989671 -21.137612755585934 143 140 123
34.474145473692900 -0.875674894740146 -23.259474118268770 146 143 125
33.555855696476669 -0.849087683973166 -24.705042155647220 147 144 125
32.529184431181875 -0.912245972772452 -26.319554834959121 148 145 127
31.610918633692151 -0.904302538787958 -27.764942434396318 147 144 127
30.421667195709489 -1.109842041027740 -29.632788369777842 143 140 123
29.178215434658668 -1.368289425729704 -31.585019333894394 135 132 115
28.693593445455264 -1.059008905827819 -32.354091379449471 140 137 120
27.937987105157148 -0.962926660836386 -33.545625307954481 144 141 124
26.857172245769334 -1.126076080956727 -35.244065503415584 147 144 127
25.884774736037187 -1.215389130628985 -36.773414452340717 145 142 125
25.291840412103838 -1.016661859976196 -37.711250037933809 144 141 124
24.590517331184685 -0.909264346612870 -38.818010480479501 143 140 123
24.268690883005959 -0.507303062102151 -39.333340709751866 145 142 125
21.568605321396177 -0.723500047604316 -43.582347854040364 146 143 124
20.542098522499799 -0.916200626228151 -45.195605769647898 145 142 123
19.895122297271584 -0.808065003697152 -46.217514274478702 142 139 120
18.760198433545753 -1.108393522319292 -47.999515739281406 135 132 113
18.167483239795075 -0.970275935589054 -48.936832270078440 141 138 119
17.737466319671142 -0.702172243181373 -49.620744454819260 141 138 119
16.172616272656086 -0.773296940565784 -52.086301096637897 143 140 121
15.037739336376433 -1.119604262104471 -53.867851728453815 142 139 120
14.336693826271812 -1.106471776252997 -54.973774642642866 143 140 123
13.635671732542789 -1.100121790380465 -56.079638943466222 143 140 123
12.880439910269359 -1.147420453904853 -57.269876148390864 144 141 124
12.125227590895946 -1.202040426061845 -58.460047321528293 142 139 122
12.129349027727741 -0.600142096182525 -58.468214644658730 143 140 123
9.325851827420735 -0.711624811807577 -62.890545661884602 142 139 122
8.733527441471125 -0.658809237993876 -63.827171097323145 141 138 121
6.310279594854251 -0.553892137138623 -67.657627419546316 141 138 121
2.535707750848530 -1.257452607400390 -73.604765030597775 135 130 111
149.909655819810382 -1.172592437171816 155.764453570347030 121 122 114
148.063315265929646 -0.645670499203860 152.873110603091391 127 127 115
144.585186803497209 -0.812258441659170 147.443781475960463 130 131 117
129.369003548857478 -1.214770686332462 123.686806871275564 140 140 128
125.672807946862278 -1.676371026808726 117.921401487372208 139 139 127
123.064435578913304 -1.687149171663407 113.848122356123525 138 138 126
119.313687489868286 -2.242037042891294 107.998916065531745 138 138 126
115.834838960683911 -2.709801053411131 102.573031572433223 142 142 130
113.552653387916237 -2.657884416538588 99.008213757083922 144 144 132
112.303978627388076 -2.144833943804711 97.050540043000581 145 145 133
110.293701495375075 -2.004842114120540 93.909029984015916 146 144 132
107.521797450413743 -2.249271662351587 89.583812283020109 145 143 131
105.892230780602858 -1.969412039357007 87.034744108867528 144 141 130
104.806637940418710 -1.440347786202742 85.331464379964530 145 141 130
102.905015542040275 -1.324677485994016 82.359942392408271 143 141 128
100.296139831217147 -1.580370748175535 78.289425093002706 141 139 126
97.904824223681288 -1.752681141743006 74.557405023845376 138 136 123
97.254355182532592 -1.064423340539836 73.531195981165155 139 137 124
95.134992142658533 -1.136366723443027 70.222336032355429 141 139 126
92.417149710797631 -1.539509331047047 65.983748039131314 141 139 127
92.256279866052694 -0.632571761179577 65.718795402667240 138 136 124
88.343785116478273 -0.737358727534000 59.609758390565048 141 139 126
82.855690454830892 -0.832558757671110 51.039476629849787 141 137 125
81.225777020933378 -0.790576923045105 48.493022942022719 140 137 123
79.541436761192813 -0.795222564825453 45.862227936237360 142 139 124
78.020308204670144 -0.724844633853058 43.485157410513864 143 140 125
76.662398114956503 -0.577004972390245 41.361783031991052 143 140 123
70.360058621530243 -0.632642737170722 31.517742699722277 140 139 121
67.263226690444995 -0.722174016230506 26.681221630467007 143 142 124
65.796417539736709 -0.740904854209892 24.389941013436953 146 143 128
64.329599882995055 -0.774235562783646 22.098814749466470 148 145 129
63.243695215791774 -0.588955525471516 20.399222941176646 147 144 127
60.418869001531334 -0.657071437221965 15.986649254818417 145 142 123
59.224126026443443 -0.575685753382170 14.118476986885469 144 141 122
55.258949682373725 -0.647272948879272 7.923442042172383 143 142 124
53.574399555477456 -0.932073655436285 5.295631212934438 144 142 124
52.325227397492725 -0.949778014450484 3.343658778200847 143 141 123
51.457029524014999 -0.729643351841525 1.982993549543352 143 141 125
50.425567835677597 -0.626151544202121 0.369057179034399 146 143 128
47.113519554648050 -0.524221709967538 -4.809911471210341 144 141 126
45.809941407560586 -0.648103534853296 -6.845622214170504 144 141 126
44.887375851927118 -0.523306400714633 -8.290155657887993 144 141 124
43.311646233545616 -0.859262134849681 -10.747781511156006 146 143 126
41.844770798365531 -1.134987569198398 -13.036385043438514 144 141 124
40.867789768039700 -1.081608490214358 -14.565010053585212 143 140 123
40.217427507025192 -0.807165465257648 -15.587010576141012 141 138 121
39.567089721627283 -0.539100068878803 -16.608957159613112 142 139 124
37.449922446501674 -0.610982728358488 -19.918868179808811 145 142 125
36.418571444046052 -0.642790815317325 -21.531464792280332 144 141 124
35.223910129110592 -0.804148160500000 -23.397177450208972 145 142 124
34.138134121203592 -0.897125599839682 -25.093966564673480 145 142 123
33.379019939807989 -0.758722601090760 -26.284257982799858 146 143 124
32.619927428767824 -0.627742994479394 -27.474483355245638 146 143 126
31.479742842440430 -0.790374787856726 -29.255385489953795 144 141 124
30.121778401997545 -1.128836101559644 -31.373728127039982 133 130 113
29.199387027240803 -1.149254841189418 -32.816850118352960 142 139 123
28.494804545879504 -1.011913147749025 -33.922359505387647 145 142 125
27.300196810994848 -1.259150232483172 -35.787213792527410 147 144 127
26.541200446158115 -1.180199760534232 -36.976949598967053 145 142 125
26.000036987641963 -0.938593130002959 -37.829134682991565 143 140 123
25.349998630993909 -0.787767080816924 -38.850017708654605 142 139 122
24.645532739868585 -0.686290414879626 -39.955213695313375 143 140 123
23.073301615858909 -0.634624735302158 -42.418503198232656 144 141 122
21.715388169239986 -1.080885720617532 -44.535760594415649 142 139 120
20.956539631744647 -1.054932273256035 -45.725021595951205 142 139 120
20.361102203427421 -0.903096863294163 -46.661177023508429 142 139 120
19.275514931824659 -1.159157648553345 -48.356377729968330 136 133 114
18.516727589288621 -1.156086999721714 -49.545432462822021 140 137 118
18.084769059218033 -0.888979971211382 -50.228405528857479 141 138 119
15.645213375063364 -1.079094344728244 -54.048023330324384 142 139 120
14.668639974807832 -1.297189654900633 -55.574048927034880 140 137 120
14.018932277873688 -1.245230294086745 -56.594072454681850 143 140 123
13.532687578283927 -1.058900154311438 -57.361102611122647 142 139 122
12.992001866223120 -0.924299188955149 -58.212414784347175 142 139 122
10.284737312332624 -0.919499868605090 -62.460262349331231 142 139 122
9.417270990449879 -1.104298525697235 -63.817109367683486 141 138 121
8.767783868430399 -1.102357040444070 -64.836723558493617 140 137 120
5.956777879317656 -0.784309844289164 -69.259883764052063 140 137 120
4.281483788656146 -0.646918244665091 -71.896468486796351 138 135 118
3.250680864959634 -1.055901037671734 -73.505444849541931 135 132 115
149.325714684992988 -0.618590067112250 152.490622065503914 126 126 114
133.494470196756026 -1.089492679093958 127.920005773920735 137 138 124
130.929030416323656 -1.016274496202539 123.936182108487600 139 139 127
126.888241275285523 -1.619892299335186 117.671937640058388 140 140 128
123.776258345998130 -1.849178130884146 112.844103320225116 140 140 128
116.841740108351246 -2.725000297821795 102.091489968215598 143 143 131
114.603831614192529 -2.647722580209566 98.616087980805077 145 145 133
112.966954190806121 -2.312614437390045 96.069948545334739 145 145 133
111.493977168215395 -1.916676036609430 93.777350218284994 146 144 132
109.419883480597903 -1.821652016253292 90.555973772087555 149 147 135
107.782912217577064 -1.537071004683083 88.010399330321320 147 144 132
105.818038428918484 -1.428195748205945 84.958347650945683 144 140 129
102.377678851126646 -2.063219152642222 79.626630745315992 143 141 128
100.740602972165433 -1.838303216643988 77.081720514053046 142 140 127
99.376739950138358 -1.492912780880097 74.959160508583153 139 137 124
97.794266280050095 -1.271714547702659 72.499025920859310 139 137 124
96.430365991062388 -0.954690306242261 70.376775731263592 140 138 125
94.683903753519687 -0.848541834080083 67.663700322328964 139 137 124
92.718817516362165 -0.873597047171506 64.613128891191195 139 137 125
90.644401894380124 -0.975656710733682 61.393935138655110 139 137 124
89.061818350643463 -0.837460475944090 58.934707495374141 141 139 126
87.807128967147747 -0.539479661844377 56.982124976340032 141 139 126
86.060556959189682 -0.519781147702165 54.269991954042467 141 139 124
83.384859371097320 -1.024051696038759 50.123141857636654 141 137 125
81.911506334401622 -0.893347082124626 47.833453599056128 141 138 124
71.379091801835486 -0.516428330766309 31.472480005633344 142 141 123
69.741676126857939 -0.600613060463147 28.930914060050725 142 141 123
68.213568584980052 -0.636027535438202 26.558271231379166 143 142 124
66.193503345859426 -0.981528690343420 23.426441192465120 146 143 128
65.211988500207468 -0.719245526295736 21.897834789337878 145 142 126
62.702347288037515 -0.559683260345452 17.997287382007443 146 143 126
61.174206316446728 -0.667794423013448 15.625408849522017 145 142 123
54.408081400251277 -0.871743558392802 5.117897437861672 142 141 123
52.661234288346108 -1.208035114282552 2.409560408974329 142 141 123
51.570412346967245 -1.132661061551357 0.713452325306378 144 143 125
50.698280971421227 -0.923991710188863 -0.645213111236188 145 144 126
50.044851354355444 -0.578779270244869 -1.666474686311091 144 143 125
47.480567717160042 -0.754549480882607 -5.648288484090301 141 140 122
46.717836631607540 -0.508986413479203 -6.837952640085092 141 140 122
45.572396874770334 -0.532456348141852 -8.617773182155247 146 143 128
44.262934176973388 -0.680093524766123 -10.650424250457490 147 141 127
43.062827217389298 -0.764803082783100 -12.514320704830141 146 139 126
42.190796314395200 -0.632257850714204 -13.872250623295827 146 136 124
37.773237710152770 -0.854851054579832 -20.736184144039640 144 141 124
36.573171744719090 -1.006748618910819 -22.599408609972045 145 142 125
35.373109894118926 -1.170414995801321 -24.462513902126830 146 143 125
34.829287601770432 -0.865016324512254 -25.314083652681575 144 141 123
33.629247496382291 -1.048958986046627 -27.176990633687495 145 142 123
33.030786705457757 -0.797939221813294 -28.112720649321062 146 143 124
32.104216658846028 -0.798002538075196 -29.554053106940302 145 142 125
31.177662307937240 -0.807104697247699 -30.995300031979184 137 134 117
29.813583888276952 -1.156631740213326 -33.110603857254517 134 131 115
28.613581556451322 -1.394442306262438 -34.972974419601201 144 141 125
27.741751857276938 -1.392194571099273 -36.329659375693069 147 144 127
27.198118609518275 -1.145002249955666 -37.180720417329127 145 142 125
26.162239243953096 -1.285608906841410 -38.790030758075062 142 139 122
25.399865373348860 -1.222414052403243 -39.977988596846615 140 137 120
25.020419343206640 -0.865237203377360 -40.576151711839316 140 137 120
24.367506539755098 -0.728251473210769 -41.595517146647893 143 140 121
23.003476747368907 -1.164289013923098 -43.709953739032017 141 138 119
21.639437434834974 -1.613674215205636 -45.824248382834583 145 142 123
20.986573687190173 -1.502597643444185 -46.843370589789856 145 142 123
20.388447325426199 -1.353382082442839 -47.778212673381574 144 141 122
19.790353460656263 -1.209889519063897 -48.713011393734376 139 136 117
18.645178345115710 -1.521671613397957 -50.489990797398661 140 137 118
18.211272624654711 -1.256649607610598 -51.172010872039436 141 138 119
18.160412760549576 -0.677196704042862 -51.264503172133573 143 140 121
17.507739254869364 -0.601500456171911 -52.283352202745277 144 141 122
16.198477464376836 -1.084600796600010 -54.312646293546038 142 139 120
15.217522698638319 -1.302575734225604 -55.836577099082632 140 137 120
14.729071618407701 -1.110733760218422 -56.602608466666339 141 138 121
11.794844774099431 -0.651941087066899 -61.189986771205099 142 139 122
10.595088339990767 -1.117078352119511 -63.050134982264751 140 137 120
9.887938381272249 -1.157332551285454 -64.152588013193196 139 136 119
9.399762731031331 -1.009209385330092 -64.918301125886131 139 136 119
9.185326163689524 -0.620353897856663 -65.263153631655541 139 136 119
6.685764280260528 -0.587566488684293 -69.167217998019623 139 136 119
6.088325449184822 -0.568924192424894 -70.101044937727607 139 136 119
150.259672548475692 -0.724891201758444 151.601478496251616 125 126 113
143.569493061332707 -0.956608311304539 141.279638651200173 135 136 122
140.663349871138365 -0.938151341495169 136.794216704316597 135 136 122
137.098527123486406 -1.228239872688033 131.296774194752288 137 138 124
134.905740783834574 -0.964453591749582 127.908724981875679 136 137 123
131.724967251615396 -1.151711608175409 123.002508352356102 137 137 125
129.202753736856806 -1.081215630910350 119.108892295542233 140 140 128
126.845144243743846 -0.962668017414344 115.468612274119181 141 141 129
119.604942722010051 -1.942603107804908 104.309014019442827 145 145 133
117.082493918362729 -1.982490474442951 100.416646755237508 146 147 133
113.681773705190679 -2.454938856106833 95.175151931986477 145 146 133
111.872778509470535 -2.214680374143840 92.379752729276447 146 144 132
111.490890439033407 -1.316184601023166 91.777185810369190 147 145 133
109.517174485412411 -1.183751262410019 88.729121697229260 146 144 132
106.994512830183396 -1.336451894267268 84.838017504102396 146 142 131
104.307131101726767 -1.594646073214483 80.694224072708721 145 143 130
102.882226289151433 -1.256367431992141 78.490080570956906 144 142 129
101.237730622834277 -1.041731061290565 75.948825753261673 143 141 128
99.428531471000596 -0.926343394203996 73.154809480484488 143 141 128
97.289941827617966 -0.996342205696091 69.855127456439533 142 140 127
95.151320279422009 -1.087544709324587 66.555678955802904 136 134 122
92.957772203808005 -1.228387725061128 63.172159207418588 139 137 125
90.764192484052600 -1.390960270415999 59.788878270447384 142 140 127
89.558721322586891 -1.053525190933565 57.923202685046874 141 139 126
88.463037048599958 -0.669562964602942 56.226244271539684 140 138 125
86.653675744978131 -0.680329550053070 53.433604140717904 142 140 125
84.240410341919571 -1.036767669969738 49.713980097686203 141 137 125
82.760397649464281 -0.905937970985105 47.427476508030253 142 139 125
71.905899593144113 -0.687891820197334 30.667927499247440 143 142 124
70.590523224291175 -0.579920041952415 28.635474399528619 144 143 125
68.616279667424138 -0.874909230493153 25.592062364763677 145 144 126
66.916547336403383 -1.025526564061906 22.970133433072647 148 145 130
65.491337515114751 -1.027714261280588 20.769640437500811 145 142 126
64.450477067375800 -0.810798875470256 19.159032875404051 145 142 125
63.189989896326338 -0.738460678533005 17.211546650874112 146 143 126
62.094231559376666 -0.576998155277675 15.516913970052457 145 142 123
55.572191685526249 -0.600253476890963 5.445067563192197 142 141 123
53.542920942723825 -1.111572925315446 2.319348256680854 141 140 122
51.952949182245106 -1.356925358011628 -0.132396829922698 146 145 127
51.296540645848594 -1.005737488453093 -1.152294808299445 146 145 127
50.695072095197517 -0.624696266287834 -2.087924298173277 144 143 125
49.654287128656264 -0.541933257534775 -3.697187072406905 142 141 123
48.229082568523538 -0.727108819881443 -5.895798998876643 140 139 121
47.133394019640377 -0.703719248882808 -7.589043811810654 140 139 121
45.653270776838326 -0.952582852677482 -9.871586140652596 145 142 125
44.777281173922546 -0.802013552945393 -11.227807761428011 146 140 124
43.516851074093225 -0.925309696138480 -13.173307526092799 147 140 125
42.585966605457983 -0.831910967764202 -14.613538030781342 147 139 125
41.655098325591922 -0.747598342676508 -16.053682752295970 147 138 124
38.423168938350528 -0.863157943518578 -21.047023508850799 145 142 125
36.833209348251359 -1.291599829920125 -23.496889785998974 147 144 127
36.067192250698298 -1.138670237815083 -24.684028402219866 147 144 127
35.411061527520545 -0.913041295037738 -25.702766844379482 145 142 125
34.315498854480097 -1.016452028589240 -27.394766656651427 145 142 123
33.494614690771527 -0.927496695515663 -28.665857422226452 146 143 124
32.948427357888519 -0.642107067633685 -29.516089782360638 145 142 123
30.537655135370173 -1.081155952252641 -33.236056200315716 132 129 110
29.167458240472186 -1.443370388401493 -35.348302370298057 143 140 121
28.236778176484947 -1.483244560924182 -36.787258816550064 146 143 124
27.525880567908473 -1.363202908577884 -37.889568990357674 146 143 124
26.155694984155659 -1.760080786291330 -40.001463763335664 140 137 118
25.389890647956008 -1.699764367207515 -41.187750849943910 137 134 115
25.118622505748860 -1.259387760185748 -41.616804542786014 140 137 118
24.572668798964244 -1.038102043597831 -42.466488815082954 140 137 118
23.257469492895112 -1.432310120993110 -44.493857431503017 139 136 117
21.887314290175240 -1.883187561903925 -46.605210894031984 139 136 117
21.341426143578246 -1.685365772226918 -47.454685004110985 141 138 119
21.015387981584212 -1.315093698504159 -47.967674170964699 140 137 118
20.194804902407071 -1.349949452951522 -49.237634524626316 140 137 118
19.264329565995467 -1.482607371656307 -50.675733842138726 139 136 117
18.498743054850735 -1.488570673558136 -51.861442885042436 141 138 119
18.392699727909331 -0.955899913092171 -52.037912938489058 143 140 121
17.901989806974058 -0.744420196556151 -52.803065825571309 145 142 123
16.971613936470689 -0.905896446232597 -54.240916085675508 142 139 120
15.711459898580273 -1.354241095062078 -56.183202029866777 141 138 121
15.110901154692343 -1.255751285025943 -57.116358324550845 140 137 120
15.224972328633100 -0.553726659846612 -56.956438105453714 141 138 121
12.763983637570362 -0.870914822309009 -60.764494395536047 145 142 125
11.888715135244723 -1.040319810238385 -62.117767332277822 142 139 122
11.123418162340158 -1.121664025395835 -63.302838955674986 140 137 120
10.743008459799455 -0.870770076055311 -63.899447029817026 139 136 119
10.472615502767738 -0.525774631313416 -64.327937602028470 139 136 119
5.451625401602627 -0.501028976262093 -72.125185280286956 139 137 121
140.890496854183198 -1.323432012875990 134.915774094993964 137 137 125
138.136591761599675 -1.268160500798584 130.689719668225791 139 139 127
134.886450989145033 -1.452299468422997 125.705797097807135 138 138 126
131.856761731919875 -1.573245165864989 121.059196337753576 137 137 125
129.433452299688327 -1.458963942073441 117.339531973176321 140 140 128
127.947334894829211 -0.954218748417141 115.052099956983483 141 141 129
124.090486353700854 -1.524315335752093 109.142949425021101 142 142 130
121.556754232580658 -1.534346241079140 105.255672733663971 144 144 132
116.872757719661493 -2.552010626066127 98.083950722553283 146 147 133
114.228635898127962 -2.673674739330851 94.028915412337710 146 147 133
113.403914014884549 -1.972216905730541 92.753355802700781 147 145 132
112.358639528315535 -1.383050512791669 91.141028135031064 149 147 134
111.203078771662732 -0.856865288503462 89.360391567906674 147 144 131
107.842039671288816 -1.404073015909004 84.211541856730548 145 141 129
105.859368783215373 -1.313982068337403 81.168197605039609 145 143 130
103.986942719599256 -1.189323181644386 78.293474551894064 145 143 130
102.224765991703578 -1.028466058284391 75.587353757649453 145 143 130
100.131731774262647 -1.050815342321664 72.376246578382279 145 143 130
98.314364948858099 -0.954334836957509 69.586332313558671 143 141 128
96.000713784237220 -1.129343577584988 66.038903386404996 135 133 121
93.742169994569934 -1.298729401792950 62.575912285382913 138 136 124
91.483594773841475 -1.490384532523216 59.113165450031943 142 140 127
90.052117848842855 -1.269581905239496 56.913375263962394 141 139 126
88.951484698793351 -0.887414358053220 55.218802849334224 140 138 125
87.464846028536030 -0.722795197443911 52.935121292843917 142 140 125
85.702477104017746 -0.721809856343623 50.230738085372252 141 137 125
84.160669187215518 -0.617943735976960 47.863215783967121 142 139 124
80.911583646804502 -0.547615176064529 42.876169032061426 144 141 126
78.873424830599959 -0.767999709317086 39.751707010164807 144 141 124
72.981695393808266 -0.539813757146152 30.706040658440486 141 140 122
68.466324367466086 -0.578083292070526 23.776144044115085 148 145 130
66.593509756092800 -0.840632359367428 20.905592596871799 147 144 128
64.941291577283877 -0.988337546311651 18.371761966359742 146 143 126
63.895753939912325 -0.782929847446686 16.763510410153799 146 143 126
56.354083077797171 -0.575203521210363 5.181614434371852 141 140 122
54.536366587675147 -0.944216530432783 2.396659006540091 142 141 123
52.939277673033544 -1.188070993885825 -0.051696677257524 146 145 127
52.114436827357750 -0.943459979086151 -1.322496821868469 147 146 128
51.013805357150005 -0.888276599567972 -3.013704227826622 145 144 126
50.299324004616963 -0.588011607152154 -4.116155080185223 142 141 123
49.088392282137420 -0.626051637219524 -5.975353397988812 139 138 120
44.410238708632491 -0.782610198142444 -13.158734446116910 146 140 124
42.757995548965681 -1.184210277520199 -15.689939658198540 146 139 123
41.767779803379327 -1.140659129138938 -17.212132062102569 146 139 123
41.274116748350849 -0.758343139610888 -17.977630683535779 145 139 123
40.559800988695613 -0.536694656344090 -19.079351515737272 144 141 124
39.017916783095984 -0.910714286526026 -21.441918202743636 144 141 124
37.531200043119298 -1.260232671289139 -23.720270134912766 146 143 126
36.706581743551553 -1.146719836176127 -24.989827285397411 147 144 127
36.047515316046542 -0.920991681390914 -26.007162317908666 145 142 125
34.836702273233698 -1.104946008839559 -27.864915442493981 144 141 122
34.232862623224051 -0.854003970134839 -28.798071430310557 145 142 123
33.573875691643934 -0.649729014746260 -29.815223664841227 145 142 123
31.041976032824365 -1.171351339121031 -33.698110932404063 135 132 113
29.886397710096148 -1.367211616148251 -35.471306718908664 138 135 116
28.951567587114155 -1.406426369344841 -36.908284578897138 146 143 124
28.016754958375799 -1.454663265321306 -38.345177938623863 144 141 122
26.806019466360098 -1.724434302832282 -40.202084808737482 141 138 119
26.257560499351683 -1.492638279935162 -41.050678760993435 140 137 118
25.819520364969605 -1.179957889397525 -41.731211517881690 142 139 120
24.995176926150492 -1.174619715812988 -42.999786664672939 139 136 117
23.950080852612714 -1.351556036244471 -44.604313804439613 135 132 113
23.070581479316360 -1.406993228583337 -45.956735834783757 135 132 113
22.743070959220532 -1.029543598066125 -46.469094512766219 140 137 118
21.808427464687384 -1.143564574081215 -47.905391637134045 138 135 116
21.205000831969670 -0.998504021234084 -48.837655319683137 139 136 117
19.883986301806146 -1.443517190745847 -50.861718990493898 140 137 118
19.059794935222115 -1.494318677819414 -52.129789014391832 142 139 120
18.511651076837211 -1.325530420021878 -52.977885142954591 143 140 121
18.073959839550554 -1.070363095278164 -53.657992800139112 145 142 123
17.581106020629093 -0.865298025233405 -54.422054024594644 144 141 122
16.812242637833663 -0.896405436903741 -55.605936602379757 140 137 118
16.043404062686932 -0.934839615727036 -56.789755629963963 138 135 116
15.495446903198996 -0.793153913690613 -57.637662094417465 141 138 119
14.344433528126018 -0.572581908706976 -59.417328282909324 142 139 120
13.078733169250114 -1.066412473791074 -61.356492676766152 142 139 120
12.420463038418418 -1.044971175380772 -62.372105827638791 140 137 118
12.093569033719788 -0.740362446842570 -62.884009656477815 138 135 116
10.998124213819850 -0.530111347296343 -64.579294528106487 138 135 116
10.284770305766585 -0.579796066949160 -65.678682537853661 137 134 115
9.240047000003415 -0.932191322771976 -67.281581921481006 136 134 115
9.023847631450622 -0.550583523971593 -67.625516505093003 137 135 115
5.899741800245422 -0.555445069046513 -72.449861382124340 137 135 120
143.103148085582973 -0.879843821502984 136.069860952542058 136 136 124
136.518493547484752 -1.233116376654583 126.031366219604138 139 139 127
131.426327870286570 -2.233067117175349 118.278716407713347 138 138 126
129.712047961525002 -1.812551807318361 115.657868032137259 141 141 129
128.108486958779565 -1.360252575096180 113.205442713396991 142 142 130
125.618845218373636 -1.318208848377753 109.407396189608079 144 144 132
122.187718763578530 -1.724333827766652 104.179764908028005 143 143 131
117.427426466349942 -2.768760288555324 96.933959129180749 146 144 132
115.657545668206993 -2.485031722868627 94.230259158253915 148 146 134
115.327521029353278 -1.549760553017619 93.713361288737701 147 145 133
113.834499063202770 -1.163929690167198 91.430456435944194 150 148 136
