ply
format ascii 1.0
element vertex 698
property double x
property double y
property double z
property uchar red
property uchar green
property uchar blue
end_header
-120.735727237726067 -73.327421894023345 -4.134698799466008 3 9 5
-120.749432247161465 -72.720447153011477 -3.912672496015176 4 10 6
-120.737678810711472 -72.174437791414903 -4.145633418216846 3 9 5
-120.751596604468560 -71.566219646323944 -3.923518118458730 3 10 3
-120.765624357495241 -70.956830012589720 -3.701362273283991 0 6 0
-120.747798802622412 -70.428029321159030 -4.047909823559280 0 6 0
-120.762048575449981 -69.817655461687139 -3.825657896002781 0 9 3
-120.744441377499868 -69.290598385830052 -4.172083037163645 0 11 3
-120.790896054622763 -68.593368293767398 -3.381024024013982 1 11 2
-120.722348213120654 -68.206245912713058 -4.637249655693239 1 11 3
-120.717868232284957 -67.647852645423910 -4.755999570502325 0 9 1
-120.694311090534825 -67.143889240399162 -5.215892314547773 0 7 0
-120.779649411000307 -66.331489155369027 -3.742263692776135 2 8 2
-120.775536487724963 -65.771433933611732 -3.860855115838774 3 8 2
-120.822755690893672 -65.061314479045706 -3.069563032732646 2 8 2
-120.825300958996110 -64.480867284908598 -3.074320219757794 2 9 2
-120.872800700326906 -63.764784547875536 -2.282955311218643 2 9 2
-120.882019358425296 -63.162564387939923 -2.173885206498454 3 10 3
-120.884967273101438 -62.579589338641526 -2.178475789265946 3 10 3
-120.843195165786184 -62.137771916780842 -2.979019465339320 1 8 1
-120.814357553240171 -61.658755322125344 -3.552040463382724 2 9 2
-120.785642692394021 -61.182354252670748 -4.124975814518820 2 9 2
-120.808352332188761 -60.540531827677697 -3.788141546566038 2 9 2
-120.824799967692570 -59.918212960863450 -3.564961125000139 0 7 0
-120.822150848257735 -59.359321647179847 -3.682840288632462 0 7 0
-120.813226756966060 -58.822668652738642 -3.914351352021242 1 8 1
-120.830123131345857 -58.198567780302959 -3.690974598394263 2 9 3
-120.879287484810121 -57.461347850106264 -2.899030920863908 4 11 5
-120.922210075867241 -56.742788326520532 -2.220740085055240 3 10 4
-120.901054044613204 -56.250028630079349 -2.679368820668969 2 9 3
-120.899323894712722 -55.689712817393442 -2.796823015509858 1 7 2
-120.897750081868466 -55.129787468050068 -2.914198400003556 4 10 5
-120.928499241248801 -54.451506236172406 -2.463034457332355 3 9 4
-120.940127522941552 -53.842930197686449 -2.352877021194985 4 10 6
-120.906864241271165 -53.403721770424561 -3.038464363633153 5 11 7
-120.893062082237961 -52.893918684656043 -3.382891583231071 6 12 8
-120.879416850376089 -52.385587778769526 -3.727228575521110 6 13 7
-120.865930373265428 -51.878725691038582 -4.071474500799155 8 14 10
-120.884848262186139 -51.246335262869238 -3.847215990106434 5 11 7
-120.916861341564825 -50.561305257069293 -3.395516860960640 3 9 5
-121.007173879701156 -49.640331635599487 -1.920626192458769 3 9 5
-121.026717238295234 -49.000470422000809 -1.696145359765694 9 15 12
-121.040002257507297 -48.385802224884806 -1.585258055727081 7 14 7
-120.988843694898350 -48.038136270949913 -2.611040801322872 4 11 4
-120.963690826130886 -47.587011492208319 -3.182011926099989 0 7 0
-120.951643384543743 -47.083771043368564 -3.525532142367723 4 11 4
-120.972148433044396 -46.443943119704514 -3.300590897849702 2 9 2
-121.005827838165061 -45.747022551698180 -2.848216999710701 2 7 1
-121.020296988200343 -45.132128715789200 -2.736765534158650 6 11 5
-121.086871407142837 -44.288980960730349 -1.715865539454171 4 9 3
-121.147239795760370 -43.469322390205690 -0.808551587328793 1 6 0
-121.188407765751748 -42.731946117371976 -0.242152731396828 5 10 4
-121.132365210700456 -42.430485565648866 -1.380655231739979 5 10 4
-121.147988710922206 -41.809365162099780 -1.268715622204127 5 10 4
-121.215902198311724 -40.948892762607443 -0.247353353012841 3 8 2
-121.238547153404610 -40.293814462065143 -0.021545364306462 3 8 2
-121.235381151915490 -39.758830306315851 -0.250284599075712 6 11 5
-121.238954848616530 -39.194021550864086 -0.365247699999486 4 9 3
-121.262336280352983 -38.536699520743561 -0.139110479226872 3 8 2
-121.259860500772078 -38.002781814879036 -0.367508536696789 4 9 3
-121.218400417739247 -37.658556237501791 -1.277757264462252 4 9 3
-121.294839215541160 -36.746808625226038 -0.141985432595163 5 10 4
-121.260358684716437 -36.373810736550872 -0.938332449441845 5 10 4
-121.291573891595917 -35.681233643259326 -0.597951590648137 7 13 8
-121.277186848090025 -35.214811026816840 -1.053070964930242 9 15 11
-121.282707821876656 -34.651664341794614 -1.167085386645027 9 15 11
-121.268782016330178 -34.188184086411091 -1.621953819067841 6 12 8
-121.307674563036770 -33.459149613195251 -1.167416536422309 7 13 9
-121.340311587688646 -32.761235585776063 -0.826410420623944 6 12 8
-121.379852627008873 -32.027295064953606 -0.371613401747453 5 12 5
-121.320840863711439 -31.804752292632706 -1.621582905710113 5 12 5
-121.301571313368967 -31.380700301552110 -2.189460797315547 4 11 4
-121.328767284101900 -30.715276562033416 -1.961582109126937 3 10 3
-121.435632883434678 -29.627068116897036 -0.369635060018936 4 11 4
-121.430465687820032 -29.132181448886350 -0.709777800534226 5 12 5
-121.412310835386464 -28.709898046815635 -1.277104219505730 2 9 2
-121.467360397856766 -27.894584903285608 -0.594007815755646 3 10 3
-121.575935267370014 -26.785657474681216 0.998543671442661 4 11 4
-121.572022606203376 -26.289073095200290 0.658983620510043 4 11 4
-121.561734802206317 -25.830517577167093 0.205906288353987 4 11 4
-121.565041568365061 -25.299615630742153 -0.019694376328090 2 9 1
-121.595335247839031 -24.619967426209286 0.209519825539985 2 9 2
-121.572566018408821 -24.239792448982325 -0.470439537320033 3 10 3
-121.456418366246197 -24.393342411837580 -2.741601307498712 7 13 8
-121.393849188232124 -24.252105114886316 -4.103294633286197 5 11 7
-121.532552339317661 -22.962736284569608 -2.054751713766677 5 11 7
-121.591364508394534 -22.127849328684349 -1.370056774996840 5 11 7
-121.563258684226625 -21.796651388783523 -2.162923886158353 3 9 5
-121.582508076168835 -21.193587072690022 -2.159922686993639 3 9 5
-121.581906665008447 -20.708825983435268 -2.497776944207459 3 9 5
-121.622120399285279 -19.985845112723780 -2.153404182105788 4 10 6
-121.608698483481064 -19.582047264217611 -2.718276099327710 3 9 5
-121.636176937793365 -18.937740210163433 -2.600903792231975 4 10 6
-121.677622229390892 -18.210792173227503 -2.255982693364359 5 11 7
-121.739889853632761 -17.358449858469786 -1.569814353465546 4 10 6
-121.775485794002520 -16.667363293612841 -1.338181308948549 6 12 8
-121.729816108287778 -16.473768419655315 -2.470611148547988 5 11 7
-121.793471720932743 -15.615034905600488 -1.783844587579836 4 10 6
-121.803026128759555 -15.089639991632556 -2.006399715251405 4 10 6
-121.867699274993313 -14.225054811252942 -1.319206603843270 4 10 6
-121.926084577741108 -13.399123090443140 -0.745482580649195 5 11 7
-121.971292176622200 -12.655721796694698 -0.398930968511053 8 14 10
-122.037644880600268 -11.779948352785670 0.288950471147956 8 14 10
-121.966818601215678 -11.772207756726679 -1.297036644867916 7 13 9
-121.903012729096403 -11.727914409774584 -2.769182593018968 10 16 12
-121.984524134951982 -10.762507223437758 -1.853254157639469 6 12 8
-122.094405193033055 -9.613860884468744 -0.482204410845924 6 13 6
-122.024667150344357 -9.621351869978382 -2.067514131835850 6 13 6
-122.066272077767564 -8.915353602253587 -1.833159902158144 5 12 5
-122.240746487376072 -7.345948093215172 0.562189961374145 4 11 4
-122.262761132699197 -6.767453513540536 0.455908071997072 3 10 3
-122.306230270079382 -6.050965290479469 0.691046154948197 4 11 4
-122.490384544080143 -4.408256756030401 3.201131172481581 4 11 4
-122.521243740121136 -3.774958812015751 3.209375252211828 4 11 4
-122.369741493868844 -4.357440836182088 0.260561869067203 3 10 2
-122.429490009871074 -3.541639634369848 0.724183442410180 3 11 1
-122.574668276470078 -2.154075448393646 2.553095491030632 12 17 11
-122.508506889648572 -2.186365972606080 0.969752104057960 3 8 2
-122.520516862829666 -1.698331851590289 0.637897398924707 82 84 79
-122.547220174712265 -1.114605053740760 0.533804693708163 75 78 71
-121.850611653412145 -1.589958624454855 -17.199402314521620 88 90 76
-120.781873431524474 -171.120829253909278 -14.524451096192735 62 58 49
-120.943572930546495 -171.440110709699582 -11.450618192849589 45 37 30
-120.721919428994909 -169.898651068615493 -14.898290034290028 32 24 16
-120.621947500327394 -168.952274925436882 -16.286164406395415 50 45 35
-120.515785742098743 -167.981152780793423 -17.788113579690844 55 50 40
-120.490457635199220 -167.396220486627811 -17.917110346083149 46 42 32
-120.472103094805036 -166.843464205919986 -17.931580893371859 40 36 26
-120.410826923926010 -164.204182285195344 -17.544627118472761 28 24 15
-120.407249867988256 -163.711459302641970 -17.329692445113523 25 20 14
-120.576060661174907 -163.980174427074786 -14.142119142748072 23 20 13
-120.182473473157344 -161.765289978439910 -20.672165263150930 19 13 9
-120.322466632216759 -161.419110111043921 -17.726425411061911 18 13 10
-120.392501234125930 -161.235611570539220 -16.253644436260061 23 18 15
-120.396741951241211 -160.765888271785570 -15.923874134849456 22 16 16
-120.486631497834395 -160.654237168392427 -14.108278406043155 19 14 11
-120.635605801098421 -160.780347699547832 -11.264239367941315 21 16 13
-120.509747510317268 -157.750442403418816 -12.242508959515476 203 185 172
-120.495722088090659 -157.188992353216548 -12.254997960848584 211 190 178
-120.436283078409275 -156.449713638175581 -13.067055340979266 203 182 166
-120.409692642425682 -155.840334395883247 -13.307766530917149 212 188 167
-120.389831629778470 -155.257166095198556 -13.434129700487745 226 196 172
-120.376677018632321 -154.699375322671102 -13.446164442001503 227 199 172
-120.376697245528860 -154.190462451233060 -13.229675491524119 217 189 159
-120.357428978934905 -153.608481802851571 -13.355742868312831 205 175 142
-120.377230628022019 -153.169944846950983 -12.796489483850678 196 168 136
-120.332434243658895 -152.493790434185826 -13.379174342224616 181 155 127
-120.352542004319773 -152.052890279406256 -12.819798840628096 170 145 121
-120.308168116524698 -151.379874877282418 -13.402249266678638 149 130 108
-120.322118722496626 -150.913916443065546 -12.956936149159247 110 103 85
-120.265263719901029 -150.199487408176395 -13.767501558916138 39 37 25
-120.260202865931618 -149.666123171107131 -13.664553955218793 30 29 23
-120.203802057114132 -148.957546788405551 -14.474841835939969 30 31 26
-120.199098341204532 -148.425624300265440 -14.371708537972978 45 48 41
-120.155989801491728 -147.765489558175545 -14.953421038733865 82 86 79
-120.170883486066174 -147.297531379515249 -14.507677340017779 67 72 65
-120.128153099937265 -146.640737278129563 -15.089174546507280 45 52 44
-120.124092975275602 -146.109725367312450 -14.985723983663547 45 50 43
-120.056124048096180 -145.376256114910575 -16.023520017210728 48 52 46
-120.052398751034517 -144.847186908461708 -15.919889276758852 49 51 48
-120.036021451243499 -144.278397275165332 -16.044437843193549 50 52 49
-120.070921908405822 -143.865355165171849 -15.255981039605217 51 53 50
-120.048429953020658 -143.276634637858109 -15.494518879941893 51 53 50
-120.077144158304861 -142.839815539363883 -14.820125191455020 51 53 50
-120.035806857894016 -142.195677946509392 -15.400825670711697 52 52 50
-119.988282851861200 -141.536122278774002 -16.095503439642329 54 54 52
-119.915482629680440 -140.807931612781317 -17.246415297936693 56 56 54
-119.893803431496309 -140.227242010988419 -17.484481651663543 57 57 55
-119.878630456760916 -139.665228243460575 -17.608384325729475 59 59 57
-119.901715262731599 -139.207015119917941 -17.047762826945927 62 63 61
-119.912185447994958 -138.712342217762199 -16.715269188127536 62 64 61
-119.871996389591743 -138.082995906727177 -17.295268098249380 61 63 61
-119.838313177493376 -137.472860708728348 -17.761097999241343 61 63 61
-119.823793798206239 -136.913302275236731 -17.884662721498472 59 61 59
-119.841064164363928 -136.433497859545298 -17.437903965728339 53 55 53
-119.839434373531759 -135.904958543550947 -17.333265287850423 52 54 51
-119.799965218961233 -135.284320773336134 -17.912830157060853 55 57 54
-119.785931721496070 -134.726513585852018 -18.036144408664910 56 58 55
-119.784651725319605 -134.198797954699728 -17.931329911620793 51 53 50
-119.796100764779780 -133.699531189410010 -17.598415279250872 51 53 50
-119.750852303166738 -133.071082104378775 -18.291684239848593 53 57 52
-119.762506362339323 -132.571163141649464 -17.958678240146867 52 57 51
-119.730129846481063 -131.974245002474163 -18.423746972310397 51 56 50
-119.729378511766839 -131.446396296071981 -18.318680935245283 49 54 48
-119.690952612400025 -130.839549627864898 -18.897604756001186 46 51 45
-119.690411561937196 -130.312397045956232 -18.792430954111921 49 53 48
-119.740268125210676 -129.885103805102631 -17.775248124833411 51 52 47
-119.796447000350796 -129.465233987758950 -16.644105425281083 52 54 49
-119.827530813152080 -128.991989195661944 -15.968953072643330 49 51 46
-119.764498375182995 -128.339694921876031 -17.003551931839496 53 55 50
-119.751818809390201 -127.783976215570334 -17.126196969386399 47 52 46
-119.745510692617046 -127.240042638198076 -17.134813732388949 54 59 54
-119.733025797461536 -126.685265763058496 -17.257355945428969 56 61 57
-119.739434664341019 -126.162986524685749 -17.037948278211758 65 70 66
-119.733395577962369 -125.618956512326221 -17.046437330649468 67 72 68
-119.815079631092885 -125.216177412550465 -15.459481578347521 69 74 70
-119.877998364638984 -124.776376196711325 -14.214460832613014 69 74 70
-119.928432309076598 -124.311546917204581 -13.197388163467025 70 70 68
-119.935144166955283 -123.776989390872728 -12.977961932980406 67 67 65
-119.929433668647292 -123.223401596543880 -12.986392173062654 62 62 60
-119.948788735447081 -122.704748688084777 -12.539035990702985 56 56 54
-119.968205041349890 -122.183960775786773 -12.091672488433375 61 61 59
-119.987682039282589 -121.661036556510467 -11.644301941385606 68 69 67
-120.025931053866429 -121.159686304072025 -10.855152199477146 73 75 72
-120.070458734925282 -120.662192885667309 -9.952100179797810 63 65 62
-120.139953534985167 -120.189813562251317 -8.593409924290597 67 69 66
-120.159630238001156 -119.654243070204089 -8.146074013454097 70 72 69
-120.154457487986122 -119.089275865914317 -8.154364130579523 76 78 75
-120.087116659909128 -118.458934471451940 -9.301657021740766 81 83 80
-120.063456815402134 -117.877958317626337 -9.651532744423832 77 79 76
-120.052326915747443 -117.310642872084202 -9.773555798064791 69 71 68
-120.097234003626795 -116.795417165050353 -8.870504798817791 47 49 46
-120.073811756446034 -116.215900178207946 -9.220251835815674 43 45 42
-120.044264155110980 -115.632868733204234 -9.683824282248821 46 48 45
-119.958911790175264 -115.007888266823912 -11.172255302940499 47 49 46
-119.941981747457191 -114.440990249145955 -11.407907713267520 42 47 43
-119.906512730502371 -113.862122878690400 -11.985128966645561 40 45 41
-119.945585043607593 -113.335072807260616 -11.195849902693823 50 56 52
-119.928879390550009 -112.769881919981131 -11.431377393425635 66 72 68
-120.005250745577129 -112.258967610029458 -9.958935192647232 49 54 50
-119.945283643133152 -111.669008713569013 -10.991425956481862 28 33 29
-119.941184554313537 -111.110968446549649 -10.999131135326451 34 39 35
-119.881407766519231 -110.528400679711140 -12.031454772674806 47 52 48
-119.877461455589895 -109.972846792584093 -12.039061269543083 57 62 58
-119.867391764712480 -109.415126154257962 -12.160478358768387 85 90 86
-119.882145163019786 -108.865606283565953 -11.826500212911242 56 62 58
-119.853648588930241 -108.302999977770583 -12.289359605294180 53 59 55
-119.849970596770149 -107.748047561243737 -12.296831548143984 59 65 61
-119.809260851292080 -107.186545967366058 -12.987240078342154 42 48 44
-119.793361363985881 -106.631606766001624 -13.222276376388663 44 50 46
-119.771353864963089 -106.077217069148077 -13.571087954898417 49 54 50
-119.780309227188908 -105.525852048049003 -13.350761447609216 54 59 53
-119.795498025327888 -104.973409237456607 -13.016605095253823 57 62 55
-119.816915433924862 -104.419070757715247 -12.568629625159559 59 64 58
-119.832211110004351 -103.863099263804983 -12.234458465273804 62 67 61
-119.884589171439146 -103.300622804537070 -11.217460868695269 61 66 62
-119.869135939226922 -102.745181115406950 -11.452288852193448 60 64 63
-119.859920999592347 -102.189473186981090 -11.573276313519926 59 65 63
-119.832272367169068 -101.639198517883869 -12.035603117784859 60 66 66
-119.891014937544327 -101.064479033047704 -10.904827900636946 67 73 71
-119.962121445556747 -100.479964921666010 -9.546520869273934 90 95 91
-120.033259370916142 -99.888913764523252 -8.188266097055759 77 79 76
-120.030493971080716 -99.323945598396634 -8.195404556007617 43 45 42
-119.996993522018769 -98.773926250326696 -8.771387106067010 40 42 39
-119.951253479270918 -98.233149854769067 -9.574847663279343 41 43 40
-119.911753520193784 -97.692643254857003 -10.264461323790272 43 45 42
-119.896958487441992 -97.140165912422404 -10.498943913413001 46 49 47
-119.857612827509215 -96.605088077737747 -11.188427876734522 52 56 57
-119.818346288835244 -96.073267660476105 -11.877840458483064 50 54 55
-119.803770098535537 -95.526205884516813 -12.112162609480578 49 53 54
-119.863085454512046 -94.921460077235039 -10.981422449685226 74 78 79
-119.897842693680545 -94.331930852505536 -10.305709716546261 86 90 91
-119.938804025935028 -93.733677804031316 -9.516259880320547 66 70 69
-119.930628633771619 -93.177306052555039 -9.636756858764187 59 63 62
-119.947114127732448 -92.597517780909186 -9.302261652140146 71 75 75
-119.982102961579713 -91.997302086300124 -8.626548126103501 77 81 82
-120.047879982186274 -91.361145009264220 -7.382181175156688 70 74 75
-120.113707735420604 -90.718975250460232 -6.137851845448580 38 43 44
-120.142721776852952 -90.113244155145338 -5.575912297334014 36 44 46
-120.098076457771811 -89.592940299415574 -6.378638408359677 48 56 58
-120.108798973885186 -89.007842884710854 -6.157813725181057 41 49 51
-120.101164703175186 -88.445307973445566 -6.278115273476033 43 51 53
-120.075180598966369 -87.907785996510682 -6.739514503281811 33 41 43
-120.018571439368998 -87.414602690226545 -7.769402679003122 18 27 28
-119.986608214994064 -86.891453715805454 -8.344373235786861 5 15 16
-119.967004617036821 -86.353033440245071 -8.691870414991001 9 19 20
-119.886088765653810 -85.908765130353146 -10.176318861797398 6 16 17
-119.829816108565055 -85.433438328603671 -11.205862249900548 5 15 16
-119.822732934177878 -84.884582281466109 -11.325759352183525 10 17 19
-119.821865060538300 -84.326162664942629 -11.331922633596690 18 22 24
-119.857898597458274 -83.705635242175049 -10.655918404012681 10 14 16
-119.832636849973412 -83.187974023775681 -11.116767624072963 13 17 19
-119.893370263484584 -82.519990086051806 -9.986000012258529 12 16 18
-120.015542472329514 -81.734883748522591 -7.718457041844658 22 26 27
-120.125514941881377 -80.961699164090376 -5.678345438138706 30 36 36
-120.161932617803458 -80.319150296457323 -5.002384115567480 31 35 36
-120.143211531094622 -79.781108328496643 -5.349455210305223 16 22 22
-120.124577740165762 -79.244652824350439 -5.696468212771947 5 14 14
-120.118303252161311 -78.684729903352945 -5.816092359153600 4 9 12
-120.105981839176792 -78.138098394949395 -6.049331403452129 5 9 11
-120.093750111019702 -77.592503216255636 -6.282516875374398 1 10 7
-120.075473304305703 -77.061287255071107 -6.629305164568564 1 10 5
-120.087966858545471 -76.463563201897955 -6.407763195153734 3 12 7
-120.155777684258481 -75.739675693343798 -5.163326332218872 4 13 8
-120.229823437511712 -74.995559485425957 -3.805256040564444 0 9 4
-120.267152937613915 -74.331445048643289 -3.129080489667786 3 9 5
-120.243217305656884 -73.811078293678207 -3.589323150052081 4 10 6
-120.231652853287699 -73.262862596828484 -3.822216373834408 5 11 7
-120.201775744002447 -72.761433063764017 -4.395965371189106 4 10 6
-120.202685848017140 -72.185021021167671 -4.401463279267034 3 9 5
-120.209837876037582 -71.592733004530857 -4.293279606751867 2 8 4
-120.247790252671095 -70.919450494856420 -3.616900445437608 1 8 1
-120.236740950112136 -70.373589938534124 -3.849522980671935 1 8 1
-120.238077759612068 -69.795499153270413 -3.854834034449965 3 10 3
-120.214961669102166 -69.284899652563368 -4.314584089760388 2 9 2
-120.222658669047860 -68.690564346151234 -4.206160778326336 2 9 2
-120.187474515303123 -68.217676798972690 -4.893013735480878 2 9 4
-120.170824337196663 -67.694837014874963 -5.238937630926273 1 10 3
-120.197292950237326 -67.047633721589705 -4.789501586117353 0 8 2
-120.254611730064596 -66.306843562263481 -3.771975839287023 2 10 4
-120.256754721360494 -65.727839309761933 -3.776910621234379 3 9 6
-120.271313821293845 -65.111117885059372 -3.554576051328439 3 9 4
-120.273704956972864 -64.531360280438889 -3.559399876485287 2 9 2
-120.325416778367966 -63.796655566321320 -2.655352723725713 3 10 3
-120.340372675086385 -63.175233564715967 -2.432876712997341 1 7 1
-120.324704386219892 -62.652115285922946 -2.778333742681809 2 9 2
-120.309160100394465 -62.130523392514199 -3.123715737884851 1 8 1
-120.312205404111879 -61.549105056555447 -3.128243706036386 3 10 3
-120.315386579472460 -60.967564529968065 -3.132707931429081 3 10 3
-120.318705680525696 -60.385898704823731 -3.137107463404163 3 10 3
-120.291367741240421 -59.910464719001702 -3.709374145307635 1 8 1
-120.307282715584932 -59.286816930612154 -3.486462226271868 1 8 1
-120.280208590478566 -58.814680152465129 -4.058568760561371 1 8 1
-120.308744726540837 -58.146296454275515 -3.608361640373602 2 9 2
-120.337444206664543 -57.475577139751920 -3.158100418618943 4 11 4
-120.384815869153513 -56.734588204117728 -2.367053154572773 3 10 3
-120.370663106488024 -56.218785152415663 -2.711709862410089 2 9 2
-120.350480911211406 -55.727668489383689 -3.169855805661967 2 9 2
-120.336614271672573 -55.215125393193325 -3.514342076816547 6 11 5
-120.347603112633095 -54.609104730789504 -3.404464243163915 5 10 4
-120.346399965244728 -54.050403576390110 -3.521649701320541 6 11 5
-120.345356928800229 -53.492084736055325 -3.638754627599695 8 13 7
-120.369214188449675 -52.835880961882317 -3.301519376693875 7 12 6
-120.393256742019261 -52.177852190047460 -2.964214267429497 4 10 4
-120.392728938229638 -51.618457284268224 -3.081083784654794 8 15 8
-120.429525940345627 -50.907082309636358 -2.516508340347713 5 12 7
-120.441747970987663 -50.295432159844772 -2.406098500120152 1 6 2
-120.509940918455044 -49.449563684503268 -1.273593327737387 3 9 7
-120.522566688389276 -48.833943050517547 -1.163031210204792 8 14 11
-120.541590407853349 -48.191076008703234 -0.938829911590119 10 17 10
-120.473912216456085 -47.921653841861890 -2.304286843128182 11 18 11
-120.424981208112442 -47.577504684373409 -3.328967734246334 4 11 4
-120.425897828190685 -47.019546445125833 -3.445131455714034 5 12 5
-120.464310177895726 -46.296346357025278 -2.879904956490634 9 16 9
-120.515400238102146 -45.514418097890584 -2.087500232744929 7 12 6
-120.523171323458627 -44.925428493863059 -2.089845338024702 9 11 6
-120.568520559534861 -44.165658664887978 -1.410817801932353 10 12 7
-120.614125995569680 -43.402331429533433 -0.731704318828974 8 10 5
-120.647519939938164 -42.693393180679998 -0.279590688161534 10 12 7
-120.600039497519461 -42.362284019007632 -1.303443406285595 10 12 7
-120.602661408178250 -41.799655114503878 -1.418839400088586 9 14 8
-120.661736744475974 -40.969053205042719 -0.512256685045941 6 11 5
-120.683589900356367 -40.314254550111386 -0.286824611836010 6 11 5
-120.693176590886750 -39.718793679276700 -0.288367749824033 7 12 6
-120.709259714695918 -39.092412430605734 -0.176262410461106 7 12 6
-120.706789575064619 -38.557935243733937 -0.404663528817451 5 10 6
-120.704541547368578 -38.024273691981008 -0.632949993843368 5 10 5
-120.683688984335873 -37.585834638227304 -1.201733286557101 5 10 4
-120.688160066618721 -37.022873003341104 -1.316248067954575 3 8 2
-120.686585051842897 -36.492181712422202 -1.544181991519451 5 10 3
-120.735578552245897 -35.703848447318677 -0.863705069661791 5 10 4
-120.753407912049397 -35.074765578057487 -0.750792146122677 4 10 6
-120.765207646841262 -34.477654856598129 -0.751293554062983 3 9 5
-120.745731371118040 -34.045903046039562 -1.319349600491819 4 10 6
-120.770666540514824 -33.382663829436495 -1.092529985521367 4 10 6
-120.814858387184984 -32.616865278382349 -0.524977082139088 4 10 6
-120.840409373442114 -31.949845154923924 -0.297901781267086 4 11 4
-120.815609234810779 -31.555383320973540 -0.978979785920842 3 10 3
-120.797358356770417 -31.129363328136037 -1.546390605819312 4 11 4
-120.874505694793740 -30.183541756785012 -0.410630551117009 5 12 5
-120.996536512258174 -28.986078082316254 1.520023522163967 4 11 4
-120.947424340129047 -28.733795476259360 0.385342706555065 3 10 3
-120.873020904577629 -28.629321352812045 -1.203351435501702 3 10 3
-120.900680271511092 -27.957329505776258 -0.975318668989388 3 10 3
-121.011605067443014 -26.813000693545291 0.728851495647433 3 10 3
-121.040041061163848 -26.134262916493185 0.957186358506249 4 11 4
-121.043253433584226 -25.601065454089174 0.731516907284146 4 11 4
-121.078767867492161 -24.883253466976797 1.073694746112722 4 11 3
-121.089023334105647 -24.312649693697466 0.961868529982269 4 11 4
-121.086765058112476 -23.817380809034749 0.623113472294875 6 13 6
-121.046249845554399 -23.550737768284350 -0.396743521571068 6 13 7
-120.973766717053763 -23.479604912961939 -1.984175796894959 6 12 8
-121.023783324780766 -22.685018235325973 -1.414132678437511 5 11 7
-121.106484669247379 -21.693362432270817 -0.276187400862398 5 11 7
-121.138047321763437 -21.007794243375962 -0.046427064013642 4 10 6
-121.085932128427729 -20.831659495056243 -1.292619571441719 3 9 5
-121.053415901270924 -20.542427889542779 -2.198023508634066 4 10 6
-121.098951044063838 -19.778616552806700 -1.740666406516311 6 12 8
-121.092976618800279 -19.333304646048866 -2.191543909927447 5 11 7
-121.100315907534878 -18.808805810794908 -2.415149519191630 6 12 8
-121.160115735094251 -17.959009280723297 -1.730135559726165 7 13 9
-121.233473391951392 -17.023182909944072 -0.817803359724138 7 13 9
-121.268184429404840 -16.330020220186473 -0.586615020325695 7 13 9
-121.270618317942109 -15.843046946783689 -0.923039971690997 5 11 7
-121.279954616815729 -15.315294092385891 -1.145723713403584 4 10 6
-121.315926250609976 -14.619420809983492 -0.913960210528359 5 11 7
-121.358938653110783 -13.879318577612173 -0.568424813918000 6 12 8
-121.435382388605717 -12.923192840973064 0.345174803955814 8 14 10
-121.459649223842860 -12.305951990614723 0.350430404605618 9 15 11
-121.530629557646236 -11.384902021412641 1.150918517411469 8 14 10
-121.549244868879228 -10.807866001893226 1.043025411949998 5 11 7
-121.535122128810556 -10.450088753956438 0.367433051042127 5 11 7
-121.534607408014736 -10.006710469119962 -0.080812644724119 4 10 6
-121.621018522019426 -8.986993023357462 0.947759636376190 5 11 7
-121.514672890283066 -9.258890044375635 -1.317494675106957 5 11 7
-121.635540045239296 -8.010487382195210 0.279501710667319 4 10 6
-121.763950277816079 -6.707894482630733 1.990407756504027 4 10 6
-121.759053610418221 -6.308044429441287 1.429654925538017 4 10 5
-121.801588441232312 -5.588978189457647 1.664319502607185 4 11 4
-121.912056462835423 -4.406014493736158 3.035296804945119 4 11 4
-121.969368375522620 -3.587091960669474 3.497720586183590 4 11 3
-121.885254851182935 -3.747222044337505 1.574528220202097 6 13 6
-121.909657583993550 -3.163351893026952 1.469333450234046 5 12 5
-121.954951775856401 -2.437110922798284 1.705244243067938 11 18 11
-121.953188390298095 -2.042345121321093 1.146042698150978 11 16 10
-121.924530671966707 -1.841358378449360 0.132534122135951 79 84 77
-121.971391404199167 -1.114130113307311 0.369184179790551 65 68 59
-121.688845609784806 -1.593298980921860 -6.523444414052165 65 67 53
-121.620886684074549 -1.355936463912875 -8.775576721206022 75 77 63
-121.470251379309659 -1.745390436930378 -12.391115606736975 78 80 66
-121.555771261104098 -0.782240744472129 -11.584105177610127 82 84 70
-121.313150398563494 -1.252677533683268 -17.903429279962893 91 93 80
-120.224947673689044 -170.015877119656750 -14.691397412237166 30 23 17
-120.063880158481012 -168.747759904237569 -17.220400395215592 28 21 14
-120.038779319273289 -168.160540345556910 -17.349311981485812 51 44 36
-119.898187178353552 -167.006489247286737 -19.534768820981299 57 50 42
-119.778020059729187 -163.169517983297453 -19.631752231381881 40 36 29
-119.857290280556612 -163.062310371061102 -17.932049897455727 30 27 21
-119.489017817576936 -160.436930717769258 -24.010775433846845 20 15 12
-119.651337577781788 -160.698863159712374 -20.826377236968625 19 14 11
-119.803822885866836 -156.488733268022997 -15.586398178957154 203 190 181
-119.903104856985280 -156.393012839144234 -13.544427394175926 217 203 189
-119.921054678001383 -155.960515988731231 -12.985997744075348 217 201 182
-119.951629022352236 -155.575241892207032 -12.199324707915281 223 201 179
-119.876221273383649 -154.768010746318623 -13.352297601453216 232 203 181
-119.888407639250346 -154.307133761099948 -12.907776184445623 230 199 173
-119.875820495252938 -153.748036083716698 -12.919552904248746 218 187 157
-119.875861964910271 -153.236697375223230 -12.703078761666859 206 178 149
-119.857414593540270 -152.653941148151006 -12.828761408415318 190 166 141
-119.851578506410405 -152.118384322502607 -12.726207243020383 181 162 142
-119.802480344090739 -151.421792480910227 -13.422019314865736 123 114 95
-119.778418533192223 -150.819398119582132 -13.661448920341627 45 43 29
-119.735973419722214 -150.151074604357689 -14.242928331417545 43 44 38
-119.730874280323874 -149.618442300358879 -14.139991509183375 41 42 37
-119.707385753691710 -149.019871821313700 -14.379107496290032 53 55 52
-119.665554486809015 -148.357833413521263 -14.960228549494445 76 78 73
-119.623937486537230 -147.698705231919547 -15.541217141866468 98 103 97
-119.594861785929908 -147.084539121583191 -15.894025432439577 55 60 54
-119.565972429465447 -146.472174945447478 -16.246726028399479 46 53 46
-119.555731383443529 -145.923045975405159 -16.257277770060341 44 49 43
-119.502590739413876 -145.232630746134390 -17.065819057246273 46 50 45
-119.511117298270264 -144.745503166073121 -16.734177574848019 48 50 47
-119.482919026149787 -144.138933212203142 -17.086487915586048 49 51 48
-119.503974821410594 -143.689198158709928 -16.526749819537230 50 52 49
-119.482210255155593 -143.103101680831912 -16.764912668748281 50 52 49
-119.509609826395447 -142.668897776693967 -16.091120977172721 50 52 49
-119.475878709749963 -142.045939536426374 -16.557105789551684 50 52 49
-119.448435630677764 -141.443582493909844 -16.909011482911041 53 55 52
-119.421152131605197 -140.842989809976530 -17.260822672316380 56 58 55
-119.394025608693525 -140.244157990699620 -17.612540639399867 55 57 54
-119.379260264938665 -139.682010497323660 -17.736249680709307 56 58 55
-119.370728741385591 -139.137711579003280 -17.745933874532057 58 60 57
-119.350131663314500 -138.559689338714719 -17.983455089214061 58 60 57
-119.354036315931438 -138.049436510461220 -17.765121635635438 57 59 56
-119.303265565266017 -137.390874787764346 -18.572201289814217 57 59 56
-119.295247860191026 -136.848908755138098 -18.581615661073897 56 58 55
-119.263032348192880 -136.243754338159420 -19.046692149687601 54 56 53
-119.285634505255416 -135.780814761122940 -18.486350200247557 51 53 50
-119.277956870977306 -135.238860372944231 -18.495601762941504 48 50 47
-119.282524358131340 -134.726998470524592 -18.276967774601047 49 51 48
-119.275060051557560 -134.184675322643244 -18.286121077881347 50 52 49
-119.261644339750532 -133.627983195350225 -18.409128305069430 49 51 48
-119.230174957609918 -133.029377093679216 -18.873780442617743 50 56 50
-119.223047996973506 -132.488669819997426 -18.882755727753050 49 56 49
-119.191829446080249 -131.893501770122953 -19.347252478898156 47 54 47
-119.203056476595833 -131.394127188899546 -19.014445164649914 47 54 47
-119.172070657319864 -130.801568002755999 -19.478803723442098 45 52 45
-119.183478682032671 -130.300974232646666 -19.145922371913912 45 51 44
-119.231173237231332 -129.874067208262829 -18.129769864367546 48 48 46
-119.290967291671194 -129.466853305138159 -16.885908516826731 51 53 50
-119.266386666398887 -128.885749365165083 -17.236226053238767 52 54 51
-119.241919049459426 -128.306347963215018 -17.586472001772592 54 56 53
-119.235628817791579 -127.762998965536696 -17.595074191229600 47 52 48
-119.265543019870677 -127.286777822913493 -16.920512013423405 50 55 51
-119.211287877567912 -126.654672185609982 -17.839845147761139 46 51 47
-119.217298083522465 -126.133310672309250 -17.620618751958744 47 52 48
-119.187324211736126 -125.548757377904991 -18.084410789875051 44 49 45
-119.265584288426425 -125.147999070755461 -16.499072255132063 64 69 65
-119.295815641955855 -124.661145356889094 -15.824467799556231 77 82 78
-119.344100262793972 -124.199693511276635 -14.808388593829278 75 77 74
-119.356427222293618 -123.677771793382263 -14.475287166329707 70 72 69
-119.380811121103719 -123.172253746059809 -13.914531119329183 67 69 66
-119.393263426396572 -122.646609394796229 -13.581408045767176 48 50 47
-119.381819492250330 -122.085572028428913 -13.703516709009648 41 43 40
-119.388423091143082 -121.549657351153868 -13.484156239087298 42 44 41
-119.419034504127083 -121.044316077005661 -12.809560266116478 48 50 47
-119.449692778230727 -120.535744755835850 -12.134975123443354 50 52 49
-119.480397654279358 -120.023942280277438 -11.460400946454740 62 64 61
-119.535058076037473 -119.537258852893345 -10.330672415847999 71 73 70
-119.541946260981717 -118.990639477789315 -10.111285989766401 80 82 79
-119.513065465671247 -118.403708453162238 -10.574579578815047 81 83 80
-119.490248211733331 -117.825261542954593 -10.924026174282915 84 86 83
-119.491389197086775 -117.272473700368934 -10.818311568840812 76 78 75
-119.546286248780930 -116.770701868531091 -9.688625147810598 50 52 49
-119.517726556737557 -116.187168273572482 -10.151730150706612 51 53 50
-119.477334674840861 -115.595481289757558 -10.842297329439475 48 50 47
-119.425122772022078 -114.997273811346972 -11.760304054233245 44 46 43
-119.420666881247683 -114.440537943356290 -11.768166499075534 39 44 40
-119.398416985921955 -113.870736166396981 -12.117252683428603 33 38 34
-119.388152311887666 -113.310774526578584 -12.238786119681919 27 32 28
-119.389859496341458 -112.759017683446331 -12.132790033935720 23 29 25
-119.397577563526568 -112.210283897122508 -11.913028359731527 24 29 25
-119.399407991752341 -111.657206620289827 -11.806986906474634 29 34 30
-119.389412378305181 -111.097599779367997 -11.928387972942090 37 42 38
-119.337891590418380 -110.519448025328245 -12.845857627075276 46 51 47
-119.351808476871597 -109.972700088088899 -12.512251132718291 46 51 47
-119.318272164797264 -109.406853644240442 -13.088413755767590 74 79 75
-119.350119258580193 -108.864784608481045 -12.413604694638849 71 76 72
-119.322661988925447 -108.303056784313256 -12.875957844689935 54 59 55
-119.319013764233958 -107.748992135124837 -12.883406408649563 55 60 56
-119.285773289671013 -107.189458867636233 -13.459362519351629 40 45 41
-119.270400822177749 -106.635129281519454 -13.694140417850150 41 46 42
-119.243242238945243 -106.080794801937216 -14.156274573930716 43 48 44
-119.239862859835057 -105.529762968997630 -14.163563304784560 48 53 47
-119.254318138952044 -104.978758813129375 -13.829743056619179 51 56 49
-119.286593427772516 -104.425331115379933 -13.154846068866220 52 57 50
-119.277463396818817 -103.872404125046288 -13.275764284577974 55 60 54
-119.268398027591303 -103.320025389041078 -13.396645922884346 54 59 55
-119.294905497548157 -102.761701766863396 -12.835417521035424 54 58 57
-119.309626302958961 -102.203366007180179 -12.501545713882365 52 58 56
-119.300739379522824 -101.649903483573866 -12.622353140304028 53 59 59
-119.309657929008281 -101.091288916718611 -12.402118867320013 34 40 38
-119.389579917044003 -100.505532482479694 -10.817889558543129 39 44 40
-119.451792521197078 -99.919480585446848 -9.574712054421383 75 80 76
-119.472670772426284 -99.346444036691850 -9.127186983981233 50 55 51
-119.440426647288604 -98.798114160119795 -9.702551122402724 39 44 40
-119.408258130373881 -98.252501131385003 -10.277851124229841 40 45 41
-119.382070684279469 -97.706071763041322 -10.739439320351153 41 46 42
-119.350051306528542 -97.165617143908889 -11.314614876412179 46 50 48
-119.318106756965975 -96.627876343038452 -11.889726700229687 55 56 58
-119.280334610566854 -96.097197301501765 -12.578412621082549 53 54 56
-119.272144541730782 -95.546668572649466 -12.698856475628929 51 52 54
-119.317119882138272 -94.952631186907240 -11.796584072806979 56 57 59
-119.332647190273349 -94.380053170874262 -11.462473040214434 82 83 85
-119.360028321752694 -93.794951238762778 -10.901102324284238 64 68 67
-119.357979619348043 -93.235662797836255 -10.907839453377107 51 55 54
-119.367788027731720 -92.664392663152739 -10.687309745063544 60 64 63
-119.359973351767849 -92.110780558762258 -10.807605751680001 69 73 74
-119.411167717010656 -91.492421736024298 -9.791749656542407 66 70 71
-119.438840153060170 -90.896339475735743 -9.230352607538293 25 30 30
-119.490141288640061 -90.269224954985475 -8.214535560635568 21 27 27
-119.470796999477557 -89.725317039218510 -8.561965174438512 17 23 23
-119.492762167190023 -89.129703075845512 -8.114152527549010 15 21 21
-119.514791009004242 -88.531885170784307 -7.666332105466466 14 20 20
-119.530995181051523 -87.940023304920302 -7.332095761852116 14 20 20
-119.494268027727585 -87.422403563557523 -8.020147335662642 15 24 23
-119.422291925621366 -86.960261031807718 -9.389644140482289 5 14 13
-119.373952595112996 -86.468712022539933 -10.304700350753365 1 9 8
-119.313921232734870 -85.999992868588265 -11.446832759665455 1 10 9
-119.301064837536572 -85.460502045898409 -11.680254234956067 2 11 10
-119.300055916832719 -84.902475318564782 -11.686480948595516 10 18 17
-119.281465127457125 -84.374618924190059 -12.033384864309937 15 19 21
-119.262952160969220 -83.848361021306303 -12.380235095745633 12 17 19
-119.262171479345824 -83.291859747226340 -12.386336918334649 14 18 20
-119.332079203178424 -82.604686194306680 -11.029660106417680 19 23 25
-119.413825337206120 -81.888612918415078 -9.445899549167507 22 26 28
-119.454457131797767 -81.244883225917860 -8.657075476572601 25 31 29
-119.501049960413596 -80.585588727787510 -7.754700997176201 20 26 25
-119.524188598810511 -79.969791838449353 -7.306534718929584 30 36 36
-119.570942082153906 -79.302769221321483 -6.404162932273323 13 22 21
-119.594246327812328 -78.681421233775282 -5.955974568322944 6 11 14
-119.605870208137347 -78.083429009840700 -5.734851408344298 5 10 12
-119.599932582007199 -77.523494118120738 -5.854314524380584 3 10 8
-119.576434741180535 -77.004069424149804 -6.314338049881712 4 11 7
-119.576558420362474 -76.432318834755947 -6.320164198224489 4 12 7
-119.612071826277926 -75.777195966632533 -5.644764905828509 5 13 7
-119.671212313995028 -75.062104694546065 -4.515244243711123 1 9 3
-119.695149621162230 -74.428081047964085 -4.066883502231036 1 7 3
-119.701533288273325 -73.835921776758255 -3.959066085699817 1 7 3
-119.690362692450407 -73.288080883838205 -4.191767031815260 2 8 4
-119.673405038032669 -72.756512738164858 -4.537927868284527 1 7 3
-119.656545030255387 -72.226511372437457 -4.884025863282602 1 7 3
-119.663324144198072 -71.634890525763709 -4.776013724068434 1 7 3
-119.705520266079844 -70.946233185340276 -3.986903745509750 2 9 2
-119.700738949974209 -70.384413162663236 -4.105833091393748 2 9 2
-119.719609209165668 -69.756597701301601 -3.770691389248157 1 8 1
-119.703266922920577 -69.228392543054682 -4.116523218773864 1 8 1
-119.710581782585578 -68.633094667162595 -4.008292630151459 0 7 0
-119.676787944241070 -68.159208929991294 -4.694490740055187 1 7 3
-119.684323611187281 -67.564554607182686 -4.586147893571081 0 9 1
-119.697865119059401 -66.951280165588201 -4.364264654690487 0 10 2
-119.746873042151748 -66.227287083031314 -3.461400777406084 1 11 4
-119.742984226248566 -65.665579267232403 -3.579901999250694 3 9 5
-119.727426841097696 -65.141922639957357 -3.925311514469087 3 9 5
-119.711984603364058 -64.619804672475041 -4.270650105359522 2 9 2
-119.749716748019210 -63.925080461061334 -3.594597012476186 2 9 2
-119.769898370299913 -63.285833313618255 -3.258945630811326 0 7 0
-119.766623608846047 -62.724419134587997 -3.377150068561377 1 8 1
-119.775273577871047 -62.123097981403198 -3.268342768816495 3 10 3
-119.789957828366482 -61.500668323948638 -3.046007085017976 2 9 2
-119.816584623712771 -60.835587534134959 -2.596679388388878 3 10 3
-119.784325802616166 -60.378110310725752 -3.281974250227705 1 8 1
-119.769900665434946 -59.859996905374466 -3.626785042730518 2 9 2
-119.761511761349837 -59.321858536790828 -3.858055364096316 3 10 3
-119.770981937960670 -58.719242455394848 -3.748869009200433 5 11 5
-119.768779275082565 -58.160118560002431 -3.866536983626673 4 10 6
-119.784453772593864 -57.534317272174356 -3.643762274935199 2 9 3
-119.806197257923145 -56.884639871257015 -3.307471067180217 2 9 2
-119.810356105818940 -56.301903038125751 -3.311479891567501 4 11 4
-119.796914988370347 -55.788572430078524 -3.655770700667830 2 9 1
-119.795455703779169 -55.229815686190015 -3.773079266194827 4 10 6
-119.817836723199491 -54.576513473934035 -3.436520376320033 3 9 5
-119.828542593103620 -53.969420874312561 -3.326788949039127 3 9 5
-119.851268203247670 -53.313046520344599 -2.990096831241203 5 11 7
-119.891959531393653 -52.581178805614478 -2.313010411858045 7 13 9
-119.932848165342918 -51.845839501026184 -1.635865336873195 7 14 8
-119.962070293809916 -51.157239981382247 -1.185538131876172 7 14 7
-119.955867920660538 -50.618559013350655 -1.415768009585861 8 15 8
-119.949831151221389 -50.080791885706418 -1.645909256430059 5 12 5
-119.967730466674979 -49.440199188905517 -1.422222457864137 6 13 6
-119.967987975449489 -48.876937782319672 -1.538756084085776 6 13 7
-119.992215797649180 -48.208088859530108 -1.201473720193150 4 9 5
-119.939285757209049 -47.885264735390031 -2.338707110198158 4 9 5
-119.916253668315548 -47.432564817856957 -2.908679874847849 4 9 5
-119.905296093867349 -46.927786160634710 -3.251694535963708 5 10 6
-119.966042381136347 -46.093397655499011 -2.233492536114966 5 10 6
-119.985298132380052 -45.448863429389561 -2.009197395457733 6 11 7
-120.010736674376659 -44.774858257667624 -1.671388903224795 6 10 9
-120.024458336589305 -44.155794152701702 -1.560337959959242 6 11 7
-120.080220464283940 -43.335097888447827 -0.655238308773278 5 10 6
-120.118317568936590 -42.596640103409328 -0.090319676841773 5 10 4
-120.120771419100606 -42.030634291784324 -0.205830830410832 5 10 4
-120.117448550047740 -41.494446692076181 -0.434657497738158 5 10 6
-120.138294320103384 -40.839913465903230 -0.209704622262166 5 10 5
-120.159381304339192 -40.184006027879583 0.015349503797864 5 10 4
-120.162714846626841 -39.617772567237601 -0.099743151380267 3 8 3
-120.184282753357735 -38.959928363353740 0.125521110249025 3 8 3
-120.200094956456667 -38.331596359268531 0.237476761967372 4 9 5
-120.186088857092898 -37.858334783180588 -0.217530766790134 3 8 4
-120.136178728334727 -37.575760324764396 -1.352905131368885 2 7 1
-120.140621259467736 -37.012790058468056 -1.467433660386007 4 9 3
-120.169412397874879 -36.322002616626570 -1.128194045859061 5 10 3
-120.252781548657765 -35.338586251987557 0.231873290488437 5 10 5
-120.270111014872228 -34.706468712401453 0.344515829261923 4 10 6
-120.221232002106760 -34.434819582976090 -0.790252793060546 4 10 6
-120.208801235400685 -33.969628549570004 -1.244423613924283 5 11 7
-120.238974281929259 -33.272472168869442 -0.904588457976018 5 11 7
-120.311873772007004 -32.337492386924119 0.229251040814347 5 11 7
-120.348766882958387 -31.600368639827089 0.682748533288333 5 12 5
-120.325264831576078 -31.203087513139618 0.002262508728563 4 11 4
-120.314129504104201 -30.739737357647108 -0.451269629364816 4 11 4
-120.339738342618247 -30.069426879447370 -0.224200521445624 3 10 3
-120.444845470023182 -28.941542716130531 1.477355763541567 3 10 3
-120.440688274423380 -28.441386386923767 1.137641960301352 3 10 3
-120.412375464523166 -28.085071905705899 0.344417290697749 3 10 3
-120.378161244484161 -27.768188387658505 -0.562083595496063 3 10 3
-120.429794475349155 -26.948536831299741 0.119333789461564 4 11 4
-120.457324140777601 -26.271023935022143 0.347247676285008 4 11 4
-120.472934871252633 -25.665479114324274 0.348482619196119 4 11 4
-120.488866918382740 -25.059488973626390 0.349866694991164 4 11 3
-120.517419093938329 -24.378393254133318 0.578232867355410 4 11 4
-120.558642124597299 -23.620494855415252 1.033587934650370 5 12 5
-120.563287223865260 -23.087203523652185 0.808602928796745 5 12 5
-120.562070346147635 -22.592727366676968 0.470354232419027 5 11 7
-120.530255439676992 -22.291714662538588 -0.434835464127417 5 11 7
-120.597651601506442 -21.374960886807852 0.474841100889705 5 11 7
-120.591188781804732 -20.921386757614808 0.023644904047359 5 11 7
-120.585016104139683 -20.469554755178262 -0.427394557253336 5 11 7
-120.492152598370680 -20.573620572805915 -2.466208866933272 5 11 7
-120.579775342681074 -19.531222544258828 -1.215572638839205 5 11 7
-120.624350830837628 -18.763092445388626 -0.758719087398305 5 11 7
-120.675618998415288 -17.951701829498948 -0.188250198376352 5 11 7
-120.739866001480038 -17.055467288138928 0.609272149749046 5 11 7
-120.767079086304662 -16.400683070813354 0.726409658286684 6 12 8
-120.763359315195146 -15.951168147181079 0.276567509930459 5 11 7
-120.734841496418042 -15.669611862894994 -0.626844596461297 5 11 7
-120.782047528054122 -14.889725454626893 -0.168853615635044 7 13 9
-120.804545864930901 -14.275498218579155 -0.164413037892928 6 12 8
-120.877951307010207 -13.321213047079848 0.747752016686860 6 12 8
-120.895055011175970 -12.746123947312435 0.639155804208855 7 13 9
-120.925233563558180 -12.084943507393580 0.757646142728930 4 10 6
-120.987592887201387 -11.206080845144491 1.443585364047550 3 9 5
-121.088667263153312 -10.061644513866323 2.810465360021396 2 8 4
-121.050387634602600 -9.874546194379214 1.681637770737012 3 9 5
-121.025088326433945 -9.604182329114174 0.779880597979769 3 9 5
-121.083147393303179 -8.760022242441231 1.353260917320824 3 9 5
-121.103375262706521 -8.180585092735470 1.246114538121418 4 10 6
-121.066307692603971 -8.006087381552796 0.117996497835264 4 10 6
-121.305913497380772 -5.888600633662600 3.869169941086113 3 9 5
-121.282742036276375 -5.620491705046121 2.968453934266478 5 11 7
-121.292136142215156 -5.126803461958112 2.635289606492137 5 12 4
-121.301955833183300 -4.634035870781663 2.302338353869629 4 11 3
-121.370546283155619 -3.724019434999422 2.990937843224316 3 10 2
-121.329388095919995 -3.604463156517357 1.750569520569712 1 8 0
-121.347039117425965 -3.067051724506838 1.531764093072553 7 14 6
-121.423887275669927 -2.103907100502834 2.334626051549179 12 19 12
-121.442625935752474 -1.564431966814973 2.116319703900899 15 20 14
-121.488070792363231 -0.833533249148191 2.352254629699530 85 90 83
-121.129062566555234 -1.222785444186306 -7.238492124803059 71 73 59
-120.878886472282687 -2.400302267900341 -12.667281214753785 78 80 66
-121.017385844016175 -0.680215475718132 -11.510140458297201 84 86 72
-119.435789364232804 -167.703896678152205 -19.194505160653932 37 32 28
-119.356124971417728 -166.837973606128742 -20.350118563497460 41 36 33
-119.283066412106336 -166.009227739175657 -21.391330189667229 44 37 34
-119.334598171075697 -155.678434310440821 -14.488907869329466 212 205 191
-119.417590859694187 -155.520305281515959 -12.677089994373858 228 216 199
-119.434750131454692 -155.082917317530672 -12.119088887016488 239 215 195
-119.404214639272212 -154.448353211170939 -12.472805503695469 231 204 180
