ply
format ascii 1.0
element vertex 691
property double x
property double y
property double z
property uchar red
property uchar green
property uchar blue
end_header
-112.046335242566258 -70.296082590139605 -17.524164691875882 12 21 23
-112.065118403314941 -69.604405499029056 -16.635427592560745 15 22 25
-112.069775777759887 -69.014146441522186 -16.417557583749073 18 24 28
-112.076879089614337 -68.404820708328444 -16.087854824815366 17 25 28
-112.086430214187587 -67.775608165502376 -15.646326860668665 20 28 31
-112.100798468218372 -67.107230376111019 -14.981179776018081 23 31 34
-112.115252066818172 -66.435510073118664 -14.316026268989930 26 36 41
-112.127425909737255 -65.779447980741381 -13.762661096357647 30 41 47
-112.153895395750439 -65.004925510878351 -12.538522999722488 29 40 46
-112.166252418050263 -64.341618468275541 -11.985144770614596 29 38 47
-112.190545076427838 -63.576392967305225 -10.872811247408038 33 42 51
-112.217306689994700 -62.785532040253692 -9.648701577900113 36 45 54
-112.272599747464795 -61.744167124637578 -7.083214507777512 31 40 46
-112.301947874836216 -60.917205482718117 -5.747380176804455 24 33 38
-112.347997457698412 -59.937202409880975 -3.629119064658909 22 32 34
-112.353874429333388 -59.306904899382985 -3.411077740642156 10 19 20
-112.388311429114808 -58.417895881094687 -1.851729825525268 0 7 6
-112.380186202379804 -57.912334007055442 -2.304256448168218 1 10 9
-112.391144716405307 -57.232801396310109 -1.862573163469449 4 8 7
-112.387984201081579 -56.684652693522430 -2.091445282971961 1 5 4
-112.401552172042713 -55.979615170342470 -1.537917292975436 3 7 6
-112.412871179170068 -55.294556125153115 -1.096118435978354 4 9 5
-112.417190495165656 -54.676491396133088 -0.989555255835825 5 10 6
-112.424010179991910 -54.034385396694205 -0.771184491768537 3 9 5
-112.430958157328647 -53.391060835492063 -0.552764896272322 4 10 6
-112.433279958559751 -52.794354740587238 -0.557796350116064 4 10 6
-112.430971442689554 -52.245905230504242 -0.786263972361127 1 7 3
-112.428789431767356 -51.698415600133686 -1.014661194548466 1 7 3
-112.448174484311778 -50.929208963643141 -0.237293087739914 1 7 3
-112.465330101345529 -50.181041922828250 0.428366150969367 1 7 3
-112.470716877966339 -49.555888185430412 0.535367029891603 2 8 4
-112.457158301067196 -49.134542164432155 -0.251468667525558 2 8 4
-112.446110132379786 -48.691041215388978 -0.926472561142759 6 12 9
-112.444745896205845 -48.146226242329462 -1.154451031102326 13 19 16
-112.443522946165814 -47.602346682679176 -1.382352281579642 15 21 20
-112.459191520790228 -46.872779631748678 -0.828071864742583 12 18 17
-112.475030457615119 -46.140299744970520 -0.273739930495367 5 11 10
-112.503024461041448 -45.268858203283877 0.839270968429844 1 6 5
-112.480854630268794 -44.968894602022580 -0.393870412781752 0 5 4
-112.473203615905788 -44.508241408658385 -0.956566791161492 0 4 2
-112.463293522971981 -44.078179897966464 -1.630887894348803 3 9 5
-112.487184500929899 -43.254922611256667 -0.741061653842422 1 7 3
-112.496840086818011 -42.598564238790900 -0.521480911263097 1 7 3
-112.513903235978518 -41.854333554861078 0.033315725110953 6 12 8
-112.528753719926357 -41.136278084991062 0.476464379738843 6 13 6
-112.534147130799397 -40.533438566132858 0.472839239005282 4 11 4
-112.539721783702078 -39.930381764394625 0.469298567235569 4 11 4
-112.550318346615896 -39.267186888535718 0.689259098434832 3 10 3
-112.570799232806337 -38.481729468918068 1.356125285908519 0 5 0
-112.567260186936835 -37.997820418630397 0.906015559863846 1 8 0
-112.563891900841639 -37.515877365795646 0.456007761709287 1 7 2
-112.575277888905759 -36.849534524077328 0.676313547600529 2 8 4
-112.572275569319316 -36.369855439991888 0.226504130736998 3 9 5
-112.574323587501851 -35.828904531652626 0.000197846324596 6 12 8
-112.574124318695567 -35.320685491613546 -0.337705491837141 10 16 14
-112.593658152223114 -34.556541125791810 0.218068129937848 12 18 16
-112.593865624547192 -34.048887991384611 -0.119634799510379 13 19 19
-112.626118124356239 -33.117288704897945 0.994794115599603 10 16 16
-112.661115528503871 -32.146877974628161 2.220995562768792 11 17 17
-112.689045579997398 -31.269898323317786 3.112201090923179 8 14 14
-112.690189833500057 -30.757212333702199 2.774894508672872 8 14 14
-112.684146013835800 -30.347354496262891 2.102630983923433 4 12 7
-112.690634881581801 -29.769998736341652 1.988933338215162 2 11 6
-112.727035164332037 -28.780326352083382 3.215607647818501 2 11 7
-112.746426163278514 -28.026819059685447 3.660563545839409 2 11 8
-112.746240837288326 -27.550229214461357 3.212133568143969 6 15 12
-112.746269630957599 -27.075517606100441 2.763825358195277 3 11 11
-112.761462691629731 -26.389738509755436 2.985752367439773 9 15 15
-112.781923486509726 -25.630953145940506 3.431165722327734 9 15 15
-112.770172503596072 -25.338179421138715 2.424800461070305 12 18 18
-112.786161548450295 -24.650470338016913 2.647088400095669 8 14 14
-112.807460841329430 -23.888059683305990 3.092865572611942 9 15 15
-112.829074065682491 -23.123030186108391 3.538765971807948 9 15 13
-112.805619931138892 -23.024272933801395 1.974504647340325 9 15 13
-112.832833165102215 -22.184118659338150 2.644028544707709 4 10 8
-112.845201873246324 -21.566518137567343 2.643588419861032 7 13 11
-112.890856706804939 -20.454506329280420 4.095148543540546 11 17 15
-112.911515302187226 -19.717580307186598 4.430022649775822 8 14 12
-112.912107663543480 -19.287003322243773 3.871579463606508 10 16 14
-112.910386041883712 -18.897614827736881 3.201594364796932 9 15 13
-112.931959124665383 -18.159057140168862 3.536889163117081 10 16 14
-112.948743659914740 -17.497148000595750 3.648964348880099 8 14 12
-112.952979713641710 -17.032602167353939 3.202773519151833 10 16 14
-112.965229185682148 -16.449931802834264 3.091777020897354 11 17 17
-112.993323493710520 -15.625870926076614 3.651029193584208 11 17 17
-112.995856778176048 -15.203730830517010 3.093601383518120 10 16 16
-113.001256284824791 -14.743083931219957 2.648007279365459 11 17 17
-112.999104699270376 -14.407428582546828 1.867510704645298 12 18 18
-113.028605995638671 -13.578749151061350 2.427388434627176 14 20 20
-113.019147772435531 -13.371484036012308 1.312141319911859 13 19 19
-113.004620067061040 -13.253184402621581 -0.026333021143301 11 17 16
-113.021951722227527 -12.634496069214084 -0.024410086537699 10 16 14
-113.039642112547853 -12.015234545007825 -0.022321434405001 6 12 10
-113.065668843496567 -11.267035707838934 0.315004732736355 1 7 3
-113.092115111394008 -10.516538980062428 0.652507951573540 3 9 5
-113.110964120020441 -9.893786272893655 0.655114946232430 6 12 8
-113.114093948502216 -9.532230313236774 -0.012262741195769 8 14 10
-113.104041215791597 -9.393060150988381 -1.237952216584944 6 12 8
-113.169816159006061 -8.021755892712905 0.663999810824748 7 13 8
-113.190220040383963 -7.396447794607131 0.667324347355645 4 11 3
-113.181104818313642 -7.263008192950799 -0.557857638617804 0 7 0
-113.232241142716973 -6.143809503896794 0.674533063477725 2 9 1
-113.231952316391570 -5.879237794022314 -0.215199558929243 5 12 5
-113.270418840098870 -4.979657646609288 0.459096173315345 3 12 4
-113.295632609409481 -4.305522999745390 0.575078032472135 2 14 2
-113.368396028948041 -2.844539419614856 2.590309093610358 5 17 5
-113.391920903546449 -2.209381019061061 2.595025308488630 6 14 3
-113.424269040979112 -1.433102717128707 2.935086578787178 3 9 1
-113.417895590861136 -1.313312087023125 1.711356742838547 66 69 60
-113.417363710437002 -1.104347763172735 0.711221354022456 54 56 43
-113.434044614428828 -0.613878810187413 0.381576143229864 30 34 20
-113.355374573583745 -1.199019906135716 -6.745004818312225 54 56 42
-113.347469646284623 -1.170001272593449 -8.079391830854775 60 62 48
-113.299157798335457 -1.838555300798220 -10.977953298781784 63 65 54
-113.355499262187081 -0.732852401135919 -9.853792441796486 65 67 56
-113.339463158882907 -0.869756565995050 -11.522938109113483 69 71 60
-113.335280374839314 -0.813458749292053 -12.744966374496670 66 71 60
-113.323950439904550 -0.677688303137682 -16.410127332316847 70 76 64
-113.251680576424974 -1.826595861075094 -20.202076791925805 56 62 52
-113.251177252068629 -1.752931484871974 -21.311664694207423 32 38 32
-113.299300898306868 -0.851712126347902 -20.632765900869316 30 37 30
-113.278203151779138 -1.149461459055324 -22.524395150681215 27 33 27
-112.531507301712423 -175.021351391545778 -23.198179990570196 38 31 13
-112.656228551534582 -176.346433188853496 -17.249353138775149 30 20 5
-112.598568197885243 -175.255944383500093 -18.951045877213033 25 18 1
-112.533442039327824 -174.069780108845237 -20.989871721558444 35 29 10
-112.521990173858768 -173.584729886804894 -20.778625350507951 47 36 20
-112.531938014061268 -173.372971708837952 -19.667457221952645 36 23 7
-112.568363826294359 -173.495761718149566 -17.431589600577865 40 22 8
-112.573147736131276 -173.203380816850625 -16.545439538642597 46 25 12
-112.557070815250555 -172.639534744654327 -16.558934633357921 67 38 27
-112.536010315455627 -172.009747357960578 -16.797210392060634 84 51 42
-112.523045610570989 -171.479996690509466 -16.698006767261660 105 69 61
-112.505105244760841 -170.884846544395572 -16.823574441122958 109 75 66
-112.500377059721785 -170.452110186913103 -16.386855221672533 86 52 44
-112.495822097593020 -170.017466289200513 -15.950072768245462 69 36 29
-112.488860504898980 -169.549157609823254 -15.625647052061396 63 34 26
-112.479511554380608 -169.048011410089316 -15.413560337691024 83 62 53
-112.465230272823945 -168.483656217948095 -15.426201645336022 77 65 56
-112.456282163288066 -167.981432336323479 -15.213934263134632 66 53 44
-112.432223931773251 -167.294520357927269 -15.675949908377106 61 46 33
-112.405889434148349 -166.579732839234396 -16.250200333384498 47 16 9
-112.387440386255847 -165.958254313024185 -16.487141255173441 99 58 54
-112.381873871456179 -165.487216459968295 -16.162076231262347 105 57 55
-112.381519084038388 -165.073854011313301 -15.612206483084009 119 78 74
-112.373748862076695 -164.570197784899875 -15.399390347349112 45 9 7
-112.361128564047121 -164.007714497211481 -15.411217777715194 87 52 46
-112.353712850871759 -163.502892517887034 -15.198244045872372 79 44 36
-112.331469599924688 -162.826604056080583 -15.659282057439384 65 31 22
-112.321928215812406 -162.293542057426379 -15.558474812912607 86 46 41
-112.312560325287876 -161.760155277267359 -15.457587912787346 88 47 45
-112.310808259358140 -161.309257966939668 -15.019631867967206 74 29 26
-112.279478336187040 -160.528402832478349 -15.929528809353002 105 60 57
-112.278059839571981 -160.076831918677243 -15.491420119855064 100 58 53
-112.261981128637601 -159.462583593108235 -15.727152656480740 100 63 54
-112.265771773471954 -159.061678963953796 -15.064312628207489 92 58 45
-112.252486823260170 -158.474060160257750 -15.187575643313039 93 56 47
-112.251623518606266 -158.016959925602862 -14.749258267961153 101 67 57
-112.245994310656457 -157.506488635286701 -14.535488029338040 99 69 58
-112.228311322674131 -156.868075162088587 -14.883095675529034 77 53 41
-112.225419711422418 -156.382274637785088 -14.556902946520694 56 38 24
-112.251801442180195 -156.193276176239323 -12.883344199257436 35 19 4
-112.312128653525960 -156.340356879234378 -9.638062229877335 46 30 15
-112.326363561179889 -156.009851586179224 -8.526065506657147 61 44 28
-112.316509282166493 -155.433697359718394 -8.536710404847497 68 45 31
-112.316444506421988 -154.952741005655525 -8.098256579023825 79 53 40
-112.311679212488215 -154.422781791958300 -7.884273645881990 108 80 66
-112.314243624477456 -153.961512662404033 -7.333500490246223 109 83 71
-112.307319868679855 -153.405910352570203 -7.231673000052439 113 86 74
-112.310096566950804 -152.940557536095326 -6.680840322828118 114 88 75
-112.305804448932875 -152.405445707442794 -6.466684062404198 111 88 75
-112.301631265590302 -151.869380141412961 -6.252480721337264 108 91 78
-112.288056738533413 -151.244995079580548 -6.487119607498158 98 84 74
-112.265128043606637 -150.535572050632908 -7.170544373701517 31 24 18
-112.249491050760284 -149.893443892854663 -7.517211459947021 31 33 28
-112.238739179135564 -149.295124052446738 -7.639372810085831 25 30 28
-112.230482619544404 -148.718221311436139 -7.649261069617381 35 38 39
-112.217628322018854 -148.100493933594691 -7.883486869553394 44 46 45
-112.211976426828969 -147.544575246483532 -7.781054182234698 49 48 46
-112.208786442378951 -147.008149794933502 -7.566384186670149 50 50 48
-112.196303021388246 -146.392132275642496 -7.800414960110118 49 49 47
-112.183947360766126 -145.777316126592751 -8.034372247120359 52 52 52
-112.152987124413514 -145.010850172317845 -9.165661986380115 53 55 54
-112.143245875851889 -144.419445338362806 -9.287268678274444 55 57 57
-112.119612619565984 -143.717327598836164 -10.081814192123545 60 61 63
-112.121770621100595 -143.220281931107138 -9.642462612656743 57 58 60
-112.093747273843704 -142.486968712117715 -10.661147211560689 64 65 67
-112.086801134424633 -141.918325396386393 -10.670323552160113 60 61 63
-112.070669956207126 -141.279899395069975 -11.128047831757442 60 61 63
-112.061613677133280 -140.695326194208008 -11.249256515165371 58 59 61
-112.038771958424746 -140.009850361565270 -12.043252056642842 58 60 60
-112.029934093443387 -139.428168638545031 -12.164326488063637 81 83 82
-112.007344289620264 -138.748852866780680 -12.958138105722242 75 77 76
-111.994106208434886 -138.137845026729480 -13.303337223788049 72 74 71
-111.983274969897650 -137.544377245918042 -13.536345483019346 52 54 51
-111.988633775818855 -137.060977383567462 -12.984463301655126 49 50 45
-111.982565933193683 -136.498492471520365 -12.993156076536025 49 51 48
-111.974286705936805 -135.921061418249479 -13.113919503305198 50 52 49
-111.959222457178399 -135.300019581817509 -13.570954423564189 48 50 47
-111.955696934306175 -134.753559055843425 -13.467407129413346 45 49 48
-111.947673373576450 -134.178223847727594 -13.588026672605224 45 47 44
-111.946576699197180 -133.645260216444143 -13.372319610422949 46 48 45
-111.936426175534407 -133.056663052095502 -13.604952082289543 43 45 42
-111.933188694489644 -132.509343896349179 -13.501275828223328 42 44 41
-111.927743137179405 -131.948427999976843 -13.509654753276067 41 43 40
-111.922367358742719 -131.387563793424960 -13.517999764285577 36 38 35
-111.912522525489351 -130.801628624688732 -13.750458593650052 31 33 28
-111.905021135338103 -130.229119404056974 -13.870799242918139 36 38 33
-111.897590467804406 -129.657201614627780 -13.991099970829936 42 44 39
-111.899273918843974 -129.132847716196551 -13.663115396950957 46 48 43
-111.901005751208103 -128.606903812732043 -13.335124044332645 48 50 45
-111.902785002304299 -128.079368623200935 -13.007126386662321 50 52 50
-111.893341076094629 -127.495607243977702 -13.239371047563822 52 54 53
-111.879463189772864 -126.891665315713382 -13.695662398154639 49 51 50
-111.874659419095494 -126.331468403702928 -13.703726893814832 48 50 49
-111.867665982932721 -125.761198143765455 -13.823801492888776 45 47 46
-111.862977908670743 -125.201345642081989 -13.831807094591909 41 43 42
-111.862829674394348 -124.660658921384638 -13.615725799554497 41 43 42
-111.858246190025156 -124.100329303107543 -13.623686277012183 44 46 45
-111.853715722390405 -123.540031479219650 -13.631621064170275 46 48 47
-111.851473062029740 -122.988513707915857 -13.527512109757907 49 51 50
-111.855978068248049 -122.461913245005860 -13.087341953649116 44 46 45
-111.849358582251170 -121.892138244935737 -13.207232558286904 40 42 39
-111.845021991253418 -121.330867918157040 -13.215084605987158 35 37 35
-111.842961085706904 -120.777285008305043 -13.110909958203280 36 38 37
-111.840943539714303 -120.223183259748609 -13.006719908024792 33 35 34
-111.832298823195330 -119.647210481300235 -13.238502057769239 32 33 35
-111.823707988120233 -119.072349042547089 -13.470246991237872 31 33 34
-111.819608600765505 -118.511744015746828 -13.477978713261507 30 35 31
-111.815553389964890 -117.951160319718397 -13.485689081804708 28 33 29
-111.807110938198406 -117.378538906617692 -13.717339971497751 27 32 28
-111.807572532306949 -116.830053286678307 -13.501047214639073 27 32 28
-111.799222459552226 -116.258557940418072 -13.732642319357893 28 33 29
-111.797550122230575 -115.703807724293142 -13.628293797536941 30 32 29
-111.800330213553522 -115.158412987635501 -13.300001178623177 33 35 32
-111.796521563602184 -114.597394931791072 -13.307598064385019 35 37 34
-111.788344273859224 -114.027597582182480 -13.539093031970765 39 41 38
-111.773606353127477 -113.446526322431609 -14.106419285715560 43 45 42
-111.772127588631207 -112.891309010912749 -14.001982967366047 45 47 44
-111.766285622134191 -112.328397771044948 -14.121430957208361 46 50 49
-111.756090536230602 -111.759423345994421 -14.464741645705516 50 52 51
-111.745942668420724 -111.192091938010094 -14.808012832828439 52 54 53
-111.742421936051315 -110.634700372485284 -14.815434650519336 39 41 40
-111.745512469753152 -110.084800874552599 -14.487039886806400 36 36 36
-111.737677759384610 -109.522169154622318 -14.718297206167648 30 32 29
-111.736450236860762 -108.966484389513852 -14.613745506254304 31 33 30
-111.719946543385618 -108.398515855492292 -15.292640511609278 39 41 38
-111.720978336294422 -107.845068854228714 -15.076126043589397 42 44 41
-111.715487091581977 -107.287137545827790 -15.195354988395877 36 38 35
-111.718760778524796 -106.733206991190485 -14.866914098492003 39 41 38
-111.708976320100575 -106.174105910520311 -15.209926712916825 41 43 42
-111.705771176465362 -105.617597908644854 -15.217188459074521 38 40 37
-111.700422010941878 -105.061047204792445 -15.336335222427806 34 36 33
-111.701636196331521 -104.504369713043943 -15.119766751531699 32 34 31
-111.692006178018545 -103.949091091802572 -15.462666135841573 28 30 25
-111.686763461675994 -103.393909239048000 -15.581747883999611 26 28 23
-111.685898911942672 -102.837192404219877 -15.477033162759568 27 29 24
-111.693743129703279 -102.274684454549217 -14.924776268173929 27 29 24
-111.692932246235486 -101.715794954054559 -14.820058237515525 31 33 28
-111.687817482581821 -101.160073764223213 -14.939084325213258 29 31 26
-111.674076541632971 -100.613406960151707 -15.505579484901716 27 29 24
-111.671202665817219 -100.057459615926177 -15.512676982539205 29 31 28
-111.659710972654651 -99.512196609616254 -15.967222774880412 36 38 35
-111.656908275864097 -98.957332924956717 -15.974275066063967 40 42 39
-111.654138530253888 -98.402466452484092 -15.981311622212132 41 43 40
-111.657877629782362 -97.837135398389762 -15.652765431590581 32 34 31
-111.646541255410568 -97.296481631506566 -16.107189474737766 37 39 36
-111.635248868556090 -96.757998156857028 -16.561570134499192 33 35 32
-111.628309811071162 -96.213079057892415 -16.792216651685322 28 30 27
-111.634330013266393 -95.641794380578133 -16.351781588081110 26 28 25
-111.633917882870776 -95.082867416398301 -16.246873180952349 21 23 20
-111.629235977206832 -94.533626093508104 -16.365625490345877 36 38 35
-111.622441677095892 -93.990310866206471 -16.596186246643754 37 39 34
-111.619984257888035 -93.436750576868889 -16.603059941712445 32 37 31
-111.619709591483371 -92.877247170073204 -16.498091705895007 34 39 33
-111.617322382419147 -92.323395944020206 -16.504934807429379 2 7 2
-111.621406317228463 -91.750100920887363 -16.176305625925551 3 9 5
-111.614801221919748 -91.208911391977381 -16.406753986413122 6 12 7
-111.614665963150401 -90.647732787857294 -16.301736302108424 5 12 6
-111.595292040845109 -90.151638849025318 -17.202982343623432 12 18 14
-111.586676248982570 -89.622055144254702 -17.545132034792658 30 36 32
-111.578105555251483 -89.094088747162061 -17.887243503409991 10 16 14
-111.586687557395180 -88.502864740498225 -17.334929244104700 5 11 9
-111.578200107387914 -87.975955177230844 -17.676990010688428 6 10 9
-111.578304683447925 -87.416047920395840 -17.571844503607167 9 18 15
-111.580583790343852 -86.846654046179083 -17.354897474025535 10 20 19
-111.582900848835791 -86.276153849801759 -17.137943676460281 12 19 19
-111.570322249436046 -85.770830060629578 -17.703457211514461 12 17 20
-111.568459007553599 -85.219500474196010 -17.710023692441752 10 19 18
-111.564508042468219 -84.678162817751556 -17.828344965958735 10 19 18
-111.566995949331556 -84.106491743719928 -17.611321487550128 13 22 21
-111.550356436893850 -83.628723669512922 -18.400211874506056 15 24 21
-111.535904034195184 -83.143910821643047 -19.077269586133411 15 22 20
-111.532149915790754 -82.606831393097565 -19.195452856794077 13 19 18
-111.532700203405625 -82.047523466414717 -19.090087953626409 16 21 20
-111.543931464100353 -81.429417462759531 -18.425924123090198 17 23 22
-111.538195257905826 -80.903357729608771 -18.655801071415539 20 26 25
-111.528261939450175 -80.402736054494270 -19.109141826990765 15 21 20
-111.516261068112399 -79.916722403669965 -19.674180209965812 9 16 15
-111.525559095209857 -79.306060251693509 -19.121723493371604 11 18 16
-111.541274255411878 -78.653625794009002 -18.234050170862105 11 18 17
-111.550666081253667 -78.036636793378605 -17.681613706701626 9 18 16
-111.545252811003436 -77.511742495786223 -17.911324167164508 8 18 17
-111.548385315686858 -76.932609834880338 -17.694069121230342 12 18 18
-111.545210598165198 -76.394634110579119 -17.811984434517171 11 19 18
-111.550578678284111 -75.799695052043347 -17.482963715228323 15 23 22
-111.549644055802190 -75.246998911401747 -17.489100014446393 16 22 21
-111.548771238093849 -74.694259968877915 -17.495207187053893 13 19 18
-111.543722805844567 -74.171844411669582 -17.724717595347727 14 20 18
-111.536621168926388 -73.665928490857496 -18.065899295591720 13 19 17
-111.533824275847039 -73.130142224729951 -18.183611321767529 16 22 22
-111.539567954897805 -72.530848126454103 -17.854455745848952 13 23 24
-111.551732157314547 -71.881049094134326 -17.190171831456041 13 23 24
-111.551256088945024 -71.327202990337625 -17.196100597106948 15 25 26
-111.546615805893254 -70.806938999609059 -17.425393601069061 13 23 24
-111.542048599794697 -70.287708871020925 -17.654641003204887 14 24 25
-111.552376961789378 -69.647968634144235 -17.101990693262934 18 23 27
-111.562779579541143 -69.005443329889545 -16.549333527719000 17 25 28
-111.560555398840535 -68.467580364315666 -16.666792946766606 16 24 27
-111.579581458830120 -67.748389746369270 -15.667363970920093 15 23 26
-111.577516049968651 -67.208761187219409 -15.784765608205674 17 25 28
-111.586118747716668 -66.575978734212327 -15.343728115080154 22 32 35
-111.588453688259548 -65.997941055591994 -15.237702234814691 28 39 43
-111.618401874714749 -65.168753953026453 -13.679885975576241 36 47 51
-111.625147609110940 -64.546842833391452 -13.350483828177829 32 43 47
-111.631983986130749 -63.923217139497723 -13.021055966633156 32 43 49
-111.636794898783450 -63.317964249917324 -12.803266844714983 31 42 49
-111.654411280475486 -62.589359315682358 -11.915468045341385 39 48 55
-111.699674131358108 -61.588035592090478 -9.576084997406070 43 52 58
-111.764125260136865 -60.386979056056227 -6.231848328988406 42 52 57
-111.790547867782848 -59.550723868407871 -4.897509219759002 36 46 49
-111.817085871977937 -58.707819590367940 -3.563183347643673 16 27 30
-111.816171905136741 -58.140726541562913 -3.680316844802547 4 12 13
-111.847186880829227 -57.244059284162205 -2.122684844382462 1 6 9
-111.857109333923660 -56.562381280780876 -1.681519291285952 3 7 10
-111.867150450622518 -55.878408366691382 -1.240320592596589 4 8 8
-111.862447728366732 -55.351883709300552 -1.580566796367435 3 7 7
-111.866355346129097 -54.734506377506712 -1.474193495523508 6 9 8
-111.874634857876956 -54.069728198348876 -1.144498846475699 3 8 5
-111.885167957340059 -53.379546143516222 -0.703128698723162 3 8 5
-111.885197016843094 -52.806624270426667 -0.819871054327933 3 9 5
-111.887478848694741 -52.209932255090585 -0.824921484457747 1 7 3
-111.892018854554721 -51.588645858423646 -0.718285889284090 1 7 3
-111.905214424107754 -50.867733330050505 -0.165099464248073 1 7 3
-111.912160456622331 -50.218971828652016 0.053263235695169 0 6 2
-111.917114737256682 -49.594254619847995 0.160061703428028 2 8 4
-111.911538370666747 -49.096628084127723 -0.291163870834566 0 4 0
-111.908227630067415 -48.575210679631972 -0.630691583832544 1 6 2
-111.905051326295975 -48.055282419062159 -0.970139654206321 0 6 2
-111.893455939661592 -47.642357365672417 -1.755949486880127 0 5 5
-111.899109555584161 -47.019879891243463 -1.648793404831423 10 17 16
-111.896347894465165 -46.504398766076896 -1.987997334982794 17 24 24
-111.908735635319090 -45.799977903122276 -1.545886500351031 42 48 48
-111.897689868054727 -45.395429438495171 -2.331347172566041 32 38 38
-111.901808810296671 -44.800286965416795 -2.335502785165318 35 41 40
-111.897489318516179 -44.317064022877588 -2.785978811406949 31 37 35
-111.904074399063916 -43.694348785523516 -2.678379567287578 30 36 33
-111.908675026375491 -43.099467085614997 -2.682302059131416 23 29 25
-111.926379454461880 -42.331288382168339 -2.016586261192145 14 21 15
-111.952914985400696 -41.443108642596435 -0.904445385185085 4 11 4
-111.971029180790964 -40.666820914253528 -0.238617026239126 3 10 3
-111.995839506253972 -39.797992821067261 0.762038828679067 5 12 5
-111.994889129332748 -39.283396684823543 0.423710520314899 4 11 3
-112.015789834553672 -38.467970010724663 1.201327944102616 0 6 0
-112.010864861342469 -38.014471980616356 0.640009346155580 0 7 0
-112.016971506605785 -37.409609607341800 0.636704592052837 2 9 2
-112.023271789048323 -36.804506301811024 0.633489993276186 3 10 3
-112.023230252762303 -36.293141251734646 0.295629730349759 2 8 3
-112.036465640844028 -35.593554410748602 0.627336950605809 5 11 7
-112.032436948947790 -35.147095234371989 0.066519585025219 7 13 9
-112.048282586426282 -34.413726656315568 0.509986692175858 7 13 11
-112.055594723708538 -33.807609001130970 0.507245720075559 9 15 13
-112.074098000035292 -33.037670606636937 1.062466685970378 7 13 11
-112.097250935690951 -32.198713974069435 1.840919363395130 8 14 12
-112.109660095537578 -31.521905841603942 2.061606906664963 6 12 10
-112.117894840521217 -30.910771932101955 2.059255672100988 8 14 12
-112.119725810513572 -30.400782190914764 1.722305366504969 7 13 9
-112.128407236395304 -29.789866114457542 1.720170064816500 7 13 9
-112.152851705962647 -28.938042983491020 2.499108166306002 4 10 6
-112.168701823600173 -28.220603413523452 2.831882497111138 3 9 7
-112.160324637578299 -27.885341812550177 1.937552784589286 9 15 13
-112.161048391479312 -27.413373231822213 1.489605276594716 5 11 9
-112.193284648603182 -26.446556370709448 2.603663909072395 9 15 14
-112.225865101489291 -25.473828271644056 3.717826356281051 12 18 16
-112.225122176970444 -25.035724080642499 3.158666892612786 13 19 18
-112.238092024520753 -24.382143694555854 3.269002876899805 12 18 17
-112.255846802086609 -23.654442470944716 3.602582762130140 13 19 18
-112.264862162995229 -23.072171552879492 3.490043187898863 12 18 16
-112.251490551375426 -22.861571474963561 2.262030708210375 10 16 14
-112.263253718311262 -22.244980163954764 2.261311282838619 8 14 12
-112.261642472037167 -21.854233833911859 1.591365010351922 8 14 12
-112.305876862220259 -20.706657139348714 3.152738396469175 10 16 14
-112.318539615281622 -20.086578138599751 3.152413429473796 8 14 12
-112.329203488299612 -19.504610804888220 3.040665622731240 11 17 15
-112.344751612813994 -18.845103331745552 3.152174035395717 12 18 16
-112.351394369370311 -18.341012763513916 2.817586395149192 12 18 16
-112.360617992601703 -17.798753106364465 2.594699423987322 13 19 17
-112.363174119134214 -17.376150005406373 2.037277775540730 15 21 19
-112.382249724396289 -16.676227194472474 2.260916592449348 16 22 21
-112.397009403796517 -16.055151735470282 2.261584530781448 17 23 21
-112.412093115849672 -15.433576351163978 2.262402339241703 8 14 11
-112.418126749430087 -14.974664257354632 1.817129456463903 12 18 16
-112.429140422134012 -14.435335809432235 1.595129011243017 10 16 14
-112.428667078498236 -14.103390692351361 0.815473492981766 9 15 15
-112.444997449380921 -13.483382677031654 0.816903832469279 11 17 15
-112.449803097898865 -13.072434570732540 0.260678318344759 8 14 12
-112.457263913080993 -12.621550087624268 -0.183829173417081 5 11 7
-112.455457297475462 -12.342309895180847 -1.074438891073072 5 11 7
-112.463472266212918 -11.895940343423977 -1.518634803217026 5 11 7
-112.481408843114679 -11.279034565980224 -1.516404127382742 5 11 7
-112.499713053298791 -10.661530473788625 -1.514003735800571 6 12 8
-112.506274638348387 -10.261526010886772 -2.069276567488089 6 12 8
-112.559331962176529 -9.029524466658344 -0.504551347546538 3 9 5
-112.595936527066613 -8.098257092421276 0.279386342358663 4 10 3
-112.628159385795399 -7.251303743307054 0.840377955830917 4 11 3
-112.648576538695465 -6.624640221148267 0.843694889351838 4 11 3
-112.674334871386719 -5.907206142747324 1.070350447883186 4 11 3
-112.695584749076971 -5.278603277701308 1.074045791458815 2 9 1
-112.717250340940524 -4.649296344883119 1.077932763946791 1 8 0
-112.749330424431264 -3.835651376120654 1.528340049205696 0 9 0
-112.799479211082883 -2.695636764628762 2.760044047879148 0 9 1
-112.865405351958358 -1.269683073067262 4.661505873661270 7 14 6
-112.879015519456985 -0.815289840685106 4.219904093650513 2 7 0
-112.870127985067924 -0.785906071281879 2.774184361796927 62 66 59
-112.843551315770355 -1.094617976859548 0.547470202620332 56 58 45
-112.863114348528981 -0.556700784265443 0.329574268704903 26 30 16
-112.785915056504791 -0.854274339174754 -13.007360724350576 65 71 61
-112.770905068019516 -1.056543535758583 -14.786201551667830 65 72 63
-112.788372548866334 -0.657280541356293 -15.225390522959998 69 76 68
-112.765509391426477 -1.026314125639582 -17.338848344530334 38 45 38
-112.731701352854273 -1.611247100321599 -19.898755338516395 27 34 27
-112.705974131886791 -2.053623892704755 -22.123687244696185 24 30 24
-112.751897926189287 -1.154596879525820 -21.445818286071670 23 30 23
-112.729181551560643 -1.558662791232059 -23.558845281903331 25 32 25
-112.090254564569634 -176.243427219040683 -21.290375533631931 47 42 23
-112.065438861110991 -175.581410833252846 -21.641638403094220 39 30 13
-112.055489102691809 -175.133666726992004 -21.318430533668703 31 19 5
-112.125470269959976 -175.842533443283571 -17.286735204771048 23 16 0
-112.057889959874387 -174.547568435220484 -19.660431702162612 27 20 4
-112.034101177289031 -173.886232551858456 -20.011196291445827 46 35 19
-112.034524288963837 -173.569441844410136 -19.238242567721301 36 23 7
-112.044616454105935 -173.384993589591232 -18.015865394930842 40 23 8
-112.042907970128581 -173.026297589675863 -17.355221656407110 45 23 10
-112.034250298660623 -172.564358020366711 -17.031541778045352 63 34 23
-112.023429812063839 -172.067948874280575 -16.820110280618024 80 46 37
-112.010466666093023 -171.537898536870358 -16.720908994693389 100 62 54
-112.000069029433874 -171.040197733738466 -16.509288502980155 111 74 66
-111.989874716042976 -170.541703186820826 -16.297578912515746 98 64 56
-111.986870308793783 -170.138488427393582 -15.748872278119649 80 47 40
-111.974730249180695 -169.605807984700448 -15.649304303497786 77 49 41
-111.955852434099697 -168.978456004543887 -15.886510804452058 22 4 2
-111.934913418647795 -168.321309742348092 -16.235868949031442 28 12 5
-111.925741690092181 -167.820700020562697 -16.023691930044521 27 1 0
-111.909870109662720 -167.227338993625892 -16.148251487768505 61 19 16
-111.894221516556811 -166.634804559962447 -16.272695860581365 101 54 52
-111.871945507639026 -165.952826715110803 -16.733808107127089 125 77 75
-111.870407007521379 -165.541624603566277 -16.184482405611789 123 75 73
-111.864466176365397 -165.068844278607429 -15.859614389501161 123 82 78
-111.860948842385497 -164.623916021797328 -15.422441400398924 63 28 24
-111.835003298472458 -163.887193913800672 -16.107590419950952 94 61 54
-111.825081050069898 -163.354972290423007 -16.006956729190193 85 51 42
-111.806353085380465 -162.708707403922801 -16.355145107197330 80 43 35
-111.805762749255734 -162.289570192217553 -15.805447487250063 99 56 53
-111.798595327310366 -161.784259980922485 -15.592359999350833 87 42 41
-111.796041674984764 -161.333275479204246 -15.154788328219638 68 20 20
-111.771392401280764 -160.607009325230479 -15.839209588159491 127 79 79
-111.771373947880988 -160.181849067995529 -15.289300379710227 105 61 58
-111.755988908551430 -159.566689135890527 -15.524710449841905 92 52 45
-111.756240664282444 -159.138355064078581 -14.974704643938509 92 55 44
-111.743397175703109 -158.550093116354503 -15.097763085516874 100 63 54
-111.746102045211430 -158.144248652202748 -14.435493336641031 113 80 69
-111.740141790760177 -157.632576058714307 -14.221893835146517 101 73 61
-111.725574803175306 -157.018368839181875 -14.456902745378500 77 55 42
-111.724272239474814 -156.556216678957782 -14.018847512056595 60 42 28
-111.740497585747335 -156.290883967892739 -12.683509945856656 41 25 10
-111.787166627082186 -156.363266071365473 -9.778107563165122 44 29 13
-111.801233755233255 -156.056950161347658 -8.555083226692233 56 37 22
-111.793722196565781 -155.504442051194417 -8.453505089224848 63 41 27
-111.790664739194767 -154.999062515551572 -8.127593237030936 84 58 45
-111.779110573843809 -154.398259714440570 -8.250163960100167 98 70 56
-111.776304395602978 -153.890997664035297 -7.924151274501753 107 79 67
-111.769322226765894 -153.336369440325910 -7.822341702148037 110 82 70
-111.773172248123927 -152.894648831471471 -7.159893407732568 108 82 69
-111.772834240836744 -152.405008098681407 -6.721659687615244 106 83 71
-111.766199510387395 -151.846973211027375 -6.619718968431073 104 89 78
-111.753303142838178 -151.223004845878961 -6.854029136139815 64 52 43
-111.740551753225333 -150.600263320649333 -7.088257318421086 32 28 22
-111.725822452208163 -149.957451519550716 -7.434497205090935 30 31 26
-111.713357031230728 -149.337425873097800 -7.668560625052663 37 38 40
-111.696803694320010 -148.677123251093519 -8.126712050968422 43 44 46
-111.688834999237031 -148.101017829922966 -8.136454389892322 46 48 48
-111.678878377279659 -147.504827877188802 -8.258213371312422 49 48 46
-111.669044054077276 -146.909296433243924 -8.379907067065488 51 50 48
-111.655134342722178 -146.275114490261245 -8.725666033385494 50 50 50
-111.643450862868647 -145.662057322235341 -8.959283645344698 52 52 52
-111.629799299491978 -145.031089027641144 -9.304886034859379 55 57 56
-111.616274905007387 -144.401859258097488 -9.650409691700332 57 58 60
-111.600791497197122 -143.755804485381248 -10.107902606931589 57 58 60
-111.593758752992997 -143.185177252661617 -10.117140800417502 60 61 63
-111.570209461316907 -142.470526615794057 -11.022634038213852 62 63 65
-111.563401119937609 -141.902262814947960 -11.031740550166006 60 61 63
-111.554618149166046 -141.316616326580061 -11.152829531706345 60 61 63
-111.552137876125741 -140.783185785755279 -10.937789184515424 63 64 66
-111.533223202816359 -140.113362387011449 -11.618886037649077 59 60 60
-111.512375051071345 -139.430240978924331 -12.411903628249917 53 55 54
-111.493716314243457 -138.767391394929234 -13.092806257269530 51 53 52
-111.481345629607290 -138.156201642751142 -13.437592288312260 50 52 49
-111.473181732933142 -137.578382933796860 -13.558304531660610 52 54 51
-111.473303528563818 -137.063415469328277 -13.230970429096146 51 53 48
-111.465303874644192 -136.485732657247468 -13.351602700418965 47 49 46
-111.459433191341006 -135.923673985012812 -13.360196767455534 45 47 44
-111.447518606541934 -135.317453699004830 -13.704713448687841 43 45 42
-111.441811039038967 -134.756336463644317 -13.713219791001990 43 46 45
-111.432108110170418 -134.166885225041000 -13.945646926468640 43 45 42
-111.426554465059141 -133.606429053951956 -13.954072828171604 47 49 46
-111.423102625140260 -133.059679773292146 -13.850493256645507 44 46 43
-111.419716077266372 -132.512439208260020 -13.746887506665672 43 45 42
-111.412344332931198 -131.938492112923797 -13.867180934586457 41 43 40
-111.407067572729460 -131.377974380068622 -13.875475009183958 37 39 36
-111.397818262060312 -130.792380975631687 -14.107645424633773 33 35 30
-111.392678050137036 -130.232503361762610 -14.115867585936599 32 34 29
-111.381558001986178 -129.636618598325413 -14.459897774833934 31 33 28
-111.388623832842001 -129.148118367803704 -13.796392574323505 40 42 37
-111.391702520924852 -128.633447479143626 -13.356781966821046 43 45 40
-111.392814943167309 -128.105438984865486 -13.029108189752236 45 47 45
-111.379937609950417 -127.499337110390044 -13.484943112578719 52 54 53
-111.371141996313170 -126.916763809602145 -13.716865393479566 54 56 55
-111.368413171052097 -126.366468654285072 -13.612976433688573 51 53 52
-111.367733306620778 -125.825776794018978 -13.397149521599147 52 54 53
-111.361111385296866 -125.254511091259147 -13.517056635840731 50 52 51
-111.358534437879896 -124.702958276429101 -13.413107963930855 47 49 48
-111.348039733533298 -124.113710596691377 -13.756770671659012 45 47 46
-111.341587775569465 -123.544173333458048 -13.876578684315348 38 40 39
-111.335190290467850 -122.975209799673024 -13.996354731655714 42 44 43
-111.338771147505909 -122.449215847705943 -13.556620442225210 42 44 43
-111.338417691715051 -121.904658121166463 -13.340677170664662 43 45 42
-111.336122524248154 -121.351103264627497 -13.236614304213589 44 46 44
-111.335848564954915 -120.804692965807916 -13.020652071258183 41 43 42
-111.333635445729612 -120.249827674507642 -12.916563442172901 38 40 39
-111.325538995171684 -119.673083967495117 -13.148091238915924 36 37 39
-111.321440065287504 -119.111145201152311 -13.155836470938311 34 36 36
-111.315413590700871 -118.542652625771112 -13.275430180308547 30 35 31
-111.313371163952368 -117.987331185188992 -13.171264587901163 28 33 29
-111.303498906235589 -117.407360094767682 -13.514534030701157 27 32 28
-111.301539152171387 -116.852077116137693 -13.410328492056777 26 31 27
-111.293726472335678 -116.279805844889765 -13.641674496830888 26 31 27
-111.293805947889496 -115.729501487396448 -13.425583265358256 30 32 29
-111.291957538983453 -115.173182135767277 -13.321335127479784 30 32 29
-111.286228616751444 -114.606991158611592 -13.440762797316722 33 35 32
-111.280541082137617 -114.041358784318064 -13.560164917479142 34 36 33
-111.269032300615009 -113.463900737723662 -14.015050284556253 36 38 35
-111.265383256308752 -112.904054908384722 -14.022558749208258 39 41 38
-111.255918823337296 -112.333469497663174 -14.365536478531936 44 48 47
-111.248449112106243 -111.767839399483236 -14.596650047370559 51 53 52
-111.241021325538000 -111.203307959933369 -14.827732250548905 53 55 54
-111.233634926266149 -110.639874473415091 -15.058783352404504 44 46 45
-111.232120292024149 -110.085027773335241 -14.954360379128616 40 40 40
-111.222868193054978 -109.520747886489403 -15.297171622668543 35 37 34
-111.225301216044457 -108.969824296401953 -14.969101951321676 32 34 31
-111.216125398537855 -108.407191907267418 -15.311859743549803 43 45 42
-111.212803174010332 -107.850425044631550 -15.319180165388872 38 40 37
-111.205642470481521 -107.291390394268916 -15.550078015744248 35 37 34
-111.202387963880753 -106.735179838509509 -15.557360315213145 40 42 39
-111.197233062086582 -106.178381189817458 -15.676416695685077 40 42 41
-111.194043662926290 -105.622452691659390 -15.683664944617050 34 36 33
-111.190885738512804 -105.066528419216709 -15.690898092640623 33 35 32
-111.187759133531699 -104.510607794490468 -15.698116220007336 28 30 27
-111.180811466453946 -103.955678018064205 -15.928869900925207 26 28 23
-111.173900877971292 -103.401838108759122 -16.159594625020532 24 26 21
-111.174719773920657 -102.844937218047789 -15.943217558795396 25 27 22
-111.179407039933608 -102.284331517900313 -15.503310243215225 26 28 23
-111.184113574213569 -101.721551905518695 -15.063416086932904 31 33 28
-111.177326845209734 -101.167716333759117 -15.294081512429557 29 31 26
-111.166742115137566 -100.619217636956378 -15.748226723324848 27 29 24
-111.160031604323748 -100.068099226132333 -15.978827717198129 30 32 29
-111.149528600205954 -99.523403917456207 -16.432894680492325 37 39 36
-111.146720481693649 -98.969119512852899 -16.439943602588329 39 41 38
-111.140119907502836 -98.421257074679204 -16.670458487795912 45 47 44
-111.143108439865458 -97.857058155963983 -16.342259712295544 35 37 34
-111.134665594099019 -97.313760263938832 -16.684467833664030 40 42 39
-111.131985856277055 -96.760005609800885 -16.691449885890194 37 39 36
-111.123618430563369 -96.219145029744283 -17.033596838087419 27 29 26
-111.128627580839989 -95.647909287230249 -16.593644954544999 26 28 25
-111.126043051276724 -95.093866076469709 -16.600584429724847 21 23 20
-111.125393986156880 -94.534700816730776 -16.495791824251882 36 38 35
-111.120972532751352 -93.985758617766365 -16.614416455144919 32 34 29
-111.120387487206173 -93.426034117874181 -16.509598979466716 28 33 27
-111.121732889490048 -92.859826295900220 -16.293065835334829 30 35 29
-111.117414106222014 -92.311129745919061 -16.411638820597602 3 8 4
-111.115029034460335 -91.756492262892721 -16.418488992991769 7 13 9
-111.110783496856172 -91.208590496469654 -16.537018756673575 8 14 10
-111.117942350987178 -90.619110720044930 -15.985367372261379 8 14 10
-111.100513075293733 -90.121673443981834 -16.885696929147912 12 18 14
-111.085030258409404 -89.621011480995122 -17.674269615214087 17 23 21
-111.077164160186229 -89.092806207259088 -18.016046466632815 15 21 19
-111.071232019470116 -88.558112033273900 -18.246106027998820 5 11 9
-111.067231134251386 -88.016112463484475 -18.364457996543081 8 12 13
-111.070822935968479 -87.440041313420181 -18.036092825892752 12 21 20
-111.078221964374507 -86.844478119345879 -17.484389162604572 12 21 20
-111.078107101268429 -86.282952866988694 -17.379365289308907 12 16 18
-111.064835792547200 -85.787125254224563 -18.055971350134314 11 15 18
-111.068574250276612 -85.206902564823039 -17.727578753630382 10 16 18
-111.062933445842020 -84.675076096310647 -17.957469421984854 9 18 17
-111.061103790600441 -84.123753006332535 -17.964019768306997 11 20 19
-111.042385354209060 -83.667390731507140 -18.975402134550933 15 21 19
-111.036890677161765 -83.140121758438269 -19.205175983474135 13 19 17
-111.038963341231920 -82.569526006523049 -18.988340086963660 11 17 15
-111.037321015644054 -82.020556518972199 -18.994776588609454 12 18 16
-111.039481840370215 -81.448277306444666 -18.777915845049137 16 21 20
-111.041687480102652 -80.874882611188212 -18.561045144367512 17 21 20
-111.036432691157344 -80.349114950107762 -18.790688777886515 15 18 17
-111.025603067381965 -79.861780172364803 -19.355180439065435 12 15 14
-111.024207056531765 -79.313485145470082 -19.361492162022643 14 17 16
-111.030360777411730 -78.713149315194627 -18.921292261648802 13 16 15
-111.036562122360166 -78.110603335127593 -18.481092328265959 10 17 15
-111.040939224816213 -77.519392281741830 -18.152507315064440 12 19 17
-111.045367923765127 -76.926512448095281 -17.823914795871161 13 16 17
-111.044233276522121 -76.374235062114721 -17.830142475797203 12 15 16
-111.046899318469727 -75.793192879122046 -17.613130239707004 12 21 22
-111.047750996554029 -75.225657158926154 -17.507705845183750 16 20 23
-111.048661696491777 -74.657535485540251 -17.402259246318664 15 19 22
-111.038411795602414 -74.179905555764250 -17.966373673180669 12 18 21
-111.043186453965149 -73.581336723815340 -17.637674207907054 13 19 19
-111.034936891380170 -73.091159437573268 -18.090101951103691 15 21 21
-111.039838218461639 -72.491135485678370 -17.761356866229818 13 23 22
-111.035460335847773 -71.970774138595289 -17.990525340859790 14 24 23
-111.038624879304933 -71.385285128651560 -17.773320396779809 14 24 23
-111.032516507812332 -70.882723853220227 -18.113992391198678 16 26 25
-111.035819586552677 -70.296310661227537 -17.896730685384284 16 26 25
-111.042929209537078 -69.674033666765396 -17.456299336145491 17 27 29
-111.053846182568321 -69.014255861034385 -16.792714808543025 17 27 29
-111.049896477351865 -68.494379154788007 -17.021673455922098 14 24 26
-111.057228372596327 -67.866471585823788 -16.581193730727961 15 25 27
-111.053433432737336 -67.347013701847558 -16.810074027742445 16 26 28
-111.059055377526860 -66.734971539903839 -16.481107911300569 19 29 31
-111.062891332595797 -66.140219526971492 -16.263677114950099 21 32 34
-111.081751239184328 -65.390169838548985 -15.153786389315314 26 37 39
-111.085756705488109 -64.790911056619706 -14.936320889808371 28 41 42
-111.087981701407926 -64.210298373174425 -14.830374112491995 31 45 46
-111.092163735245805 -63.608976979125124 -14.612845375184662 36 50 51
-111.094568708908923 -63.026842235346869 -14.506828164464395 39 50 54
-111.108278413654475 -62.320292718240161 -13.731530163383326 40 51 55
-111.155729333435630 -61.233565504620998 -10.948543912130987 42 53 57
-111.192079652044555 -60.260163764137140 -8.834854943927752 44 55 59
-111.219196611520459 -59.383545800815689 -7.278881363648537 46 57 61
-111.244558874955644 -58.520910139577992 -5.834462182001602 44 53 58
-111.288748692502722 -57.431114245546539 -3.274785388189912 39 45 49
-111.310614949030608 -56.595882475139128 -2.053474372090221 33 38 42
-111.321372818305477 -55.889788902154194 -1.501301595559312 17 22 25
-111.315395067334237 -55.386194349227949 -1.952780622533311 4 7 8
-111.313273737500182 -54.838495118639422 -2.181150972616450 1 4 5
-111.318763880989621 -54.198323891799070 -1.963396340981092 3 7 6
-111.324376656651779 -53.556939878906306 -1.745595526350684 6 10 9
-111.326362278477461 -52.962157869225095 -1.750768001693899 3 7 6
-111.328471717010473 -52.367249815064113 -1.755882540987898 2 6 5
-111.332585359517623 -51.747755969207354 -1.649432464954799 2 8 6
-111.340587969603320 -51.078121947961876 -1.319920268334982 2 8 6
-111.348728144533396 -50.406709074938007 -0.990360571780059 0 5 1
-111.349482406531692 -49.834622825290161 -1.106747391505024 0 6 2
-111.340955575088046 -49.390696157021438 -1.780549468169056 13 18 16
-111.332550816330709 -48.949908188510939 -2.454260837465085 27 33 31
-111.322383803351968 -48.538355430273462 -3.239373215354732 40 46 44
-111.306677304248225 -48.209603718182393 -4.358860006416535 43 53 55
-111.296750124161775 -47.806233845428224 -5.143773418521590 37 47 49
-111.302068014878301 -47.191168799098953 -5.036701646414571 33 43 45
-111.303753552608882 -46.629781199950934 -5.152532820437187 37 46 48
-111.288543952355596 -46.316003477956890 -6.271627761989805 38 47 49
-111.298091428717200 -45.646861307796044 -5.941371443768674 35 42 43
-111.286935132441116 -45.284104102300127 -6.837313699180100 30 34 35
-111.277804604242121 -44.897264588348762 -7.621675840465542 25 29 28
-111.293521918728018 -44.142696222347773 -6.956770572820972 16 20 19
-111.318943350307848 -43.240424973747579 -5.734448844189302 15 20 17
-111.354105748227823 -42.186321533066469 -3.954735531074448 15 21 17
-111.393324947245745 -41.064432461652203 -1.952061439928656 11 17 15
-111.425160689316698 -40.051105934861255 -0.395237620150851 5 11 7
-111.434290461763069 -39.389178759184411 -0.175965747408725 3 10 5
-111.449356708126601 -38.635274629064895 0.377776003870935 2 9 2
-111.449291716725611 -38.122340931712834 0.039888373223505 0 7 0
-111.453239078453578 -37.549289528077949 -0.074980813350720 0 7 0
-111.463140738199868 -36.883417679568609 0.144619723130859 2 9 2
-111.475173208082126 -36.184880002249322 0.475762271012258 2 7 1
-111.483562195996100 -35.547631660969913 0.584074901692844 4 9 3
-111.484429557200698 -35.037065761041042 0.246657678264370 4 9 3
-111.493221816862984 -34.399302553691157 0.355157932991943 3 6 1
-111.504165091437699 -33.728296503071682 0.575203925515524 5 11 7
-111.515331244445576 -33.055913013568748 0.795342363647137 4 10 6
-111.526724136661926 -32.382145153199616 1.015575023014179 5 11 7
-111.546141798364431 -31.573971417439392 1.681698737083480 4 10 6
-111.559966535221818 -30.862776550079928 2.013568412526922 7 13 9
-111.564258466550342 -30.318656977920448 1.788302991823599 7 13 8
-111.570722751028569 -29.741254797385590 1.674593107733585 6 12 7
