ply
format ascii 1.0
element vertex 681
property double x
property double y
property double z
property uchar red
property uchar green
property uchar blue
end_header
60.781680937919333 -1.822968428025961 -84.502208421540900 141 138 121
59.253208498982247 -2.164533311712041 -85.984654245392676 141 138 121
58.110888078899961 -2.276950295484803 -87.099898181291707 141 138 121
58.822409347362949 -1.239353749771018 -86.453238055438135 142 139 122
57.680389003745660 -1.360701624382932 -87.568533616743508 140 137 120
56.538425742181417 -1.489893922771264 -88.683775739312807 139 136 119
54.855664441022469 -1.970572108644222 -90.312696107072640 139 136 119
54.331935236361289 -1.722439210219118 -90.840712201774238 139 136 119
54.813045424261091 -0.832068913580555 -90.414885385781901 140 137 120
54.135214488398049 -0.686755862220906 -91.089839133995923 143 140 123
52.916448129577716 -0.897455020684796 -92.278358811961056 142 139 120
51.852326606116804 -1.015543582736533 -93.320095566635530 143 140 121
213.818114679251096 -1.497593027299596 62.337223556285181 158 159 154
205.028064295397883 -3.232440568811974 53.922298306472754 175 174 170
202.950984955215574 -2.818543909967246 51.918515604097792 178 177 172
199.870790556746272 -2.753091771077038 48.957040917737828 174 173 168
196.250418391749605 -2.890963689348406 45.480066145528497 174 171 166
193.247357081244161 -2.844491273431525 42.592745507020311 178 173 167
189.781267315241905 -2.978104030049001 39.263636492118223 175 171 163
185.234744893511220 -3.510844828802117 34.903486792859240 175 171 162
182.540303832324014 -3.426584463861632 32.311569854278474 175 171 162
178.533888309140849 -3.825563031065548 28.467670178683449 173 169 158
176.765546493109582 -3.452751572867244 26.760046953309796 170 168 156
174.071105358402860 -3.426610828930377 24.168728304356364 168 168 158
170.836401408161748 -3.616287833263037 21.062078860545796 168 168 158
169.068142531611471 -3.289068689937172 19.354885261809301 166 166 156
167.299931698834598 -2.974229477149207 17.647796111940522 163 163 153
165.686142863379246 -2.613876138352673 16.088081277945037 162 162 152
164.226788956758355 -2.206371936102540 14.675717725670580 159 156 151
161.764022121025903 -2.192427963123887 12.306269088452950 160 157 151
159.532846434115982 -2.106465772700366 10.157863374536987 158 155 148
156.761330279513572 -2.246377978862314 7.494267532423265 158 155 147
153.681018542963784 -2.526962186278714 4.536410906145107 156 153 144
151.218276994386713 -2.584533039187897 2.167686309667772 153 150 141
149.527562606550873 -2.350845418315585 0.535217345197935 152 152 140
148.068515632856304 -2.035592568706141 -0.876343453220557 153 151 138
145.760265690090449 -2.075879225670577 -3.097436449435747 152 150 137
143.452031990682599 -2.132331461649468 -5.318370815992125 150 148 135
141.761505864965841 -1.949405982053393 -6.950407324193606 149 146 131
139.453321832646878 -2.036002358375451 -9.171055162535339 145 143 132
138.071751535178805 -1.748898293357718 -10.508531902791731 146 143 133
136.690256979327842 -1.471402898465347 -11.845945970709522 144 142 130
135.154394527056809 -1.269581507952810 -13.330449785407325 143 141 129
132.460224873278435 -1.578067333952878 -15.918453830520036 141 139 126
129.611580760103607 -1.972601029872803 -18.653389859640725 144 141 128
128.153053775685834 -1.777742956777067 -20.063960135231042 147 141 127
126.617363064869977 -1.627153180013528 -21.548018757715454 145 142 127
124.154897879582450 -1.900057126795533 -23.914659033733898 146 143 128
122.078620709119093 -2.016836029118918 -25.913362981213282 145 142 127
120.002362393912264 -2.148125706484985 -27.911926582285560 143 141 126
118.853072325424833 -1.871267125730766 -29.027843271218444 143 140 125
117.472128405076887 -1.708833407955854 -30.364336373628873 145 142 127
115.241481190111955 -1.949439088536921 -32.509633379562018 144 141 126
113.242601182785762 -2.097518184907491 -34.434182791049238 139 136 121
110.857442218708030 -2.441142405262122 -36.726219254087738 133 130 115
109.631207287908111 -2.252595973871078 -37.915275628238106 141 140 125
108.405058006341520 -2.072523005408853 -39.104285755077484 138 139 123
106.947183918001770 -2.012340589623916 -40.513782089717608 143 141 126
104.252990296461476 -2.560906089297725 -43.099303408048371 142 140 125
101.713292310654936 -3.052993348107639 -45.537598498011931 142 140 125
100.332770358574805 -2.993425871657562 -46.873234614697793 143 140 125
99.261457459833565 -2.790465231889588 -47.914835760803697 145 144 124
98.035663494512733 -2.671892536984208 -49.103382816506326 142 141 121
96.887245298158476 -2.522988096177488 -50.218399509838093 143 142 122
95.584321073948317 -2.460116183801069 -51.480333242852680 143 142 124
94.513376584875246 -2.288227969545557 -52.521790790795848 143 142 124
93.442530432945745 -2.123687034652257 -53.563219753653897 143 142 124
92.681027443128841 -1.806926621212800 -54.310768756806368 143 142 124
91.223817434264035 -1.856800463297831 -55.719449920441264 144 141 126
88.916135113761953 -2.361640319521486 -57.936032585750382 143 140 125
87.690951302531673 -2.312587697147353 -59.124155932048069 145 140 127
86.388514681889006 -2.312969226036963 -60.385671833491244 146 140 128
84.622135245664666 -2.569970015139392 -62.087750880786047 143 140 125
83.474480334512506 -2.506893402520266 -63.202249258190392 144 141 124
82.713634660763290 -2.242573020381244 -63.949572927510758 144 141 124
81.720873854364584 -2.109667605690180 -64.917173126794353 146 143 126
80.109373232471427 -2.322562040408735 -66.472081907006896 145 142 123
78.497890409505104 -2.546657777643825 -68.026883901531193 143 140 121
76.886422743376130 -2.781956190550055 -69.581577832266134 143 140 122
76.435548493197970 -2.380284424688327 -70.035169055239919 144 141 124
75.288455316517556 -2.372887379277096 -71.149363026733823 142 139 122
73.754522269400283 -2.592196254997551 -72.630454956855743 141 138 123
72.839723348494473 -2.469786869294728 -73.524384929108606 141 138 123
72.621596401455392 -1.954652042450927 -73.757912941637358 143 140 123
70.778255345064210 -2.377358412154842 -75.532327007782669 143 140 123
69.631548309649929 -2.409006569046452 -76.646303796052791 142 139 122
68.330085023672382 -2.538838105305322 -77.906952843507497 142 139 122
67.725454869844285 -2.268680574127888 -78.507351796962553 142 139 122
66.888704422490946 -2.139628485178304 -79.327829383196161 140 137 118
66.129511064613084 -1.970194032676067 -80.074966806225376 139 136 117
65.447895337233192 -1.759533251858259 -80.748782580158121 136 133 114
64.611534275809362 -1.646482845882204 -81.569281733924328 139 136 117
63.930206612018239 -1.445356178831380 -82.243137177068007 140 137 118
63.094105979061936 -1.342953306818613 -83.063651318504441 140 137 120
61.173551537295012 -1.909796331452322 -84.910501979674621 141 138 121
59.562819192902936 -2.299375473910233 -86.463959596754762 140 137 120
59.501752952760683 -1.740855215968546 -86.551353731300168 141 138 121
58.588541879482221 -1.713023943065471 -87.445069784388238 142 139 122
56.590427483401626 -2.370776744442227 -89.364739134187374 139 136 119
56.529906372308517 -1.822261525819897 -89.452291069705552 138 135 118
55.539464846030455 -1.862830921057349 -90.419215141284212 138 135 118
53.928907586057306 -2.305149636217166 -91.972213643234312 138 135 118
53.946502941794009 -1.715799914335433 -91.986697673858089 138 135 118
50.707632698850688 -3.223542754076477 -95.077786463737567 140 137 120
50.958127081898297 -2.494094584539320 -94.872554039655569 142 139 120
50.976302783775068 -1.913808949673130 -94.887222404682490 144 141 122
206.640489404896442 -3.042031809677231 54.035830767372232 171 170 166
204.169919140206787 -2.752799655121131 51.667281584273837 178 177 172
201.931593702549947 -2.403835084870440 49.519589070991401 174 173 168
198.841759112898529 -2.355996739172948 46.562907526670898 175 172 167
193.661739285993633 -3.037814204608144 41.620484256255850 178 173 167
190.029924217252642 -3.226073030784540 38.149502387730024 175 171 163
188.256085665062955 -2.797390513974252 36.443933673219902 175 171 162
182.456500654963122 -3.787098629471393 30.914206456521924 174 170 161
179.908451465024996 -3.670451893427347 28.473640549178668 173 169 158
177.205566018769105 -3.626800986142563 25.886181389017935 170 168 157
175.276928972539167 -3.323521713371210 24.034240812198846 168 168 158
172.109505891667538 -3.483741189807819 21.005960094889133 168 168 158
170.258346185790117 -3.183359266598440 19.227843332810551 167 167 157
168.639522723469554 -2.809886673060958 17.670402003970537 164 164 154
166.091564626672039 -2.795018811268629 15.230840179063051 162 162 152
163.775918729165937 -2.710321378710101 13.011998858224160 159 155 152
162.157224971826935 -2.376414336927600 11.454902747065830 160 157 152
159.609321236141909 -2.410906339098159 9.015823001864447 160 157 150
157.448630276116774 -2.313045947781946 6.944434046969803 159 156 148
154.978193044636356 -2.351490683363569 4.579194164081031 157 154 145
151.655860188004510 -2.743552268231845 1.405690449957291 154 151 142
150.114793177390140 -2.449315942040484 -0.077274795227027 153 151 138
149.658099713430602 -1.730076085491369 -0.531351014164329 152 150 137
147.962290082342435 -1.516243553626327 -2.161178053321891 150 148 133
144.794879518712861 -1.915909837799101 -5.187000012557576 150 148 135
142.556926068355267 -1.954446744087988 -7.330881735926909 148 146 134
139.776765651694802 -2.234098069087195 -9.988903787753003 145 143 130
137.771220136858858 -2.208315442421561 -11.912054089350846 146 142 130
136.230504036838965 -1.999948472324310 -13.394303312541410 146 142 130
135.309604454236705 -1.538013472454350 -14.288809656859627 145 141 129
133.691568873895847 -1.382158180212729 -15.844387861534358 145 139 127
131.143896590247323 -1.640493959840559 -18.281274196145773 145 141 129
128.596212951385155 -1.916623582643514 -20.717971937495321 144 140 129
126.358438182625676 -2.074042355235259 -22.860715430757750 144 140 128
124.818025265923040 -1.937470225567278 -24.342370675448905 145 141 129
122.812754024236497 -2.019620051339911 -26.264541185427731 145 142 129
120.497546740990174 -2.255521244252389 -28.480292255118059 145 140 126
118.492309335995401 -2.366692144366938 -30.402180223957060 145 141 128
116.487092767333763 -2.491825300497589 -32.323934440311319 145 142 128
115.411895897675080 -2.201697766687805 -33.364574760672696 142 139 125
113.794274959318230 -2.171252420362432 -34.919060421077432 140 137 122
110.859085926395764 -2.769409766995218 -37.721356541633952 141 138 123
109.396527422380117 -2.692879629851467 -39.128780143179966 143 141 126
108.631661124283980 -2.294680623166780 -39.875558439531517 141 142 126
107.479334601039383 -2.087357346455915 -40.989306737100634 144 142 127
105.784448005789812 -2.149852385414490 -42.616730974937866 143 141 126
102.926713174137944 -2.789444348766692 -45.344795527646170 142 140 125
101.464432345527314 -2.765688950598240 -46.751808731254044 142 139 124
100.079744244585214 -2.713805157686389 -48.085372684590112 143 142 122
98.850198298316258 -2.594452063610368 -49.272132838508583 143 142 122
97.077939306582437 -2.755079472868490 -50.972391146213596 141 140 120
95.926073998094665 -2.615498456157993 -52.085662782228496 143 142 124
95.472256317130686 -2.129757534783284 -52.538711244054042 143 142 124
94.320610499263424 -2.003494314124122 -53.651950796864327 143 142 124
93.479294352044718 -1.725558835972247 -54.471776699449947 143 142 124
91.629765999441673 -1.975482944404796 -56.245009318909467 144 141 126
89.780242216336717 -2.238263906153383 -58.018111782351269 144 141 126
88.008294273782923 -2.473183537558555 -59.717754167754123 146 141 128
86.934566196556162 -2.351445570027016 -60.757363834982954 147 141 129
85.395429972712392 -2.484674296797239 -62.236852649410025 143 140 125
83.468382536056723 -2.836298517106322 -64.082812439351102 145 142 125
82.550042042435280 -2.657598863305392 -64.975627559363602 144 141 124
81.864615142051690 -2.358806113123289 -65.648527267829394 146 143 126
80.558495014294152 -2.403608017885619 -66.907823750851094 145 142 123
78.786771715151957 -2.713341684041307 -68.606803506448983 142 139 120
77.558353012574372 -2.734839783507940 -69.792653077792806 143 140 122
76.407624184454804 -2.721551880092296 -70.905168403660952 144 141 124
75.800367572980235 -2.411693710540249 -71.504719527395366 143 140 123
74.339301433139070 -2.587276314829531 -72.910261947748893 143 140 125
73.266462319105131 -2.552711323883180 -73.949399576682168 143 140 125
72.193710964733967 -2.525454285211451 -74.988503965113352 144 141 124
71.975219193126208 -2.014841061106005 -75.221810903690510 144 141 124
70.203784981302107 -2.403086912930128 -76.920120792302242 144 141 124
69.597294166523781 -2.126199654280540 -77.519698884402118 144 141 124
68.291923182149731 -2.262250312807469 -78.778414485788659 144 141 124
67.452665375247605 -2.132936899638302 -79.597695249750132 142 139 120
66.924271625430876 -1.825226623435835 -80.124093101916657 138 135 116
66.706825554764293 -1.335752865097025 -80.357682701099037 139 136 117
65.945722835888517 -1.173347942384440 -81.103834333890063 138 135 116
64.252282742649399 -1.578122327614837 -82.728427320073394 140 137 118
62.714233373798820 -1.900426373512092 -84.206489834960678 142 139 122
61.020730249431566 -2.328206293734624 -85.830815859739658 140 137 120
61.037216229118940 -1.718626339411202 -85.844977408609424 134 131 114
59.965680633611285 -1.780030904709772 -86.883750773484167 136 133 116
58.660985766692590 -1.993477220452160 -88.141993154763924 139 136 119
56.656542834838902 -2.652717016490116 -90.058619648358501 140 137 120
56.051666583002174 -2.447305069060315 -90.658234410550875 139 136 119
57.080105655618596 -1.214666835977428 -89.721758798287709 138 135 118
55.464634916346157 -1.653074978013687 -91.272446962076685 138 135 118
52.604535940323359 -2.897415035542179 -93.993155540288768 142 139 122
51.611174665606313 -2.963254482576711 -94.958422696884526 143 140 123
50.228873119080504 -3.286992067147371 -96.289261910138521 143 140 121
50.169373634982222 -2.761442582253825 -96.377066190674896 145 142 123
212.210743577653744 -2.688051999841691 57.908070782659593 144 144 142
204.614060354550816 -2.940930329857201 50.680730278820846 175 174 170
203.222990251622605 -2.311226699386454 49.344271663499541 174 173 169
199.735223240232727 -2.391807971671580 46.024987088778573 173 170 165
194.694236416881665 -3.021156470804812 41.237228586441319 178 173 167
191.982984134045410 -2.890987844488846 38.652881521876822 176 171 163
189.504723974532027 -2.699450945077590 36.289016784442452 175 171 162
187.337137299125089 -2.417059136517509 34.219027241571581 173 169 160
181.519242472043231 -3.433257082205804 28.698332051686464 173 169 158
179.040950094856015 -3.304191409908921 26.335125774800360 171 168 157
176.484999844530591 -3.220260908759783 23.898676472304800 168 168 158
174.084403407579458 -3.097906325391641 21.609228689459371 168 168 158
171.916847205234433 -2.907095604995936 19.540167258526992 169 169 159
168.739522668559687 -3.104078661955753 16.517001789736838 165 165 155
166.338959932323235 -3.033824659654969 14.228074182038995 162 162 152
163.860731479798005 -3.009511541143556 11.865915594472995 163 160 154
162.470077161714386 -2.589665939903222 10.531418243225744 159 156 150
159.525787866490020 -2.774627011135259 7.729222420126689 160 157 149
157.669107674484621 -2.559692426593306 5.954626192071061 159 156 148
155.579403148791641 -2.448571770184703 3.959999960663481 157 154 145
152.945883771761146 -2.566018996842074 1.451873459694298 154 151 142
151.400088167947388 -2.269938043994482 -0.028848630380566 155 153 140
150.942118508232909 -1.548874875203802 -0.482333089912004 153 151 138
148.619491111359821 -1.584341506377984 -2.696597576310978 151 149 134
146.063772055213349 -1.730972087103858 -5.130784200269602 151 149 136
143.508051406276678 -1.895402126032856 -7.564786843477947 149 147 135
141.263157854392659 -1.948780523538959 -9.705195675140914 145 143 130
139.095991348509529 -1.985287464182676 -11.772103640645184 146 142 130
137.006558979641511 -2.004102488087405 -13.765522577713369 146 142 130
135.616595651374439 -1.740150004517598 -15.098745809946223 144 140 128
133.993552354964436 -1.585712387587709 -16.651913747574298 144 138 126
131.904237485685030 -1.643981195994884 -18.644982778419148 145 140 129
129.037697315834293 -2.055281902543340 -21.371184804105241 143 141 129
126.792940218987823 -2.213563063178395 -23.510579098550920 144 140 128
125.247769227906787 -2.077862145353790 -24.989949128947586 144 140 128
123.003052710090188 -2.264894606092954 -27.129066884686694 143 139 127
120.991552132548904 -2.362694536199515 -29.048096207359151 145 139 125
117.969442097565178 -2.932317723408746 -31.919962219827596 145 141 129
117.046357480861715 -2.564689168474846 -32.812452507708258 144 142 129
116.589873140844063 -1.988743536433970 -33.265153771384888 142 140 127
114.967277971926137 -1.956425716961052 -34.817279051246146 144 142 129
111.711882962355432 -2.697967361591937 -37.908349343220948 142 143 129
110.089313075185942 -2.693842892327077 -39.460196509467210 143 142 129
109.555463204744328 -2.184823219146881 -39.986056350981016 143 139 127
108.632937192606178 -1.865028748521634 -40.878321493111429 146 141 129
106.777288564709082 -2.000473671793873 -42.649804585611065 148 142 128
103.832826998387844 -2.676424378997045 -45.446863991832828 147 139 126
102.132721019565153 -2.765506312686794 -47.071517622195671 145 137 124
100.977124258646469 -2.598674498928041 -48.183284650301601 142 139 122
99.199327810260542 -2.747863646397773 -49.881011597499821 141 138 123
97.732716626893748 -2.754203311591129 -51.285643390629900 141 138 123
96.343955990419772 -2.731583427543804 -52.616957828812133 145 142 127
95.966652556034575 -2.207088989840319 -52.996150468423195 143 139 127
95.122705234793045 -1.922674976861593 -53.814784313188710 143 140 125
92.956136742075032 -2.322113838403872 -55.878242525558250 143 140 125
91.801110496449084 -2.214432092936200 -56.989673624857232 143 140 125
90.023626628425419 -2.438194071795186 -58.686782493813666 145 142 127
89.024384437001586 -2.267056383875168 -59.651675564712178 145 142 127
87.636108274820472 -2.307683601942088 -60.982570739540790 146 142 127
86.014388261230067 -2.481674483780106 -62.532991051607780 144 141 125
83.769983563955719 -2.999273168183445 -64.668855297023100 145 142 125
81.914734219938083 -3.323368464435108 -66.438587532503135 145 142 125
80.837962386728307 -3.239283498727159 -67.476353496039877 146 143 126
79.994846553967719 -3.035375984112069 -68.294556428213895 145 142 123
79.385436611680660 -2.709145509344245 -68.893245934230890 142 139 120
77.997526014491157 -2.816276361909228 -70.223631438779989 142 139 121
76.843275509895378 -2.803299571650978 -71.334458804249238 143 140 123
76.312125187775138 -2.450243983917519 -71.860004683745558 144 141 124
75.313845766285212 -2.363235238700913 -72.824492359010407 145 142 127
74.237777898777324 -2.327028234870306 -73.862102265412460 145 142 126
72.928110020339020 -2.431115105369265 -75.119091266734586 145 142 125
71.540589062665674 -2.588788235479494 -76.449142916439627 145 142 125
70.932192859551506 -2.307123581412828 -77.047858653421713 143 140 123
69.388973392385623 -2.571410303761124 -78.524045012453286 143 140 123
68.936670717394577 -2.210100742288428 -78.976537413446778 143 140 123
67.861126947195302 -2.217423182586360 -80.013949975769151 144 141 122
67.175346636197801 -2.002008452048790 -80.685822361966871 142 139 120
66.879434932025660 -1.559649380452391 -80.992248180819274 140 137 118
66.895550280235597 -0.932698902850822 -81.006411224382987 139 136 117
65.196880997730403 -1.335837960330559 -82.628519417595584 139 136 117
63.108347443587974 -1.986407053989366 -84.615865382541642 138 135 118
61.955369681102042 -2.082644678394113 -85.726177424638877 135 132 115
61.192355476473381 -1.948268710449392 -86.471126093085815 131 128 111
60.663444111459611 -1.674999008804875 -86.996921805780886 132 129 112
59.510746486526017 -1.791118618831291 -88.107163209457099 140 137 120
58.670123940738662 -1.720927119840715 -88.925182515450814 139 136 119
58.453725659597907 -1.265740704619063 -89.158920436703625 139 136 119
56.833198206258473 -1.695507209737693 -90.707278438525890 140 137 120
56.461099460537156 -1.346293731359328 -91.087156728385708 143 140 123
54.684528459019035 -1.893364131327338 -92.781374333554623 141 138 121
53.376149315590197 -2.153083139306541 -94.037377861513960 144 141 124
52.458062033088794 -2.170581245721886 -94.928294554751119 144 141 122
51.383940565872834 -2.295274082086325 -95.965179389496910 145 142 123
210.890639262949037 -2.334098564637860 55.210194193741842 163 162 160
205.444551045463726 -3.001829418443076 50.062335474042925 175 174 170
201.945887021821420 -3.065682288216415 46.748091798780962 175 174 170
198.758804331008918 -3.050120668228119 43.727406768349027 173 169 166
195.571702874607581 -3.056749737649923 40.706959135224224 177 172 166
193.007838125303465 -2.873650483298526 38.273275308116581 177 173 165
190.677709640035459 -2.628100648962850 36.059706673044133 173 169 160
188.035959325125901 -2.506885203849413 33.553061149768610 173 169 160
184.615088475192408 -2.677101413798094 30.313555223070267 174 170 159
180.415038123171200 -3.146910884088236 26.341301114093625 171 169 158
178.084911900559916 -2.977573644279338 24.128515891095276 168 168 158
176.456073879673426 -2.571325870399043 22.575528121350118 168 168 158
172.567592447604341 -2.999807906481805 18.897230644677677 166 166 156
169.068661170282041 -3.312032236623174 15.585671434872864 164 164 154
166.037234727014692 -3.474974961900020 12.714076193899928 162 162 152
164.798112879154587 -2.987136587724426 11.528104114380028 163 160 151
163.403212791818419 -2.566818593718665 10.195633062013883 157 154 145
160.995273109228492 -2.542972713017018 7.910712262274586 160 157 148
157.730072052223932 -2.866165574219173 4.820026875591594 158 155 145
156.335305750249091 -2.484836049088991 3.487893148663431 157 155 143
154.550919339079201 -2.266006232821702 1.789530613001943 154 152 140
153.234231375343995 -1.874447120600166 0.530798063331730 155 153 140
151.605848759469723 -1.616442614350576 -1.020881628185577 153 151 138
149.353955785471044 -1.620832203644659 -3.158446226713721 151 149 134
146.244642497559170 -1.989157512141024 -6.101525446998522 152 150 137
144.538420225238326 -1.804215266235551 -7.726073732055255 149 147 135
142.442480566360928 -1.792122454825273 -9.716697753763754 145 143 130
140.190653453088430 -1.859519526766326 -11.853645292166419 146 142 130
137.938841093135096 -1.942528871763298 -13.990439183536893 146 142 130
136.700561389363003 -1.611750867904251 -15.175197440609821 145 141 129
134.760676690134801 -1.589213174282947 -17.018867364681540 145 139 127
132.898796215817754 -1.546519746368285 -18.789202830752629 146 141 129
130.023319069446075 -1.956759554872108 -21.511140357861024 143 141 129
127.849576853006255 -2.079863779598812 -23.574011136626837 144 140 128
125.909782142899815 -2.114833939196548 -25.417132153963308 145 141 129
124.047999173404492 -2.128549478154543 -27.186933620173448 144 140 128
120.392595687350692 -2.958879005864573 -30.640021714431640 145 139 125
120.714480479293627 -2.018487371561997 -30.360254679390579 146 142 130
119.320768908827631 -1.856473953567377 -31.690635455391600 144 142 129
118.395104454460636 -1.489430945978084 -32.581885530443998 145 143 130
116.143573518068635 -1.741378132599156 -34.717075091810699 144 142 129
113.502022337583554 -2.190508918001473 -37.217945020044311 144 142 129
111.250456884955696 -2.475036648638467 -39.352782701055446 145 142 130
110.403064875992030 -2.111602452506578 -40.170582013463587 137 133 121
109.009698513811273 -2.013865729334566 -41.500466303615326 147 142 130
106.992257130418864 -2.225005912864401 -43.415486896966257 147 141 127
104.428665056355172 -2.713928658243242 -45.842383710936161 147 139 126
103.035413721095921 -2.651197657493001 -47.171962698086645 146 138 125
101.486168099307562 -2.674504104161209 -48.647746696438361 141 138 121
100.015006387368544 -2.669953870909384 -50.050313627492756 141 138 123
98.465861809184858 -2.714299676641889 -51.525929396066545 140 137 122
97.072851126278010 -2.691170234244193 -52.855215871743297 145 142 127
96.382338453847879 -2.323522344358898 -53.526391324837363 144 140 128
95.379759551782513 -2.118928460200136 -54.490032506237100 145 142 127
93.440597410614942 -2.399838596567593 -56.330924558655141 145 142 127
91.579491403674353 -2.653991139880959 -58.098574942559992 145 142 127
90.108722856656101 -2.718777748944573 -59.500616243415067 145 142 127
88.950291470166391 -2.630775435629627 -60.610215764715491 145 142 127
87.089248858273990 -2.919643854502929 -62.377539128647243 145 142 127
85.774777862766044 -2.932450477804163 -63.633169928666632 144 141 124
84.304194183385690 -3.037350980033774 -65.034886757112133 144 141 124
82.521277344269848 -3.319665364865497 -66.728793801991770 142 139 122
81.441245379626082 -3.235336436124846 -67.765002641059340 142 139 122
81.064246174624557 -2.776874763804938 -68.143661114538645 142 139 122
79.593898176806235 -2.917999179197547 -69.545117821300067 144 141 124
79.451556440837976 -2.339247095244459 -69.704697178500652 144 141 124
77.747008714191921 -2.625488494801133 -71.325196430503269 143 140 123
76.667479715615315 -2.575526125942782 -72.361292134548137 144 141 124
76.213113287054199 -2.182679721061328 -72.813121867479651 145 142 125
75.290093812968337 -2.057000447081601 -73.703152813871554 145 142 125
73.429428547153989 -2.469492072574876 -75.469384183104921 145 142 125
71.803181816010863 -2.761035024180887 -77.016428906503762 145 142 125
70.724047582993009 -2.749559180009284 -78.052317303906250 144 141 124
70.113996830102352 -2.474366774547760 -78.650174887840308 141 138 121
69.347765028840925 -2.294016887203191 -79.394057501734864 140 137 120
69.285294444032047 -1.707157854554124 -79.481071507849720 144 141 124
67.424781663507318 -2.178535263547634 -81.246769684571689 143 140 123
66.346153284100467 -2.199909680064876 -82.282561936371934 140 137 120
66.753441131690877 -1.343723099500835 -81.931925780575881 138 135 118
66.535417099303004 -0.858966175959968 -82.165190332101787 136 133 116
64.362217210965255 -1.553644721135825 -84.222437057158004 137 134 115
62.658229453413767 -1.978997614126038 -85.841772251970497 140 137 118
61.892983430572471 -1.843780189229702 -86.585661887773682 137 134 115
61.206116605130589 -1.665612045913190 -87.256631091352119 133 130 111
60.128161519524340 -1.733211238142550 -88.292269629760966 134 131 112
59.911105642410618 -1.274105186997960 -88.525733306135976 139 136 117
60.163898491767583 -0.523090343050659 -88.321822457071789 141 138 119
58.695026979286965 -0.850154089396866 -89.722071542416359 142 139 120
55.503921453871456 -2.274000591461604 -92.726015511666475 143 140 122
55.678942172815368 -1.584290853685705 -92.595126582658850 142 139 121
55.776014304471502 -0.942729160018179 -92.537310589593119 142 139 121
53.915682303733746 -1.556085019920643 -94.301633795226479 146 142 124
52.838418434619754 -1.677092128867678 -95.337053254719279 145 141 123
212.675192900791387 -2.093031363057613 55.462577273733018 157 156 154
206.274357555677199 -3.062528047498083 49.444265915535738 173 172 170
200.654833168808864 -3.819804268425561 44.158582430386843 174 172 169
198.004845648017977 -3.630290546205303 41.655174529693738 173 169 166
196.839731530822263 -2.961069206061167 40.542789224434074 177 172 166
193.955330520173050 -2.882611336176712 37.820090432703353 177 173 165
189.976757229251234 -3.198794134484475 34.072877755107868 173 169 160
187.639413802688836 -2.974942167110445 31.862984070264588 173 169 160
185.614725352192266 -2.658071748950650 29.945995370602503 174 170 159
183.355591561266124 -2.437944642689936 27.809583690938155 171 168 158
180.471181058021983 -2.456247629299273 25.087885448536667 168 168 158
176.883279143916923 -2.747632256602745 21.707816087952182 168 168 158
173.764331283741967 -2.893560854622526 18.767056772950042 166 166 156
169.863669025796270 -3.347768831233554 15.094851371654073 164 164 154
166.979164356539172 -3.452870139725857 12.374091636681300 162 162 152
165.345422862848181 -3.110611877202302 10.824108347704055 164 162 150
164.493498378404922 -2.484807116717071 10.005776644006716 158 156 144
161.765403522515328 -2.578935016794746 7.431795805482494 156 154 142
158.490038130920908 -2.902153175385606 4.345973262025609 158 156 144
155.605545798860987 -3.096587494552959 1.626127174535952 155 153 141
154.988413152881606 -2.424407147007464 1.027571147663309 151 149 137
153.589525584186703 -2.064849029629583 -0.302366875355517 152 150 137
151.956142212717111 -1.808265178416782 -1.851639599021240 153 151 138
149.540887394954723 -1.876844272372530 -4.132109486473723 152 150 135
146.734660459322669 -2.120451712820061 -6.778032422782957 151 149 136
145.335988463114347 -1.808633585813360 -8.107582163237055 149 147 135
143.702789170746826 -1.603053028806661 -9.656417947185105 147 145 132
140.740176954999043 -1.960927464728208 -12.448068263784506 146 143 130
138.481391558545312 -2.044524805172279 -14.581520225862278 146 142 130
136.848299893927759 -1.879497076339862 -16.129990067924638 145 141 129
135.058840784379868 -1.792311841764583 -17.824570758257892 146 140 128
133.112995521111742 -1.784607136714483 -19.665236485521206 144 140 128
130.854305668988928 -1.925721770833191 -21.798142101281314 142 140 128
128.595622315993694 -2.082443730269488 -23.930890172161895 143 139 127
126.336943538739689 -2.254772747762408 -26.063479780772468 143 139 127
124.625872323424147 -2.200012108503456 -27.684368323446535 144 140 128
123.071314597847376 -2.087134543602695 -29.159012839998326 147 141 127
121.907998885152509 -1.808838041150453 -30.268234510068623 146 144 131
121.292457259559001 -1.290023506130871 -30.865973004287611 143 141 128
119.346926337158109 -1.383338564477021 -32.705749263971740 144 142 129
117.166678294643418 -1.598187036683395 -34.764563308215799 145 143 130
114.282173001816929 -2.154932139197003 -37.480673748416876 142 140 127
112.493160179714096 -2.219411330227093 -39.173906783011660 146 143 131
110.078112248617657 -2.591120732997762 -41.451355371787827 134 130 118
108.836969090743935 -2.422443845209439 -42.633075174013356 147 142 130
106.969779442708486 -2.561545663788815 -44.398999439777612 147 141 129
105.572233350606950 -2.487371668436860 -45.726641618467852 148 140 127
104.018205495900233 -2.498685810448918 -47.200261255799859 147 139 126
102.229390169040983 -2.635377051023113 -48.892845456540016 141 138 121
100.675448118771357 -2.668832393887678 -50.366278231917448 140 137 122
98.651825031054258 -2.945687103814538 -52.277665086476219 140 137 122
97.489411712219123 -2.806777505130469 -53.385883679253396 144 141 126
96.483683070897087 -2.597082024384271 -54.348070549485698 144 140 128
95.947875106401980 -2.156471119419018 -54.872289479699248 144 141 126
94.002711862899332 -2.437425010874876 -56.710310174937121 144 141 126
91.979228897334551 -2.771961567196319 -58.621170315231439 144 141 126
90.112358132349996 -3.039572571178490 -60.385924323951400 145 142 127
89.420310023200400 -2.709202392550118 -61.055981511173229 145 142 127
87.631832292237263 -2.957393203646180 -62.747579495541004 145 142 127
86.548346497184284 -2.846406731577408 -63.782410433464577 144 141 124
84.916592311023436 -3.033622805124118 -65.327894298226141 144 141 124
84.616690136347856 -2.520919837413730 -65.633135174728380 143 140 123
83.298459716626084 -2.557399274658421 -66.886723802923967 140 137 120
81.275099324908624 -2.984335608732690 -68.796691464796567 141 138 121
80.113656112809196 -2.955955519131992 -69.904236417548702 144 141 124
78.952292749569523 -2.935448110319602 -71.011738532263337 143 140 123
78.653102372716603 -2.447394235880384 -71.317066204904393 142 139 122
77.570341463156041 -2.396067024044366 -72.351629822827022 143 140 123
77.114747504638672 -2.001834539971944 -72.802886577244522 144 141 124
75.640263025086128 -2.183169557406566 -74.201950497396012 145 142 125
74.479393168518186 -2.197259323499100 -75.309332577909402 145 142 125
73.161790536936564 -2.308437010718436 -76.562452631187199 144 141 124
72.236288315208526 -2.204125743645877 -77.451075887987770 143 140 123
70.213054399766008 -2.738415691389712 -79.359999011001520 141 138 121
69.366105529920731 -2.604928736360116 -80.175643357176682 141 138 121
68.754576182498027 -2.339860500967307 -80.772689373386385 143 140 123
67.751021425659857 -2.308790934215429 -81.734077536237606 142 139 122
66.119994388100224 -2.654806400166592 -83.278274664477522 140 137 120
66.842547767632510 -1.614797602617029 -82.636917093264515 137 134 117
66.702456244002235 -1.084565423200252 -82.797073504582812 136 133 116
65.934879303091790 -0.931965474391470 -83.540026964222278 138 135 116
63.284005676652541 -1.922457846784929 -86.030864559494489 140 137 118
63.772276724368581 -1.023456396486926 -85.608552319093405 138 135 116
62.455614191553835 -1.224071815277825 -86.861201484898174 134 131 112
59.176452228542558 -2.640316503948869 -89.933956690439231 134 131 112
59.586837049967443 -1.797873831541306 -89.584660643359030 139 136 117
58.662809291099165 -1.782105827353737 -90.473077857852502 141 138 119
57.738885650546706 -1.772484814052197 -91.361481608126184 142 139 120
54.851676029859604 -3.003997837572352 -94.069352581963187 143 140 121
54.163366431732612 -2.864717095444268 -94.739231280478691 142 139 120
54.417854098588421 -2.130261571426375 -94.535960772897909 142 139 120
54.594155065811833 -1.443662409781046 -94.405652291556066 144 138 122
51.785063307396172 -2.675666234124093 -97.040030645958268 143 137 121
214.229803161586233 -1.927193483804563 55.493162195569113 159 158 154
207.573838426270356 -2.970641364993163 49.265088425190527 175 174 170
201.544840833861258 -3.854863880992650 43.622307815400802 172 171 167
198.024329574033572 -3.950752414924194 40.318845542228445 175 171 168
197.404465042701418 -3.101127530985903 39.719769914190863 174 171 162
196.314311141239330 -2.414644196161496 38.682205097203905 174 171 162
191.069001713886820 -3.153780890521369 33.771606163467112 174 170 161
188.018842428551864 -3.172431982112940 30.907487383657042 172 169 160
186.066333015778696 -2.829956361294656 29.066563797463715 173 170 160
183.721830206948425 -2.638819158033885 26.860431886058620 171 169 158
182.788707414718203 -1.962644967649599 25.969567811716246 169 168 158
177.386253810614306 -2.895593190781095 20.914423343079250 168 168 158
173.630328219916407 -3.269765972563916 17.393870343662201 166 166 156
171.677896298376822 -3.010680423209320 15.553768061825394 164 164 154
168.549239828583495 -3.199082637524818 12.618090514655790 162 162 152
167.381054707519525 -2.678918357802719 11.508708686322990 162 160 147
165.193466688772844 -2.550000764693906 9.449867504745441 163 161 148
162.535356909624284 -2.614685557185129 6.952961857620153 156 154 142
158.857690736543816 -3.088056516436304 3.506849802659730 155 153 141
156.356400534229635 -3.132397070205522 1.156430563881145 154 152 140
153.776681913485845 -3.224570483307821 -1.266835305621015 151 149 137
152.608787250369403 -2.779362801058504 -2.375584522127639 151 149 136
151.754733472873852 -2.217671307469037 -3.192237629263417 152 150 136
149.645751184369601 -2.164007244018788 -5.177050015445701 151 149 134
147.615239530668362 -2.093206341430881 -7.088719997516421 150 148 135
146.133880345339946 -1.812834340590501 -8.489247664270096 148 146 134
143.475864621934562 -2.025744804460721 -10.984672546042816 147 145 132
140.896285176261415 -2.224518192132690 -13.406907709332245 146 142 130
138.944329832031912 -2.179048796261312 -15.245039125741272 146 142 130
137.384696727044542 -1.981861855104115 -16.718123436943188 146 142 130
135.982049652781086 -1.728760077481915 -18.045167116800314 147 141 129
134.344088847567548 -1.585976733666967 -19.591078606061956 145 141 129
131.843050069801677 -1.826762956394039 -21.939596011526191 143 141 129
129.185056774585632 -2.153043481359032 -24.433864647876788 144 140 128
126.762454203404772 -2.394479249834443 -26.709040094693307 143 139 127
125.124608869139323 -2.305914748753240 -28.254448723075285 144 140 128
123.565298380388924 -2.193630462015681 -29.726813427105725 147 141 127
122.790888789397641 -1.739837485666555 -30.469598501505772 143 144 130
121.231735600256428 -1.646158215961870 -31.941846946343418 143 141 128
119.515660232432623 -1.634681320307826 -33.559895978293468 143 141 128
117.564144427458388 -1.743091908716457 -35.396653704794716 146 144 131
115.612649259130293 -1.864912236710606 -37.233283270610684 144 142 129
113.504167216116798 -2.073322273178191 -39.215637312155764 147 143 132
110.453604467602091 -2.738618015220118 -42.072906838330084 135 131 120
109.130181358725778 -2.607946889689048 -43.325731866545112 145 139 129
107.806835735131202 -2.486288562985321 -44.578501190187382 145 139 127
106.876163299126247 -2.185192595825148 -45.466676637974018 147 139 128
105.003328360890237 -2.345929841174868 -47.229677511940338 148 140 128
103.209036558126471 -2.481286173618246 -48.919655526259589 144 141 124
101.257701887621465 -2.705982316068040 -50.755302921245374 142 139 124
100.013201029446563 -2.594969887501102 -51.934822841909124 140 137 122
98.925865584710721 -2.414273419112176 -52.968529680631377 143 140 125
97.602991994890417 -2.358948739305456 -54.220842018062541 146 142 130
96.908599115996381 -1.995670960852280 -54.890116209932188 145 142 127
95.193127509001911 -2.155602593017510 -56.506689684908395 144 141 126
93.163432588913921 -2.487973951830693 -58.414600334917196 146 143 128
91.212281416878000 -2.793865136715154 -60.249499733581018 144 141 126
89.653971202800051 -2.909551789009656 -61.719996346187912 145 142 127
87.938541639218442 -3.117892231428886 -63.336091638386279 146 143 128
86.223122303761770 -3.337992385530594 -64.952070775064584 145 142 125
86.000872526934472 -2.780303757790540 -65.184064467604344 145 142 125
85.071502182853166 -2.600332641241475 -66.071616032768844 143 140 123
83.356261723002959 -2.847673512142963 -67.687400340541586 143 140 123
81.248000124377185 -3.318714765138899 -69.667156446879858 142 139 122
80.554666423920921 -3.036315697900240 -70.336104820879058 141 138 121
80.490415724660963 -2.414902719006069 -70.422622907469417 141 138 121
78.696717885372735 -2.744454273864236 -72.110886122899785 140 137 120
79.969524103823915 -1.389805411300099 -70.959994177524180 141 138 121
78.018758497018069 -1.820694137176551 -72.793791366789662 143 140 123
75.281526755823691 -2.705601781910463 -75.355261257537336 144 141 124
73.881128962707706 -2.855799445489800 -76.679229622037070 142 139 122
73.581933585807064 -2.390902059577440 -76.984316541303201 141 138 121
73.833592364218532 -1.613441972735584 -76.780135370756000 140 137 120
71.961518504332261 -2.053521943005272 -78.540624926998703 139 136 119
69.932038742143519 -2.597408916899423 -80.446461271326712 140 137 120
69.004032017217554 -2.515007012070113 -81.333660858310225 142 139 122
67.525304642439266 -2.760898007405825 -82.730030484818514 141 138 121
66.990955985341259 -2.461317471276367 -83.253495846254793 140 137 120
66.378087033676138 -2.211675375760213 -83.849742211379521 135 132 115
66.473805883287042 -1.544207069184862 -83.791545482602999 135 132 115
64.837979877575776 -1.912699673946622 -85.333215432447332 140 137 118
65.406527135447391 -0.964559579293679 -84.838953979651848 139 136 117
64.951911514736054 -0.632030147831769 -85.290043627004849 140 137 118
61.995717957139078 -1.230288622603663 -88.082290213991797 138 135 116
58.075980889472291 -3.049751677458920 -91.731317035334513 139 136 117
57.621606604591690 -2.748048032786772 -92.182204831612694 141 138 119
57.009879763822852 -2.547336780799328 -92.778493908922172 142 139 120
55.846804817492682 -2.696339239530732 -93.883432357932094 143 140 121
54.604977385287299 -2.902884174704430 -95.060962458943777 144 141 122
55.333352245071680 -1.868505008003536 -94.422331915310593 144 141 122
54.170623545534113 -2.034517097425892 -95.527260918925634 141 138 121
52.140848098357026 -2.764364898136122 -97.431041620359593 140 137 120
216.960312335820277 -2.505656974357914 56.631745849571473 126 127 122
211.463234925465940 -3.142931614350854 51.507966683856154 153 152 148
208.875606278648206 -2.878576019254393 49.084815011528377 171 170 166
204.557927987631246 -3.196724436656847 45.056413697046594 173 172 168
198.360273876658255 -3.109909646416396 39.262604642990283 174 171 162
198.525179751814790 -1.999521607801356 39.394002225513873 174 171 162
193.420899229197630 -2.680495870083716 34.637054621867520 174 171 162
189.496230108369332 -2.991309446114628 30.974857990885681 172 169 160
186.751261841081686 -2.919713790412648 28.407243458725020 172 169 160
184.871475193038378 -2.563743602028971 26.642249529715087 170 168 157
181.339976015166599 -2.805416120535359 23.345544466660385 170 168 156
179.381577596899632 -2.509119645574736 21.507913505656148 168 166 154
175.142093267390806 -3.049553248159058 17.555251446013386 168 166 154
171.846460893848018 -3.275312223285744 14.478121360916589 165 163 151
169.966745407295946 -3.002987693325349 12.713954395275266 163 161 149
168.087075056054175 -2.743571862109228 10.949898712777184 161 158 149
166.207450152636909 -2.497061858803405 9.185954134365659 161 158 147
162.439757800045015 -2.977484298532197 5.672123994609990 158 156 144
160.402816637031208 -2.823369562664088 3.762672276616655 151 149 137
157.972527916658521 -2.834727770651622 1.488805553316382 155 153 140
155.070173305860578 -3.046217930329000 -1.222319716917298 153 151 138
152.246475774319805 -3.246854099845863 -3.860327104906560 152 149 140
150.996444774211909 -2.844628812265281 -5.040199024875903 150 148 136
149.746500610940529 -2.450926711614121 -6.220024753845451 149 147 135
148.181884443227659 -2.192388744363327 -7.691356701851703 150 147 138
145.909098690544880 -2.231959990637972 -9.818564124202737 150 147 137
144.108500988240166 -2.093900696168488 -11.508339822196490 148 146 133
142.229252502581801 -2.000656572892555 -13.270886834876279 146 143 130
140.113940176749480 -2.018553550229635 -15.251934339156321 146 142 130
137.919945223415823 -2.083995342131455 -17.305709826400857 146 142 130
136.276921169181321 -1.931393267579220 -18.849300143814276 145 142 129
134.319110320222990 -1.924321827513669 -20.684235057383347 144 142 129
131.810329306951985 -2.167607194412108 -23.029022878973706 143 141 128
130.009992907756953 -2.121045073230376 -24.717981757110493 144 140 128
127.658649795761065 -2.327575633912024 -26.916747896862432 143 139 127
125.937097779142988 -2.272903610256101 -28.532621547953568 144 140 127
125.317789707897575 -1.740790268804272 -29.128695078778293 146 142 127
123.911309625969167 -1.564950207123998 -30.453109767251874 143 144 130
121.953755766939736 -1.647127992613701 -32.287248936808453 143 144 130
119.681267202762712 -1.885782430972241 -34.412549269815088 142 140 127
118.432431477754193 -1.671511245216903 -35.591058299304791 145 141 129
116.081224908784947 -1.974124806354838 -37.788900730180956 144 140 128
113.808747445550750 -2.256304235006977 -39.913758349250401 144 140 129
110.906211156771818 -2.849010720201647 -42.620872654215532 139 135 124
109.657534942436001 -2.681790257369145 -43.798973676336971 142 136 126
108.330180924491785 -2.560446633251519 -45.049822158470192 145 139 127
107.002903922653005 -2.448112507729213 -46.300614745549154 148 140 129
105.281842145725562 -2.534611419375234 -47.915269782272645 148 141 129
103.009374573788847 -2.900553252998832 -50.039269924791938 145 142 125
101.761029548896815 -2.781401507404075 -51.217034591353894 142 139 124
100.906696862229580 -2.476742078916194 -52.030908509130057 141 138 123
99.816121716245789 -2.294976212864553 -53.063076493727380 143 140 125
97.780102271859548 -2.592675298258476 -54.968318412118776 145 141 129
96.295669191079384 -2.627001875374785 -56.364136187270816 147 144 129
95.441729537855366 -2.352260701413477 -57.177890167275535 145 142 127
94.509109718366034 -2.123368396727947 -58.064390764908495 144 141 126
93.024900799074530 -2.183844100469645 -59.460046612051826 144 141 126
91.540738884130846 -2.254415500919775 -60.855621025836143 145 142 127
89.426011449341473 -2.663103314048036 -62.832925733597051 146 143 128
87.941894450716632 -2.756081746376068 -64.228290988358964 145 142 125
86.852005416833748 -2.651371525498793 -65.259994034168358 145 142 125
85.683369057545519 -2.595817659975124 -66.364377523287857 144 141 124
83.410931675115137 -3.137707371646477 -68.486580988466073 145 142 125
81.769250466265532 -3.356129591318088 -70.026994579061636 142 139 122
81.152768356242206 -3.031078813448899 -70.622288641062170 143 140 123
80.694184695412531 -2.624113942400276 -71.072246192996658 144 141 124
81.261143057582345 -1.658088999341565 -70.577408715672902 142 139 122
77.726724365369876 -2.949834713380170 -73.861908162161200 141 138 121
78.925156534370373 -1.639252880554835 -72.785841207307357 142 139 122
76.337216336834459 -2.434722508650678 -75.197934521406779 142 139 122
74.459206058936090 -2.849041071179642 -76.955849290732147 140 137 120
74.553798666213282 -2.160757088890728 -76.897328037690613 140 137 120
75.122162863479204 -1.201986942135731 -76.403088429795247 140 137 120
73.323308823676498 -1.594139017343995 -78.088240557969698 139 136 119
70.814068633007736 -2.407761903174718 -80.426937940071554 138 135 118
68.936127411829403 -2.872851332440443 -82.184363135858717 139 136 119
68.084365357642483 -2.752579046763530 -82.997568845912980 143 140 123
67.864324790214965 -2.267503151876422 -83.229871977320300 140 137 120
67.723489769209934 -1.736951681794613 -83.389675988662191 136 133 116
66.003620463375782 -2.144222615668229 -85.001599631902479 136 133 116
66.100082748882230 -1.478926255378553 -84.943736203375920 141 138 119
64.854185515588256 -1.618735086914161 -86.120006273737033 141 138 119
65.267109952523043 -0.765035683812954 -85.772041041195592 141 138 119
63.091908185989098 -0.881736395673633 -87.834279490774065 139 136 117
58.764805096323315 -2.941925359738533 -91.840240315414889 139 136 117
57.677028707263077 -3.030088106244327 -92.870968704921580 140 137 118
57.932875804274786 -2.290388885104763 -92.668402520076313 141 138 119
55.975922017888607 -2.931813738635354 -94.497072151315592 142 139 120
55.837006918397933 -2.443793230014877 -94.657356853976978 143 140 121
54.749650604485538 -2.555982601244871 -95.688038887876274 142 139 120
54.927479661895561 -1.871215518944126 -95.558442581128844 140 137 120
53.840398236441374 -1.993404307827131 -96.589153191695146 141 138 121
214.424225312804026 -3.633671162383469 52.867962583685397 124 125 120
212.617459146966297 -3.102230443006048 51.177088584877680 147 146 142
209.233076849442000 -3.091034611417324 48.029118179422511 168 167 163
204.192080537442564 -3.642067747474969 43.351416961968141 173 172 168
204.199733617785398 -2.567877579695232 43.336698575540964 173 169 166
202.077524705098256 -2.201191018330148 41.354991663210740 174 171 162
196.878604134306926 -2.881814206044659 36.532457035504564 174 171 162
193.888559237593086 -2.849150327287818 33.749910412385361 174 171 162
190.504025955549139 -2.972160657683402 30.603393688851497 172 169 160
187.829531537301193 -2.872765139484902 28.112637435844789 168 165 156
183.655952716884087 -3.315559683221430 24.238300243595859 169 166 156
181.297026238425076 -3.146704079985487 22.039297922003243 169 167 155
180.121674048457891 -2.572319188778186 20.932786674874933 168 166 154
176.184697671462686 -2.999481132666821 17.277675425256319 168 166 154
172.721096656507143 -3.281767099559135 14.059765053345046 166 164 152
170.362196524107134 -3.182818534018375 11.861469716145507 162 160 148
168.950270226372027 -2.749596212172859 10.537011113744171 159 156 147
166.591431322487352 -2.679730278697577 8.338985847174399 158 156 144
163.916935398392923 -2.745036416687824 5.849925671445590 156 154 142
