ply
format ascii 1.0
element vertex 682
property double x
property double y
property double z
property uchar red
property uchar green
property uchar blue
end_header
-103.079303322007817 -109.104911191146684 -16.204115666324100 24 26 21
-103.072191101437866 -108.544598885568718 -15.991567934463234 25 27 22
-103.073124576831916 -107.977394739161085 -16.218677650093213 24 25 20
-103.072059402920260 -107.412459931326012 -16.335861268337879 22 23 18
-103.071004739610331 -106.848070690692722 -16.453034242549393 22 23 18
-103.059883680787848 -106.287411060450111 -16.020690130513628 21 23 18
-103.050774787489814 -105.724214652198370 -15.698268402639059 22 23 18
-103.049737172989438 -105.159015965952818 -15.815441552788798 21 22 17
-103.048709339069191 -104.594362219869282 -15.932604414599751 15 15 11
-103.051733568084401 -104.031153062177822 -16.269531683358565 39 38 34
-103.056795845108255 -103.470296868646969 -16.716318621614249 31 28 23
-103.061876316193093 -102.911615280831825 -17.163074471584480 22 17 12
-103.062923744890753 -102.352578266387127 -17.390045603952558 23 17 11
-103.059929368827184 -101.791555594975605 -17.397252991387916 24 17 10
-103.058969903452947 -101.232341965920085 -17.514327148063330 27 18 12
-103.060049703191893 -100.675752286980611 -17.741257602582380 33 23 15
-103.061141770628367 -100.120249793207080 -17.968170997333885 27 14 6
-103.058180568775796 -99.560587643552225 -17.975348509806537 29 11 4
-103.053191795213635 -98.998030643401563 -17.872666918865036 43 20 13
-103.060420890132590 -98.453930587491556 -18.429103664445336 74 45 41
-103.063597006069941 -97.905670438105034 -18.765804393369024 104 71 68
-103.072904267034588 -97.370170322503270 -19.432017312851031 106 72 63
-103.078155956409049 -96.829966439946361 -19.878501052275766 110 76 64
-103.101798554456565 -96.330216327839921 -21.313500197332843 112 76 64
-103.121400026350045 -95.828478934055212 -22.528735289537934 120 79 70
-103.128775336406449 -95.303936805519101 -23.084900766726093 122 78 71
-103.125944911101186 -94.756767963687977 -23.091887116253247 123 78 73
-103.129263793989196 -94.225618288010452 -23.428343419255668 122 77 69
-103.136696504879112 -93.707320876233979 -23.984417156075182 125 80 74
-103.144152168825045 -93.191738556875237 -24.540451964421209 104 75 70
-103.149579928712242 -92.672715891996205 -24.986633443402042 115 109 101
-103.167343718121217 -92.194425939841977 -26.091647435392446 32 34 29
-103.174875615665940 -91.688074299921425 -26.647550757825542 72 75 69
-103.157768291313729 -91.100793403373061 -25.885767826006088 64 69 62
-103.146822732514650 -90.531431744587167 -25.453429329712066 32 34 24
-103.139993770224677 -89.974920555023374 -25.240706961264294 68 67 55
-103.137290107481505 -89.432889663041294 -25.247579780517384 71 55 46
-103.134598957621861 -88.890854780791841 -25.254446654723665 102 67 62
-103.131920866913674 -88.348815554385965 -25.261307326193275 110 66 63
-103.137509998365644 -87.841173452276166 -25.707294459720998 120 75 71
-103.132800341670162 -87.291339051423918 -25.604348380121365 135 87 84
-103.130168894300624 -86.750099598112783 -25.611178505111383 141 93 90
-103.127552893011583 -86.208854199569643 -25.618001301946691 146 98 95
-103.137364994049591 -85.725726158966793 -26.283433615590639 145 101 95
-103.136859624024851 -85.196056791428674 -26.399986420681813 147 103 96
-103.140516765790153 -84.687384968346606 -26.736049525968127 148 102 98
-103.129692017784976 -84.106818447151156 -26.303768571482010 149 101 99
-103.129244974461415 -83.577940601215943 -26.420285325749745 145 96 95
-103.116369765768781 -82.983321745527931 -25.878271067445894 141 91 92
-103.107655128211562 -82.408611231141506 -25.555779249454901 118 72 72
-103.101031917444047 -81.843849418840492 -25.343043377988636 116 67 70
-103.098583523854600 -81.301711992302714 -25.349795173967266 120 74 76
-103.098238180316230 -80.771695862010148 -25.466274992339095 122 82 80
-103.089594415174858 -80.192592317411126 -25.143794488894144 122 82 83
-103.083050720043417 -79.624521548757045 -24.931054638170167 122 80 81
-103.076528108922886 -79.055349846514900 -24.718316033390181 120 79 78
-103.067942883448865 -78.471856385625642 -24.395852712382691 107 73 73
-103.042691496441876 -77.778782558829178 -23.195619312316722 96 78 78
-103.009095852002375 -77.024658547076470 -21.556570656945553 11 8 6
-102.975496545617503 -76.262362964985996 -19.917607867515102 15 15 14
-102.960698506186191 -75.620659097750661 -19.266139269602519 13 19 17
-102.956371634312191 -75.048568752848141 -19.163239158668915 12 18 16
-102.956259219671281 -74.505615709223378 -19.279740710802457 9 15 13
-102.951998928581915 -73.932939190745628 -19.176814781628792 6 12 10
-102.943585627403621 -73.328906984601190 -18.854480628250201 9 15 13
-102.931014420635449 -72.691886700750842 -18.312757395668456 10 16 14
-102.933140412249841 -72.163690363791886 -18.538895088647763 9 15 13
-102.937406697138570 -71.652765207963284 -18.874689976637683 8 14 12
-102.933329924946435 -71.077515315198909 -18.771702741686909 16 22 20
-102.931391953729957 -70.518446496966334 -18.778384636672172 19 25 23
-102.923199551018612 -69.908269379682807 -18.456008058881508 17 23 21
-102.923447598595786 -69.365620275354416 -18.572334038525668 16 22 22
-102.917440358468923 -68.770772159139668 -18.359613182256538 6 12 12
-102.913579311755754 -68.192643122058158 -18.256552381454867 12 18 18
-102.907662877736058 -67.595819829689418 -18.043808415335718 9 15 15
-102.903897328790720 -67.016256320046054 -17.940716694475952 15 21 21
-102.900182202914934 -66.436109055637658 -17.837606860273581 5 11 11
-102.904939588524712 -65.931096166083904 -18.173105949435154 6 12 12
-102.895015240010878 -65.293258291789627 -17.740983769726768 7 13 13
-102.889354808611202 -64.692147055394244 -17.528161470793634 17 23 23
-102.879535226772774 -64.050408004431432 -17.096029327838124 14 20 20
-102.873985886504755 -63.446479917277301 -16.883182878548382 7 13 13
-102.876929392628440 -62.922574791286827 -17.108885303798360 11 17 15
-102.873610958056233 -62.338017298337064 -17.005631090534024 14 20 18
-102.876684846351054 -61.815365639166451 -17.231258238836602 11 17 15
-102.862945781200352 -61.124887917141677 -16.579785085047320 13 19 17
-102.859821871975285 -60.537981582001514 -16.476461989336286 14 20 18
-102.848322353730396 -59.863861786289796 -15.934607948551161 11 17 15
-102.841113102932468 -59.230803288847476 -15.611996563795685 14 20 18
-102.840310594352943 -58.662634090009085 -15.618228932136731 18 24 24
-102.843807804759422 -58.139334164590025 -15.843660237522272 20 26 26
-102.849495832739166 -57.639794269431754 -16.178657774283295 20 26 26
-102.844700072978668 -57.026746149307520 -15.965544691742650 22 27 30
-102.839983836541052 -56.412531915043473 -15.752405568915577 22 28 28
-102.835349215403070 -55.797148702507577 -15.539239434489474 18 23 23
-102.830798331924640 -55.180593574735617 -15.326045303366357 15 20 21
-102.828446874736557 -54.586967694084244 -15.222421836906108 22 27 27
-102.826183634974640 -53.992709142632364 -15.118762679929944 24 29 29
-102.817669790520881 -53.323866214307159 -14.686284870510804 20 26 26
-102.815589315048825 -52.727514876220773 -14.582559821829022 17 23 23
-102.809376411422505 -52.080131173476474 -14.259619244536339 17 23 23
-102.818054958605700 -51.609286494863866 -14.703749637802389 16 22 22
-102.816264627909320 -51.011817651137164 -14.599897287901399 18 24 24
-102.818801627562934 -50.465724497243230 -14.715163692050339 21 27 27
-102.823553856560537 -49.946354749362889 -14.939954145552036 27 33 33
-102.832634931935814 -49.481084236006105 -15.383834593027530 22 28 28
-102.843932393729389 -49.044715503984484 -15.937216113203846 23 29 27
-102.848999434988457 -48.529640529702853 -16.161811753336565 17 23 21
-102.839396264473564 -47.823879926244956 -15.619376201026625 15 21 19
-102.821467973257413 -47.004649371945135 -14.638655821448651 5 10 8
-102.814216667641105 -46.319998352418629 -14.205736738401328 2 8 6
-102.815527154607693 -45.745823098286053 -14.211020080260170 12 18 16
-102.816958480036575 -45.171508918375231 -14.216247043445662 4 10 8
-102.818512975744937 -44.597051806830862 -14.221416553658742 4 10 8
-102.822300400760270 -44.051467793215771 -14.336079517764091 10 16 14
-102.828320555388927 -43.535573789921663 -14.560227622404881 12 17 16
-102.832361657947558 -42.991051920879080 -14.674758294855394 10 15 15
-102.844951879522057 -42.566283876131251 -15.227401951481909 1 6 8
-102.857666553804563 -42.144091177718728 -15.779959561025976 18 27 29
-102.868404715477567 -41.694081197505000 -16.222890179762771 14 24 26
-102.877171415566949 -41.215428354188795 -16.556199889421947 4 15 17
-102.890272208624864 -40.800119298725264 -17.108501924272417 16 27 29
-102.899306254262811 -40.324948228057174 -17.441647897102598 22 33 37
-102.897991448345437 -39.693807022894255 -17.227055779388621 21 32 38
-102.894735103018547 -39.029617604447139 -16.902873784413941 18 29 35
-102.891639199617217 -38.363586015654022 -16.578633996956825 12 23 27
-102.886614338227830 -37.663396538374549 -16.144809735774459 15 25 26
-102.881759959379366 -36.960803460010126 -15.710928657802299 17 27 28
-102.891704562193922 -36.485815713617477 -16.043637136151460 15 25 26
-102.914325763421772 -36.211065978475240 -17.033373332353563 14 24 25
-102.930821510063097 -35.840816600604214 -17.694446296069628 13 23 24
-102.928709381888225 -35.170481857284607 -17.369780168447562 11 17 20
-102.920535494722472 -34.396384444255027 -16.716505392072548 10 15 18
-102.908402196054539 -33.550274329062084 -15.844148277666932 8 13 16
-102.915174487469685 -33.010107109371603 -15.957327534136823 7 12 15
-102.924196885975050 -32.505025863188330 -16.179928074456996 6 11 14
-102.927175828749284 -31.895604327636480 -16.073917155536833 6 11 14
-102.932415325044758 -31.320705528873820 -16.077328320608586 7 13 13
-102.941977978236011 -30.816764570473815 -16.299658667383909 8 14 14
-102.935206358058849 -30.026532587947010 -15.645879132517223 6 12 12
-102.938971275966736 -29.413534009053691 -15.539529026091287 8 14 14
-102.959410537874049 -29.091233465179730 -16.309080749106073 5 11 11
-102.975898301038200 -28.699069546574901 -16.859524224546448 6 12 8
-102.976138031718818 -28.013403458381926 -16.533890788943978 6 12 8
-102.978653377311701 -27.363040240259270 -16.317664201711864 7 13 9
-102.997762263784807 -27.011649869017958 -16.977292923060276 7 13 9
-103.004787528721877 -26.436300783857440 -16.979854417559096 6 12 8
-103.003872126213594 -25.708205254814093 -16.544351456343691 5 11 7
-103.003205596332435 -24.977552466882631 -16.108755758466856 4 10 6
-103.014984988434094 -24.476287936066065 -16.329998075132153 4 10 6
-103.016835694598228 -23.781095627950002 -16.003692012547532 3 9 5
-103.035135620513657 -23.397593496848437 -16.553179395409245 3 9 5
-103.039488069070799 -22.740051116517584 -16.336147843139173 3 9 5
-103.058208022342242 -22.359418215999085 -16.885404751921698 4 10 6
-103.046948893796355 -21.380435380274946 -15.792279393347087 4 10 6
-103.052082162207142 -20.718114473779277 -15.574923487305824 4 10 6
-103.059486077078788 -20.094881918763019 -15.466937840663178 2 8 4
-103.085138151921200 -19.838658481635552 -16.344174491904283 2 8 4
-103.079073882776157 -18.927826799452461 -15.469580186180167 4 10 4
-103.077325404870493 -18.094985007984338 -14.813836201437482 3 10 3
-103.089788348296679 -17.550423237436952 -14.924338304810817 3 10 3
-103.130211571154518 -17.594042779844756 -16.567434249499399 3 10 3
-103.151017162270023 -17.222754742296694 -17.115597204917293 3 10 3
-103.146461017900890 -16.300451442542673 -16.240399500592275 4 11 4
-103.146197288102201 -15.458876839515499 -15.584035108660885 2 9 2
-103.146285788826091 -14.613446392774001 -14.927541900991173 2 8 4
-103.174046833154264 -14.371860064826304 -15.803618961341385 4 10 6
-103.178666675311504 -13.609992222609671 -15.365815593436423 5 11 7
-103.212716882363011 -13.504920237643203 -16.570055383947448 5 11 9
-103.219874231451485 -12.785979408395884 -16.241455097035725 7 13 11
-103.238932964072745 -12.332019092863687 -16.569586961016881 10 16 12
-103.237144375430276 -11.386214494994270 -15.693307178186188 6 12 8
-103.251081664913471 -10.796128772822618 -15.692713675442377 4 10 6
-103.280589139504272 -10.568533339276597 -16.567811234236700 1 8 1
-103.310309080538246 -10.344885226022402 -17.442766518062172 0 6 2
-103.351595528605230 -10.400875924204026 -18.974463271328005 6 12 10
-103.368504893176095 -9.863178800998634 -19.082767560803177 11 17 17
-103.365081000258385 -8.813751411467521 -17.986618973541624 10 16 16
-103.362147672974828 -7.758015877608582 -16.890300634260768 10 15 18
-103.389506938878171 -7.449328731967078 -17.545542836616335 10 15 18
-103.444932516564634 -7.853974960834750 -19.842898786653592 8 14 14
-103.472682779385153 -7.555094349794480 -20.497852993837171 10 16 16
-103.498852196234139 -7.211029853255830 -21.043169687826236 6 12 12
-103.523468106563485 -6.820916668974267 -21.478844691364714 12 18 18
-103.544738470615869 -6.335373723756760 -21.695384729402662 21 27 27
-103.562719351524692 -5.752672090912103 -21.692780778240234 25 29 30
-103.572061285164310 -4.923815189388554 -21.142549045075441 31 35 36
-103.590841532983276 -4.338230294779338 -21.139592358384959 39 45 45
-103.604655492650849 -3.602911001486147 -20.807976163547465 36 42 42
-103.634887471247580 -3.314660893104615 -21.461633701306170 16 25 24
-103.661870008786451 -2.928617673015672 -21.896134624313675 19 25 25
-103.699701865436467 -2.847265842269562 -22.987462238235366 20 26 26
-103.716803641453865 -2.161088175971774 -22.764626208792919 20 26 26
-103.744761361528120 -1.779581299860657 -23.198613912950748 24 30 30
-103.774774247801929 -1.450962796834278 -23.741932910970689 25 31 31
-103.817088957844732 -1.486218704448852 -25.051633411006463 25 30 24
-103.845953030779526 -1.111771631286596 -25.485114848964258 16 21 15
-103.870086185322677 -0.581978110273577 -25.589881946329996 103 108 102
-102.714311438898363 -154.429297276706791 -6.932610178562584 175 182 182
-102.779399019511374 -153.070171821399299 -10.684664751472496 194 199 199
-102.798418313821585 -152.222437506649896 -12.014598760479743 191 192 194
-102.807051365425011 -151.491969808345544 -12.794000003601695 147 147 149
-102.815819043848748 -150.765415314676858 -13.573296561133191 120 122 121
-102.820485719142994 -150.085927682313724 -14.132352771815960 106 108 107
-102.818912690647380 -149.473173235683873 -14.361130462437927 122 124 123
-102.823803803353655 -148.798493928487602 -14.920029808525669 138 140 139
-102.839430213370321 -148.022818190954837 -16.029127456773779 99 101 100
-102.848811624794934 -147.314137853634350 -16.807946418870785 50 52 51
-102.860440682410314 -146.589133168026251 -17.696717034372540 47 49 48
-102.861528069347273 -145.968278523061315 -18.035164255701744 37 39 36
-102.860572683463275 -145.368800240700040 -18.263509809987255 32 34 31
-102.855427430495041 -144.809276909270750 -18.271730736101574 28 30 27
-102.850355324804440 -144.249819408110966 -18.279915991184993 31 33 28
-102.841069914543851 -143.728133063639461 -18.068010309401330 37 39 34
-102.838278803206933 -143.149674242069068 -18.186158819661415 38 40 35
-102.835560439626590 -142.571819140002873 -18.304266313256051 40 42 37
-102.835062489062409 -141.976528580024876 -18.532349925722201 35 37 32
-102.828183082679374 -141.435676005386114 -18.430349392486534 30 32 27
-102.823516049298831 -140.876839301325191 -18.438334472188842 22 24 19
-102.821066591493235 -140.300833113384783 -18.556294290380606 24 26 21
-102.820839757067588 -139.708471992942179 -18.784218047622687 23 25 20
-102.812037085572456 -139.183950670863538 -18.572110607116997 21 23 18
-102.805445114856752 -138.641982156652659 -18.469984052569885 23 25 20
-102.798903913877581 -138.099512937795453 -18.367838363959351 23 25 20
-102.794579125494039 -137.540681579805778 -18.375659659798487 22 27 21
-102.788137289021520 -136.997478089329292 -18.273473993775127 22 27 21
-102.777399575119929 -136.484400453420164 -17.951315590392937 25 30 24
-102.764525664922488 -135.984771387381642 -17.519181818190248 24 29 23
-102.753858815402850 -135.468230151962985 -17.197025166100332 19 24 18
-102.745403861097913 -134.935591403238277 -16.984834935633017 17 22 16
-102.736986324187214 -134.401897482932640 -16.772637666223773 15 17 12
-102.730786115038754 -133.853191287635354 -16.670393048621918 13 15 10
-102.726807791957157 -133.290287353170584 -16.678090517723717 12 14 9
-102.718500933350796 -132.754235999667657 -16.465864566437176 16 18 13
-102.708039798592807 -132.230264477980313 -16.143685984779609 17 19 14
-102.695417644632400 -131.717555952022536 -15.711566406707590 16 18 13
-102.689390060235652 -131.164908658372525 -15.609279773721397 16 18 13
-102.683395349647398 -130.611741587773736 -15.506982764343178 14 16 11
-102.681820743770956 -130.033948604016501 -15.624542448757694 12 14 9
-102.669303987235992 -129.515624512579848 -15.192430252755116 12 14 9
-102.656806013825999 -128.995146458236576 -14.760331242792148 12 14 9
-102.644325875575475 -128.472513556180900 -14.328245881480086 14 16 11
-102.640667741934578 -127.903864196798807 -14.335849313595844 13 15 10
-102.637039466432284 -127.335232806008193 -14.343438276720775 13 15 10
-102.629030519182905 -126.787461631559722 -14.131190443666753 15 17 12
-102.627661800878897 -126.208170155244161 -14.248667056909056 15 17 12
-102.628531352189370 -125.619559667911574 -14.476027699822282 13 17 11
-102.627223553883837 -125.041657108150375 -14.593460872330326 13 18 12
-102.625943833290350 -124.464311917923197 -14.710874875272538 15 19 13
-102.620264916361293 -123.905648667149080 -14.608483366233770 15 17 12
-102.616820331378648 -123.337663369261563 -14.615977801884895 14 16 11
-102.604531968827331 -122.803766338381266 -14.183916643072251 16 17 12
-102.601123878391576 -122.234716814464591 -14.191404574470369 15 17 12
-102.593296680603089 -121.681629047749283 -13.979124519452284 15 17 12
-102.596588877298942 -121.088944722671357 -14.316226996096162 15 17 12
-102.591017751539951 -120.527628802917604 -14.213811225385513 16 18 13
-102.589910193614543 -119.951457365153459 -14.331130784273711 16 18 13
-102.582144671569907 -119.396503764556584 -14.118840429756602 16 19 13
-102.585527311152234 -118.807386228971083 -14.455862924077564 15 19 14
-102.575559743518738 -118.257977856611490 -14.133710055881807 16 20 14
-102.576751500090154 -117.676578451568233 -14.360842329610080 17 21 15
-102.564569805839767 -117.131083273421297 -13.928849526604154 17 21 15
-102.563558619396858 -116.555770019272444 -14.046114147990380 17 21 15
-102.551386464331870 -116.007297859620692 -13.614147425036947 18 20 15
-102.550399094349288 -115.431724046277878 -13.731403334776843 19 21 16
-102.547188128341489 -114.861413687022718 -13.738809940935852 20 22 17
-102.552948395993880 -114.273335012851078 -14.185543177535976 17 19 14
-102.552007004899224 -113.699949105205192 -14.302754569921120 18 20 15
-102.562293986445823 -113.107611432337350 -14.969083851964569 24 26 21
-102.565875191046615 -112.529422540799075 -15.305898859438116 27 29 26
-102.567228621470434 -111.956223942180586 -15.532869373929287 19 21 16
-102.566349305715335 -111.387200306135909 -15.650006166631727 20 21 16
-102.572228487665811 -110.810283979577662 -16.096567615387812 21 22 17
-102.571376005156495 -110.243168345482175 -16.213671931134854 24 24 18
-102.566030073907626 -109.681138279365356 -16.111155779209753 21 23 18
-102.558434943507407 -109.120565446132929 -15.898841751498367 21 22 17
-102.555350845362653 -108.555455625633925 -15.906134132748605 24 25 20
-102.554529917122139 -107.988893422967266 -16.023217656293895 22 21 17
-102.553718376370796 -107.422876698041719 -16.140291074020155 21 20 15
-102.548397130333498 -106.859227849356159 -16.037779775716558 25 22 17
-102.540818025106233 -106.295677044355202 -15.825488735376865 25 22 15
-102.528714113787558 -105.731777012707411 -15.393648171685896 26 21 15
-102.527923236413244 -105.165223961565829 -15.510717224798526 24 19 14
-102.527140775733457 -104.599215717680210 -15.627776643418599 22 16 10
-102.533166848819391 -104.035093569857622 -16.074136123050010 46 40 34
-102.543746262470677 -103.474583705587122 -16.739997886954200 35 25 17
-102.552078662241826 -102.916344596087924 -17.296052355656457 24 12 3
-102.553617372573399 -102.357036736007316 -17.522791248525039 21 6 0
-102.546076720196822 -101.792681049309238 -17.310490097524934 28 9 2
-102.543083381579123 -101.230850476102148 -17.317705304788802 39 18 11
-102.549196974906124 -100.677329395643923 -17.763913792924996 56 34 27
-102.557604163722857 -100.128331167531130 -18.319837361769856 80 54 47
-102.566030970328299 -99.582050144057078 -18.875723575979521 96 67 60
-102.574477449998071 -99.038486207216863 -19.431572410324947 102 68 61
-102.596630939273695 -98.516622750834244 -20.645793793834713 105 65 61
-102.609690896527567 -97.986993877364739 -21.421009885550916 113 70 67
-102.615924313297938 -97.450046606401486 -21.866990448015400 116 74 64
-102.617603975024693 -96.907314661182127 -22.093491286000955 115 72 60
-102.637590723670485 -96.399674120172435 -23.197743942267692 121 79 64
-102.646170422842005 -95.874855125779064 -23.753336093750875 125 81 67
-102.645611731515757 -95.333576345537537 -23.870033909086942 127 81 70
-102.638189081881379 -94.777643142847651 -23.657589609120521 127 82 71
-102.637645564002028 -94.236634282291689 -23.774277387112647 124 81 71
-102.648582158471015 -93.724212732461567 -24.439473279759937 123 80 73
-102.652657103574967 -93.197407896595564 -24.775523161570959 92 65 57
-102.663638849123998 -92.690688742224381 -25.440638756475209 108 102 92
-102.674645740410554 -92.187228003751073 -26.105708781233091 39 42 35
-102.687977683737216 -91.693721212348578 -26.880422933007452 88 91 84
-102.680629572369256 -91.141308894408908 -26.667906731954389 68 73 66
-102.664076187127080 -90.558850892193988 -26.016668038009726 43 46 35
-102.652123829440228 -89.988151493149232 -25.584824960885101 56 58 45
-102.644781313375020 -89.430840505999399 -25.372356507521431 63 54 42
-102.639750961946575 -88.880493559520687 -25.269569123072387 88 58 52
-102.637037430473370 -88.337925388767971 -25.276452193972347 107 62 62
-102.636645362007997 -87.803950720887158 -25.392995112605121 113 67 67
-102.631647854187975 -87.252776494433391 -25.290200531494747 132 84 84
-102.624349311412473 -86.691913098145093 -25.077747608191885 139 91 91
-102.626312301036421 -86.167608311815513 -25.303923223079096 146 98 98
-102.637553423302620 -85.683122132955916 -25.968685877865084 144 100 95
-102.641878349387639 -85.172022116256045 -26.304454512038575 145 102 95
-102.641592985767844 -84.642090234631937 -26.420904769009042 146 101 96
-102.636690173549454 -84.091695739760013 -26.318056859678620 148 100 98
-102.627162877504972 -83.519207816145610 -25.995930936479027 150 102 100
-102.615325201740688 -82.934038508066450 -25.564181941958481 156 106 107
-102.608141043579408 -82.369316001585872 -25.351714021208068 138 89 90
-102.603295366430331 -81.815083633393698 -25.248878283814378 126 76 79
-102.598468027075484 -81.260297825191444 -25.146039470518815 129 82 84
-102.591333875944699 -80.692828036059495 -24.933575905736888 119 77 75
-102.579562865853731 -80.099456708362126 -24.501879446095018 104 62 64
-102.570134118584605 -79.516572667173307 -24.179813389959861 80 39 43
-102.558392936638242 -78.919100114528007 -23.748144876604528 79 38 43
-102.542005913742486 -78.293006019267409 -23.097275763710144 100 66 70
-102.502310553650119 -77.528749537978698 -21.350390605077820 40 29 30
-102.474271612488209 -76.824582916938667 -20.151604945068357 9 13 12
-102.457908081083787 -76.184581712138367 -19.500867746789879 7 11 12
-102.453238564648544 -75.612821671313341 -19.398128155854067 5 9 8
-102.441588072660238 -74.996772071625216 -18.966607479611184 5 9 8
-102.434636569053495 -74.408223790396931 -18.754273508387882 6 10 9
-102.434730766638339 -73.863926091470333 -18.870690059153389 6 10 9
-102.427842065262482 -73.273976472430945 -18.658340468232183 6 10 9
-102.423325984326397 -72.698579855021464 -18.555564907389140 6 10 10
-102.416502915404379 -72.106680541731379 -18.343203987309352 2 8 8
-102.423772314402967 -71.610909905877094 -18.788265087636347 3 9 9
-102.419369168693237 -71.034894016734384 -18.685441873443153 6 12 12
-102.415004873517773 -70.458306639563332 -18.582605955900931 20 26 26
-102.403642850292883 -69.830078650310725 -18.151072635472076 20 26 26
-102.401704423044905 -69.268822855706858 -18.157777260267721 14 20 18
-102.395115201245915 -68.672402243494645 -17.945351008526927 14 20 18
-102.395614808443810 -68.128375640715774 -18.061570822194341 21 27 25
-102.386765416336104 -67.512416518451658 -17.739568062960842 22 28 26
-102.380310415636373 -66.913171337045753 -17.527106675015887 23 29 27
-102.373902651614372 -66.312799966271967 -17.314634281639115 17 23 21
-102.376952003918575 -65.787006298895136 -17.540305510144435 14 20 20
-102.370646633670518 -65.185465367174416 -17.327796170815560 15 21 21
-102.364393279218788 -64.582792834680930 -17.115273595443284 18 24 24
-102.358193622442883 -63.978986759614017 -16.902736999410052 16 22 22
-102.354404372165135 -63.394059889007337 -16.799711824955182 15 21 21
-102.360096235310706 -62.889687240670817 -17.134757272942238 15 21 19
-102.347002962053594 -62.222424130432465 -16.593595099783926 14 20 18
-102.348107975474562 -61.677373572062258 -16.709535829278707 11 17 15
-102.325704192179643 -60.921777684255723 -15.730301486180934 12 18 16
-102.322221101630973 -60.332229691897744 -15.627177413488766 16 22 20
-102.318805327129468 -59.742077388728120 -15.524027357505076 15 21 19
-102.313099696119778 -59.129398152015817 -15.311345757148985 20 26 24
-102.316901846538812 -58.604335602692672 -15.536649323851151 18 24 24
-102.316059629260991 -58.035365721559288 -15.542908930522401 14 20 20
-102.327093761137178 -57.580013460710980 -16.096611833827268 14 20 20
-102.319324194266656 -56.943235392981791 -15.774306789765831 13 18 21
-102.316353329986896 -56.351312952785790 -15.670962111166745 17 23 23
-102.313462745314894 -55.758768674808103 -15.567585427967202 18 24 24
-102.310654430353480 -55.165599763466481 -15.464175816885103 18 24 24
-102.307930401889806 -54.571803354546198 -15.360732342579126 16 22 22
-102.305292703515846 -53.977376514228908 -15.257254057601273 15 21 21
-102.293296691742299 -53.283735495457329 -14.715838479374042 13 19 19
-102.293199431537801 -52.711865767731922 -14.721771550712674 12 18 18
-102.286109794557134 -52.064329763777394 -14.399251967364421 12 18 18
-102.300370395935261 -51.644230566623925 -15.061907346145261 11 17 17
-102.291110986686419 -50.969941866215535 -14.629842268436278 11 17 17
-102.293758754616746 -50.423412293513024 -14.745060173699358 10 16 16
-102.296507229119229 -49.877321463323909 -14.860225385086409 8 14 14
-102.311163577490660 -49.464441876315163 -15.522617124788127 11 17 17
-102.321200238524682 -49.001068700646229 -15.966020893109999 11 17 17
-102.314818362367447 -48.350054215538400 -15.643198525163768 11 17 15
-102.303827805039916 -47.642531378258937 -15.101444833507514 13 19 17
-102.290593484613908 -46.904504345739738 -14.450219660511635 9 15 13
-102.291633607774003 -46.330595586370507 -14.455629600324301 14 20 18
-102.295148788366305 -45.784748757333837 -14.570425510519584 34 40 38
-102.286991863151087 -45.096973605410064 -14.137971831048390 12 18 16
-102.288390410502387 -44.521835358404488 -14.143222957690426 9 15 13
-102.289912590425317 -43.946552552850861 -14.148416426947705 11 17 15
-102.303339601348227 -43.517563196492020 -14.700703218499285 12 18 16
-102.312176717944723 -43.032033627101114 -15.034050026738868 10 16 14
-102.323492911739550 -42.577825724600899 -15.476747328212895 6 15 14
-102.334934097935445 -42.125647597588006 -15.919363940251912 17 26 26
-102.341797947185810 -41.614728385182801 -16.143057216255869 15 25 26
-102.351145483847120 -41.135393522681703 -16.476096076056081 4 14 16
-102.362975309845993 -40.688461172111055 -16.918472766733316 9 19 21
-102.372588625163459 -40.212338034543436 -17.251351419037235 16 25 30
-102.379991066181049 -39.706197590177624 -17.474737844325830 25 34 41
-102.378151227486342 -39.073949004142086 -17.260408299320460 25 34 41
-102.381154907865493 -38.504468644059088 -17.264833296351526 16 25 34
-102.374938910230341 -37.805576778319214 -16.831565513698820 14 23 28
-102.361866291123619 -37.006550797220328 -16.070031991246623 16 26 29
-102.377049530088939 -36.597705827225106 -16.621271253033996 15 25 27
-102.401727301013338 -36.323906429875322 -17.610013811038272 13 21 24
-102.419527156299210 -35.954628950996984 -18.270452889404339 10 18 20
-102.409459880602100 -35.184295100531074 -17.618045163372585 11 18 17
-102.401915940551859 -34.444383782710482 -17.074976012725642 9 15 14
-102.394563372028543 -33.701484875493691 -16.531846063354692 6 12 10
-102.387406284426760 -32.955590840345735 -15.988653426937304 4 10 8
-102.389751498512695 -32.345810606548717 -15.882949373910634 5 11 9
-102.406222022394516 -31.945553552807493 -16.433484403270199 4 10 9
-102.411247472509757 -31.371140753118862 -16.436992964668264 6 12 10
-102.421096005815031 -30.867674637669385 -16.659181659579929 8 14 12
-102.405649283529101 -29.970332900747323 -15.678078143574254 5 11 11
-102.408948193944468 -29.357010594834946 -15.571954305820157 6 11 14
-102.428621293191625 -28.997893542231665 -16.231392644324302 5 10 13
-102.450766683533814 -28.678511610418788 -17.000098118603830 4 10 8
-102.452331661537627 -28.029811058574214 -16.784309069309444 6 12 10
-102.458716204354687 -27.454227629880915 -16.787179495289990 7 13 11
-102.458413699074796 -26.765707051058264 -16.461834846218380 9 15 12
-102.474406957221760 -26.339934388975824 -16.902001957923744 9 15 12
-102.479129690543317 -25.725573078519670 -16.795207663167560 8 14 10
-102.490941428577713 -25.225442072102730 -17.016422837713407 7 13 10
-102.500675291149065 -24.687428619905653 -17.128163118882838 6 12 8
-102.490098056415263 -23.799266979937872 -16.255494446294250 5 11 7
-102.495748764946981 -23.180745738758450 -16.148299031635077 5 11 7
-102.497092881475453 -22.482334112106571 -15.822268457858684 5 11 7
-102.516849823461428 -22.099977673720527 -16.371047016035760 4 10 6
-102.511889833606659 -21.279574109970930 -15.716711374675072 4 10 6
-102.514005647797205 -20.576395137551586 -15.390360696067177 4 10 6
-102.518650925911928 -19.911741628974504 -15.173262253555833 4 10 6
-102.539328177730340 -19.531702265390692 -15.721576687848739 4 10 6
-102.553472390136776 -19.030567583418378 -15.941686345986739 3 10 4
-102.554400630882284 -18.281510776614642 -15.505517157120210 3 10 3
-102.564580025733889 -17.696643005419407 -15.506667707296458 2 9 2
-102.590654012765356 -17.405294711652147 -16.273205190066676 2 9 2
-102.621381292713494 -17.201962029841045 -17.258328334387500 3 10 3
-102.607841440290827 -16.152108336546426 -16.056164690716827 3 10 3
-102.603563442409751 -15.266957277102550 -15.291310380312694 1 8 1
-102.608489531474291 -14.549859673778998 -14.963758547297886 1 7 3
-102.646821652997957 -14.481540769501535 -16.276430451600362 2 8 4
-102.639107332109447 -13.502219698640324 -15.292471635737741 4 10 6
-102.662509102149670 -13.132757986420273 -15.839373788772917 4 10 8
-102.662082175865024 -12.278932638732979 -15.183213572550017 6 12 10
-102.690394366630429 -11.999993514343478 -15.948552572511574 10 16 13
-102.692821551303794 -11.186792458478664 -15.401467678066325 8 14 10
-102.717313046418667 -10.821090770829779 -15.947809806539254 6 12 8
-102.742054305522927 -10.457648089242848 -16.494009195691575 3 10 3
-102.773513433274474 -10.233418070847215 -17.368138448394745 3 9 7
-102.805184934596582 -10.013132154578408 -18.242125503685145 5 11 9
-102.811375630565919 -9.242140174114894 -17.803664564039480 12 18 18
-102.826491032626194 -8.654287529061710 -17.802484470092452 11 17 17
-102.824931365184923 -7.691507056069154 -16.926269913354361 11 16 19
-102.861972813225307 -7.570855096340745 -18.018380192015911 11 16 18
-102.901316589153950 -7.502608767687573 -19.219708492340885 10 16 16
-102.936629576889800 -7.344691925811394 -20.202170361719141 13 19 19
-102.953295622542186 -6.759892887337535 -20.200217012886270 16 22 22
-102.968232058927029 -6.126203871537040 -20.088735467374818 15 21 21
-102.998094230444806 -5.830753296976296 -20.742644037588065 19 25 25
-103.024080919254402 -5.440464077850355 -21.177665077415270 16 22 20
-103.050368324613402 -5.051754651931992 -21.612525993870946 9 15 13
-103.068753247796366 -4.467174455837410 -21.609748087264734 7 14 13
-103.071179991605376 -3.484673046199520 -20.731829442556602 16 24 26
-103.096505569002076 -3.046104389081997 -21.056804835405984 26 34 36
-103.126213234940522 -2.708942094908600 -21.600357795322481 16 22 22
-103.168302234573105 -2.676956468785785 -22.799999540410369 20 26 26
-103.186531384203249 -2.040914166767112 -22.686966995726010 20 26 26
-103.237080889304210 -2.220939089478520 -24.323814472595814 25 31 31
-103.293679546466080 -2.562976792722267 -26.288677031677565 23 29 29
-103.316781163878602 -2.036224056314775 -26.393906312547301 20 24 18
-102.243478350667814 -153.163292414359262 -10.496653285739939 198 203 204
-102.263242485447478 -152.336956437129288 -11.715151816861493 203 204 206
-102.278447407571278 -151.560968090447460 -12.713595436395366 180 180 184
-102.291434214715295 -150.811833862673609 -13.601964886675717 115 117 115
-102.299827227159938 -150.110311773126426 -14.270324127096018 120 122 121
-102.308340960895137 -149.412147209138084 -14.938591054167489 137 139 137
-102.319342302846252 -148.696301706435520 -15.716708801700037 136 138 136
-102.339953207975796 -147.901302291797862 -16.934479677807843 73 75 73
-102.353578282235517 -147.173844723779439 -17.822320654539539 71 73 72
-102.362568731014676 -146.491255585098372 -18.490199197090931 48 50 49
-102.362146835758992 -145.891786869138542 -18.718289432816647 41 43 40
-102.359427493943826 -145.313148973239066 -18.836405452085557 49 51 48
-102.354401348167301 -144.754522204943981 -18.844560168952938 49 51 48
-102.351833818807819 -144.176831378519751 -18.962593813001604 44 46 41
-102.339782050763475 -143.675168975003857 -18.640946545895503 43 45 40
-102.332568040450127 -143.134765619940708 -18.539101461990384 36 38 33
-102.330204280354522 -142.557252904426576 -18.657035790136575 28 30 25
-102.327909694940999 -141.980339772211636 -18.774930853539843 20 22 17
-102.328081393746643 -141.386257473542003 -19.002681670802247 14 16 11
-102.316317845498006 -140.880787127657015 -18.680935717397574 19 21 16
-102.316617097678318 -140.287621445246742 -18.908616078371097 23 25 20
-102.307361339000764 -139.763392172000692 -18.696722387015114 23 25 20
-102.302968663259946 -139.204763683654619 -18.704574071694111 20 22 17
-102.291401890058196 -138.695396742409770 -18.382774091395021 20 22 17
-102.287111415958535 -138.136037508047337 -18.390584405095041 20 22 17
-102.287700682693597 -137.544994729304449 -18.618104171985777 17 22 16
-102.281101031553519 -137.001848194540088 -18.515993417684683 20 25 19
-102.274546431857956 -136.458194592887395 -18.413866330421229 17 22 16
-102.260775873383920 -135.959170022224555 -17.982155289306036 10 15 9
-102.249457715956140 -135.443229715763579 -17.660304035023216 10 15 9
-102.235749080304885 -134.940192148515877 -17.228604678031644 12 17 11
-102.229345902743248 -134.392320239423384 -17.126448572095939 15 17 12
-102.220553721088848 -133.857892405420586 -16.914438085990270 18 20 15
-102.219083653105415 -133.281346996075627 -17.031934917924985 19 21 16
-102.210363055976671 -132.745615439665556 -16.819903605897252 21 23 18
-102.201673636694380 -132.208822361613414 -16.607868305270216 21 23 18
-102.188144152766853 -131.696707620678211 -16.176176678616855 20 22 17
-102.177073182592054 -131.169843047412655 -15.854319619765619 21 23 18
-102.170903746595286 -130.616716427675726 -15.752105782042861 20 22 17
-102.169645462309418 -130.038957821708124 -15.869513785424857 19 21 16
-102.153770254466011 -129.532462037567967 -15.328027621386894 16 18 13
-102.140353046844396 -129.011756253729203 -14.896370714054029 15 17 12
-102.126952459870040 -128.488894539701732 -14.464728047532958 11 13 8
-102.123357101848242 -127.920005411820568 -14.472303916065385 11 13 8
-102.114891958790636 -127.372524816212248 -14.260271334448305 11 13 8
-102.103996601661535 -126.834397067911596 -13.938446200436744 12 14 9
-102.105379791148010 -126.243892277896137 -14.165580619616293 13 15 10
-102.109249108562480 -125.644608404198664 -14.502474936155892 12 15 8
-102.108241107499538 -125.066186182507622 -14.619770035831948 13 15 8
-102.104802278322481 -124.497657256815913 -14.627267313759518 14 15 9
-102.094008624838438 -123.956336081148663 -14.305426396624824 16 16 10
-102.093069388168601 -123.378221901973689 -14.422685428814646 17 14 9
-102.082304756199349 -122.834748891305438 -14.100852777805414 17 14 9
-102.078941866203436 -122.264905626774635 -14.108327255838930 15 16 10
-102.070666831942106 -121.711028430645754 -13.896269570247910 15 16 10
-102.072271778725309 -121.125247265577855 -14.123249278852342 16 17 11
-102.066494283124143 -120.562865858225805 -14.020943202365913 15 16 10
-102.063200289427670 -119.992785916256963 -14.028387156885714 16 17 11
-102.052506587608065 -119.443387479292156 -13.706581566525585 16 18 12
-102.054185200201104 -118.859267680564827 -13.933508932380676 17 18 13
-102.045984659653399 -118.301632967400081 -13.721454287262901 17 18 13
-102.047697216030201 -117.718612841422711 -13.948354095044152 18 19 14
-102.037038921728595 -117.165707770571274 -13.626567661393040 17 18 13
-102.038781167119225 -116.583514032263651 -13.853444759628417 16 17 12
-102.028135979588569 -116.028717559616268 -13.531671524891777 16 17 12
-102.024940311479057 -115.457327545553639 -13.539081926017985 18 19 14
-102.019271019011441 -114.890659669193866 -13.436768208302198 19 20 15
-102.018579736004909 -114.314560642742350 -13.553887877330027 21 22 17
-102.022874981555404 -113.730660378642170 -13.890420080087637 19 20 15
-102.027188090743053 -113.148393938998751 -14.226926919166601 23 24 19
-102.034008623779201 -112.564130186779266 -14.673113659533328 26 27 21
-102.035865865577932 -111.988761537793238 -14.899865489808263 17 18 12
-102.035243462216087 -111.417570124182177 -15.016901690525884 20 18 13
-102.039620164275718 -110.841293236492874 -15.353316453525650 21 18 11
-102.044012423160154 -110.266649067698495 -15.689706967798003 21 18 11
-102.045922344789403 -109.695909878610308 -15.916385942866270 24 21 16
-102.042846150699276 -109.130261201225593 -15.923680089568506 22 17 11
-102.037275128014343 -108.566343706986103 -15.821291048860616 23 17 11
-102.034208442266404 -108.000427434780988 -15.828583401292434 24 15 8
-102.033650248602370 -107.433327306486163 -15.945546770655653 26 16 9
-102.025585227229172 -106.869514339925573 -15.733490889495187 25 15 7
-102.020025315224572 -106.303973923034448 -15.631113239034107 28 13 6
-102.009451326074299 -105.738632981455027 -15.309414482752146 27 13 5
-102.013928416584861 -105.171069475976211 -15.645691529040846 28 10 3
-102.015907687961516 -104.604964664123884 -15.872289623454577 34 15 9
-102.032969868764624 -104.042614031497990 -16.756786771568727 60 41 36
-102.047545623146490 -103.483895323190055 -17.531577147418062 49 27 21
-102.059630474791589 -102.927993410016853 -18.196671282990792 69 46 39
-102.056637298021258 -102.367796142170036 -18.203869600394853 82 55 49
-102.053647860621126 -101.807599746400442 -18.211066119920304 97 66 60
-102.048142727440151 -101.245601383194710 -18.108625803319768 106 72 67
-102.067847272331747 -100.703804704861767 -19.102506166254813 109 75 68
-102.080014649452337 -100.159860479174412 -19.767437735438534 105 70 60
-102.099774501639985 -99.627030236242575 -20.761199343528773 108 71 62
-102.109463395591334 -99.087532751266821 -21.316411953108656 112 75 66
-102.136857243722304 -98.572880287738414 -22.638911025453041 117 77 69
-102.149121240975262 -98.044151422350154 -23.303639752549600 118 75 67
-102.148759171904274 -97.500160393207736 -23.420271423013133 122 79 65
-102.138280648189436 -96.940808132999663 -23.098465351888251 122 79 62
-102.145524882445827 -96.409560563654310 -23.543903672840202 123 80 62
-102.152785454056655 -95.880486196863870 -23.989311808192156 124 81 63
-102.147386428030600 -95.329629010151933 -23.886706048565969 124 81 64
-102.139453328683203 -94.773165159942579 -23.674511408214101 124 81 66
-102.144210638977185 -94.242286645418702 -24.010276781277980 123 80 69
-102.151521984684706 -93.718643620701400 -24.455604718943675 118 77 68
-102.161391919032965 -93.203050947727831 -25.010484655179624 81 54 46
-102.168740372599643 -92.684024366609279 -25.455747321199595 109 100 92
-102.183738331207991 -92.186433598047046 -26.229706495402354 29 30 24
-102.191128059280373 -91.672566071662217 -26.674896311098252 30 33 26
-102.175618206836134 -91.098188927869927 -26.133934099225229 50 55 48
-102.162650657534016 -90.528329296745255 -25.702568042136505 58 64 53
-102.157328724602309 -89.978817857257994 -25.599911548985972 46 51 39
-102.154564050884602 -89.436540197942989 -25.606816095780260 52 47 36
-102.146705107659756 -88.878157126504149 -25.394605734901745 77 53 48
-102.138851072552811 -88.318684233742701 -25.182404244074831 105 63 61
-102.138666979275555 -87.783905255539153 -25.298855947260677 112 67 67
-102.133384843455332 -87.231933144668588 -25.196205744235129 133 86 86
-102.128112178210159 -86.679413537643697 -25.093556646171891 137 91 91
-102.127967403854200 -86.145165567858982 -25.209984073384135 145 99 99
-102.138079719571181 -85.650181909912178 -25.764535916259291 148 103 100
-102.140534865133901 -85.128050430445811 -25.990453714493043 149 104 100
-102.135321458906816 -84.576325411680870 -25.887768088022540 150 103 100
-102.135249366072244 -84.045043864960832 -26.004130209761286 148 99 98
-102.130065106336502 -83.492762452582880 -25.901436366948190 153 103 104
-102.124895260049229 -82.939930353184096 -25.798741297288927 165 114 116
-102.114604370273923 -82.363923615018436 -25.477016895638684 152 99 104
-102.106893813246501 -81.797861574368952 -25.264814590799631 126 73 80
-102.099197639586180 -81.230703618734623 -25.052616685810506 117 66 70
-102.078656933261982 -80.601814751198106 -24.292904563905239 95 48 51
-102.065839564830767 -80.006307072545610 -23.861730669040327 109 65 70
-102.053034470446931 -79.408614406614589 -23.430573393484906 113 75 81
-102.042818413795729 -78.821678039711287 -23.108925696083759 110 77 83
-102.014580759841920 -78.140601697829936 -22.020856304670275 92 70 73
-101.968297192308896 -77.359677605542416 -20.166435605067733 19 12 12
-101.950371908671457 -76.720830129729947 -19.516433667792256 25 29 28
-101.937621040575479 -76.106764326690666 -19.085418987492034 20 29 28
-101.932634588711821 -75.533410740478516 -18.982847420542015 14 18 19
-101.917344338766256 -74.901205508499004 -18.442375405148397 14 18 19
-101.909825597546174 -74.310797542267338 -18.230331941126963 12 16 17
-101.912674939131634 -73.779748248445458 -18.456152952877687 20 24 25
-101.905217240283562 -73.188213313495794 -18.244091886849901 24 28 29
-101.902964275116631 -72.626889474302573 -18.250947685924956 23 28 28
-101.898158666339143 -72.049611180722579 -18.148330003246940 23 29 29
-101.908924463513785 -71.568987178452787 -18.702421411683133 24 30 30
-101.904196044758720 -70.992203693085273 -18.599761708253453 25 31 31
-101.904687930453306 -70.448344916163336 -18.715983488345728 21 27 27
-101.892260075089268 -69.819905967125436 -18.284962229873940 15 21 21
-101.885053274938983 -69.223845175454528 -18.072827721685883 12 18 16
-101.875291597693376 -68.609103213605152 -17.751248867691743 11 17 15
-101.873355131122096 -68.046202817495541 -17.757969483215817 12 18 16
-101.866272336653211 -67.447055054597882 -17.545807426880486 8 14 12
-101.864427898576650 -66.883542318653554 -17.552490319409657 9 15 13
-101.852240439828066 -66.245389321677720 -17.121454047596416 13 19 17
-101.847893356361297 -65.661790824777313 -17.018682065009187 11 17 17
-101.840997039872988 -65.058413345428590 -16.806474336843365 12 18 18
-101.836751632801523 -64.473372918032098 -16.703668555132140 11 17 17
-101.832559864843219 -63.887744769661147 -16.600843162360263 10 16 16
-101.833627307339654 -63.341549240244554 -16.716813651418676 12 18 18
-101.842562546960281 -62.856700235524215 -17.160965397466327 14 20 18
-101.835942917196121 -62.250646786788046 -16.948652848417311 11 17 15
-101.826778033680640 -61.622625981289865 -16.626925176156647 9 15 13
-101.807253929858263 -60.908519972975711 -15.867603897938551 7 13 11
-101.792996821274997 -60.233291354093055 -15.327080492593041 8 14 12
-101.781406613771381 -59.576926641101160 -14.895945960173123 10 16 14
-101.782912312223374 -59.027905576972714 -15.011735873732817 8 14 12
-101.789703015667413 -58.523743815800394 -15.346253469520093 9 15 15
-101.793961344371070 -57.998689967384827 -15.571338712531656 10 16 16
-101.795687492567083 -57.451924829600223 -15.686999942306358 10 16 16
-101.789665754812162 -56.836617412522322 -15.474496619514440 11 16 19
-101.786328352956701 -56.243426242103752 -15.371340350912760 11 17 17
-101.790895732323264 -55.720267201986324 -15.596258240932855 13 19 19
-101.787718347786750 -55.126651073979453 -15.493029794896188 13 19 19
-101.787232669446951 -54.556505297909418 -15.499130938638928 12 18 18
-101.786831883565370 -53.986276427855906 -15.505192325448775 12 18 18
-101.776079646411105 -53.317398075375174 -15.073785720063597 12 18 18
-101.770634682646175 -52.696076663798316 -14.861068375638467 11 17 17
-101.754841431303049 -51.972827421152466 -14.210915271207199 11 17 17
-101.765238578369221 -51.500799961682723 -14.654235667137641 11 17 17
-101.757462704895133 -50.850733735104363 -14.332070421828149 11 17 17
-101.757613459839305 -50.276942735145781 -14.337904620189988 12 18 18
-101.752644553978271 -49.650491638855009 -14.125012333717137 11 17 17
-101.763434118820527 -49.182143216813756 -14.568107128148171 12 18 18
-101.779544038899544 -48.769513810862648 -15.229800908888052 13 19 19
-101.777494218051942 -48.170370161208496 -15.126089937804693 11 17 17
-101.765118319251187 -47.461083317041592 -14.585017146569697 12 18 18
-101.760680579558155 -46.831871086678319 -14.371899173762785 10 16 16
-101.769395766786445 -46.341019982306960 -14.705359089827084 10 16 16
-101.773008159812107 -45.795299927016870 -14.820107188981638 11 17 17
-101.761095666132150 -45.079216785740122 -14.278882664025588 8 14 14
-101.751914293197302 -44.388997933810394 -13.846944231063731 10 16 16
-101.750676341310978 -43.783477960586630 -13.742910499353826 17 23 23
-101.762588143073259 -43.323680203189170 -14.185380403202373 15 21 19
-101.774620478002902 -42.865920818979738 -14.627771662397521 8 14 12
-101.789378244907979 -42.440026867527259 -15.179389962290969 1 10 9
-101.804258118481883 -42.016711973395573 -15.730923299239947 23 32 32
-101.814058840659811 -41.535216658341803 -16.063767595265858 24 34 35
-101.823988746828476 -41.055198065442184 -16.396534889470388 3 13 15
-101.826251915944155 -40.483874187880936 -16.401333120803173 2 12 14
-101.833851234580507 -39.974774961847608 -16.624655816739818 8 17 22
-101.838991215438412 -39.435117740183777 -16.738610715319339 8 17 24
-101.846869095124575 -38.927572612607051 -16.961784151488473 25 34 41
-101.854888917960210 -38.420935043497956 -17.184880340586233 22 31 40
-101.855274421507588 -37.818308250843437 -17.080040172400544 17 26 31
-101.848041364426578 -37.117216694319055 -16.647281590022828 16 26 29
-101.859104136647289 -36.643649525662276 -16.979440517240590 14 24 26
-101.872903123995016 -36.204641663575401 -17.420793597137390 11 19 22
-101.884262484600384 -35.734220683389104 -17.752778252190097 8 16 18
-101.877682328777666 -35.029530051526649 -17.319744371178842 9 16 17
-101.879030762192045 -34.424251716178347 -17.214470834306439 9 15 15
-101.880551825950945 -33.818190856507663 -17.109122766584875 7 13 13
-101.882248603425765 -33.211341352034992 -17.003698755941087 8 14 13
