ply
format ascii 1.0
element vertex 695
property double x
property double y
property double z
property uchar red
property uchar green
property uchar blue
end_header
-126.274426049321519 -31.908609448362611 -0.359324527710697 8 14 12
-126.300261818525371 -31.276828195552266 -0.242609141175535 8 14 12
-126.344385722837316 -30.574174173145494 0.103843467328943 8 14 12
-126.442768146487950 -29.658058358428114 1.139209205562963 8 14 12
-126.379869422828392 -29.375510559119860 0.108480301040657 7 13 13
-126.353146538082896 -28.954434895311579 -0.462932603363384 6 12 10
-126.299671802384950 -28.643922897763364 -1.378582068967631 6 12 10
-126.417666574810397 -27.646794484066298 -0.112949983842782 6 12 10
-126.400877913977908 -27.192471955076964 -0.569093731343173 6 12 8
-126.456634489121782 -26.444595598778672 -0.106682704266177 7 13 11
-126.422421114270037 -26.065947226407555 -0.792101192957915 7 13 10
-126.415619252172618 -25.577743894280729 -1.132957157381810 7 13 9
-126.354772382559787 -25.317318696538742 -2.162476742909973 7 13 9
-126.475542118995250 -24.300492539319375 -0.895719883283874 7 14 7
-126.478870564594075 -23.775218090307188 -1.121252249938237 5 13 7
-126.491642263091094 -23.211918499262058 -1.231799523743490 4 10 6
-126.577604429562626 -22.337419686822269 -0.423664979100749 5 10 6
-126.655007768363262 -21.497556856771574 0.269872692367301 4 10 6
-126.696459496839083 -20.811583071412752 0.504359754250117 3 10 6
-126.710969998502961 -20.243149123246265 0.394591467402648 5 10 6
-126.799046268936166 -19.354347511533334 1.203590166236040 4 9 5
-126.832769901793810 -18.702901173003156 1.323876657099675 4 10 6
-126.839446944474943 -18.172100305648563 1.099889361611218 6 12 8
-126.754712031463015 -18.050814837498073 -0.272202601624656 6 12 8
-126.863183616435705 -17.070828054298904 0.767332300838490 4 13 8
-126.880277591981780 -16.499762589254928 0.658772851515664 6 12 8
-126.907024163800045 -15.886839027062393 0.665259189661953 7 13 9
-126.841932582570550 -15.693726840496986 -0.476457049635229 8 14 10
-126.943435255249938 -14.743605162908064 0.449192480688737 9 15 11
-126.777184287676150 -15.024312586884612 -1.955488533137640 10 15 11
-126.731364922771064 -14.758535840100313 -2.867015213185795 8 14 10
-126.964325132260669 -13.200553208024337 -0.332709477131516 8 14 10
-127.086817467968800 -12.151015452439246 0.823675866246674 10 16 12
-127.107667305939231 -11.576533017640722 0.716878036047405 11 17 13
-127.073045028870993 -11.266290882032973 -0.078890815224213 9 15 11
-127.001375343347590 -11.136778091632978 -1.333958221453912 7 13 9
-126.826992734427449 -11.504055583655024 -3.852497160348435 5 11 7
-127.074157109044620 -9.860804572244538 -1.201415025728124 4 10 6
-127.059750251643365 -9.469950742727939 -1.766624896343956 3 9 5
-126.970518745086224 -9.445405455985345 -3.250731104154028 2 8 4
-127.192206392469075 -7.915510534011975 -0.943246772103322 6 12 6
-127.122649765002407 -7.802571011909959 -2.197132701625350 5 12 5
-127.213953764983899 -6.906271701428309 -1.497525930540206 6 13 6
-127.277631441681635 -6.145651040859696 -1.142315544077633 2 9 2
-127.408381471737613 -5.053382191145447 0.017580399353420 0 5 0
-127.502064836536306 -4.143443853041948 0.718185057048402 0 5 0
-127.444264428011195 -3.990359705368876 -0.419631081506424 5 10 3
-127.463013228443401 -3.459166903934814 -0.637847323839594 9 16 8
-127.291218034755516 -3.891684535569744 -3.154476902625078 11 18 10
-127.607462609542551 -1.864149497935682 0.190850643962648 10 15 8
-127.676038770877739 -1.086378333176987 0.548227909929807 1 6 1
-127.620437837255992 -0.943640082825543 -0.588429511851899 57 62 52
-127.593998621619065 -0.657697997537102 -1.380033481958748 32 35 24
-127.323230405358700 -0.823631522795807 -6.053074313108027 29 32 18
-126.848722919358934 -2.127668925556421 -13.139904820925409 55 59 44
-124.637966336213793 -163.799337295012066 -21.402066286701285 49 45 34
-125.185395569459274 -165.161838378883800 -14.142043359839050 49 44 38
-124.299959377825587 -155.516650002275611 -22.535896597536066 33 28 24
-125.159742178718474 -155.491930489898948 -10.373792101466336 195 180 171
-125.047198316678831 -154.659134978499964 -11.655652815982620 210 194 178
-125.137862100564433 -154.392973662115679 -10.284712685632996 212 195 175
-125.078784165291736 -153.710974830238172 -10.874289948550910 221 197 175
-125.099228433029452 -153.246241691209775 -10.425857672922291 231 202 179
-125.049458950575200 -152.591275211467803 -10.899844661417717 227 195 169
-125.017536291234094 -151.985251331867630 -11.143072230298685 216 181 153
-124.950720989727245 -151.288637196105327 -11.847360350287033 202 172 143
-124.971947079608853 -150.822569204843688 -11.398567793929232 187 160 133
-124.949477914354716 -150.242370312445900 -11.526148129155786 170 146 122
-124.918459693964920 -149.640776758222927 -11.768897413977925 151 133 111
-124.870153836364778 -148.996737828744614 -12.242071726595611 133 116 100
-124.822093615106908 -148.355099678030115 -12.715103815207243 62 53 44
-124.783017637879325 -147.737179254096560 -13.072734848873182 31 26 20
-124.717958806626299 -147.057957864078361 -13.776003647243499 30 27 22
-124.670619104722050 -146.423766040986806 -14.248614393075172 27 27 22
-124.649681420905083 -145.853441053605110 -14.375360435767078 24 26 23
-124.663805667593493 -145.364719802121670 -14.041057443157769 39 42 41
-124.782612317131921 -145.113854201186172 -12.323919761101081 55 59 55
-124.736004318814011 -144.481172042710085 -12.796164922708840 49 54 50
-124.672215146543849 -143.812063919188461 -13.498722219641223 47 53 49
-124.608664523787297 -143.146414641590383 -14.201129791665295 45 50 46
-124.623548770232091 -142.653820333955082 -13.866503085090216 42 47 43
-124.673298205142146 -142.234005483345072 -13.071012296666936 43 45 42
-124.662388599662236 -141.682426185321191 -13.081909097337700 40 42 39
-124.625622280458884 -141.076930764322412 -13.438307301724763 40 42 39
-124.623715795279082 -140.544205821639565 -13.333844078232516 42 44 41
-124.595969046026525 -139.958656618212700 -13.574863149913483 41 43 40
-124.594368248496238 -139.425928456614429 -13.470253719631415 42 44 41
-124.540997845121666 -138.791251744860801 -14.056613408498038 43 45 42
-124.548356299202524 -138.275978324185758 -13.836679347617633 43 45 42
-124.503990490863174 -137.661494173604694 -14.307664531988081 40 42 39
-124.477083833081934 -137.081523345703687 -14.548224285767162 44 46 43
-124.458972490567930 -136.518592333143715 -14.673542106570409 44 46 43
-124.544546273124794 -136.142928043327004 -13.417023069444980 42 44 41
-124.612911976325194 -135.730793329447152 -12.390829496736302 44 46 43
-124.612385179904251 -135.193819352022928 -12.285749972320104 44 46 43
-124.560301672942614 -134.568037264056386 -12.871402457522947 42 44 41
-124.465348961612065 -133.872829927456308 -14.032572476715416 62 64 61
-124.534120582291038 -133.452626383290777 -13.006267770999955 32 34 29
-124.491131049140989 -132.846810919044771 -13.476505318894084 58 64 54
-124.319350575768055 -132.038796088228565 -15.673320624595902 49 55 45
-124.259562789405109 -131.414942300411440 -16.373497846614640 69 75 65
-124.397490894829133 -131.095419261916248 -14.426201481259483 56 62 52
-124.526821088327537 -130.753868510551939 -12.594103954733271 60 66 56
-124.587501344068158 -130.303347029126968 -11.682841092948536 77 82 76
-124.665395442258387 -129.873061611801575 -10.541417118125537 64 69 63
-124.666176729309825 -129.329473662499737 -10.435779891994997 54 59 53
-124.684209495373054 -128.808854221205934 -10.099935421206027 53 58 52
-124.676642363388908 -128.252342507057421 -10.109283965850523 49 54 48
-124.729126317795817 -127.774098848240840 -9.313086429748040 48 53 47
-124.790234533006384 -127.302999336842930 -8.401830653619896 28 33 27
-124.834291947850161 -126.806352364883580 -7.720712664628309 38 43 37
-124.792909471171797 -126.202996178769354 -8.190156087629703 29 34 28
-124.820050574685595 -125.682509717011726 -7.739093965679530 37 42 36
-124.838732228609445 -125.150100796953922 -7.403060424189704 83 88 82
-124.874587130879561 -124.635178275765071 -6.836913493427090 79 84 78
-124.910519214813093 -124.117587093900795 -6.270757109086219 55 58 53
-124.937993453984745 -123.588341812471867 -5.819625775110183 39 41 36
-125.050864871527097 -123.144078863462710 -4.218177108674780 72 74 69
-125.087001173032832 -122.616287717252817 -3.652028020704392 55 56 51
-125.182890379602370 -122.142974180816466 -2.280720387919359 55 56 51
-125.193590618295417 -121.584246616410255 -2.059634924066103 55 54 50
-125.229942257241618 -121.047335462946393 -1.493476696218437 53 52 48
-125.274885576978193 -120.515090987698585 -0.812301316346833 47 46 42
-125.336925203127606 -119.993765285356233 0.098883040167038 52 51 47
-125.424554803567148 -119.488518752347986 1.355051718395117 58 57 53
-125.690892088816454 -119.114372605425544 5.026099605940601 64 59 55
-125.889115684656815 -118.672774984636646 7.776996746678009 69 61 56
-125.976780839924487 -118.140371679110444 9.032902895912002 74 65 60
-126.004991861322452 -117.562052072811937 9.483881557300947 71 63 56
-126.041782090419161 -116.987025515436855 10.049857264173284 77 68 63
-125.968216817606461 -116.342201025668430 9.121155308051328 80 69 65
-125.962730968976686 -115.740894416374772 9.112341345870817 114 104 96
-125.728119612406473 -115.014976028690356 5.999441941580699 138 128 122
-125.918109334456759 -114.521011730848301 8.635002103886166 173 167 163
-125.624438278728462 -113.782484451143432 4.717706757855467 183 177 174
-125.449781052084916 -113.115711298614841 2.410110209877530 191 187 186
-125.326356411233760 -82.671719928518272 2.148547872758627 15 34 40
-125.200011962980327 -82.245410358704902 0.420833629417956 20 39 45
-125.191858243311742 -81.092335235119521 0.294204851454367 24 41 49
-125.133201112013580 -80.590714769501318 -0.515032144987259 20 37 45
-125.108336728567224 -80.045865322941154 -0.865112244623788 20 38 43
-125.041469820993470 -79.562703674543599 -1.788945648936789 22 39 46
-124.932596696309332 -79.145325669201270 -3.286491964047713 24 40 48
-124.950165288885032 -78.546465288665772 -3.062533810477134 23 39 46
-124.993115950832262 -77.907922653108315 -2.494264776545805 14 29 34
-124.943525195098744 -77.410841010180818 -3.188258844691688 15 29 32
-124.851922503016297 -76.983908995571568 -4.455923618420030 9 23 26
-124.903640381661674 -76.330677217263570 -3.772752695876875 5 19 20
-124.989182274594953 -75.618353156188618 -2.630573207707471 6 17 19
-124.982170709627695 -75.056773664712338 -2.750567021093730 6 17 19
-124.983703795446104 -74.481181202112410 -2.755758460463539 9 19 20
-124.926366153838785 -74.008792800547539 -3.564063317239686 11 19 21
-124.953421215143877 -73.389865957086585 -3.224914538808775 9 17 19
-124.955317751390808 -72.815118815149489 -3.229923403429154 6 14 16
-124.999489811136527 -72.162405935166248 -2.661215918422073 4 12 14
-124.934194394040048 -71.712907200911786 -3.583951017791293 3 11 11
-124.860577997675023 -71.283817701180524 -4.621315647537500 9 15 15
-124.896703990936800 -70.646403425318439 -4.167158781859570 15 21 21
-124.916101311075337 -70.040042807820143 -3.942402974998117 12 18 18
-124.969379635959015 -69.364709813363191 -3.258713039243872 8 14 14
-124.946874148854675 -68.840951301063626 -3.607447551374435 4 10 10
-125.000443825633610 -68.161301779782889 -2.923662666051172 4 12 14
-125.011969223989439 -67.567086705401039 -2.813406624331662 3 11 13
-125.040521193050978 -66.936131986368167 -2.473665539326589 1 11 12
-124.959464140608461 -66.541503050543980 -3.625093918460522 2 12 13
-124.979855927091464 -65.929179504294353 -3.399923741729765 12 22 23
-125.034186515963782 -65.240189258963213 -2.715870987434272 15 25 25
-125.046444675988056 -64.643469006146958 -2.605290182104369 18 28 29
-124.982804470806414 -64.220773772874253 -3.526957531866600 16 26 27
-125.037615994178680 -63.526742265821113 -2.842726592394285 12 22 23
-125.024971665935055 -62.988964683703344 -3.076028980334797 9 19 21
-125.020931420552046 -62.431914872033893 -3.194554698347048 10 20 22
-124.949376945319472 -62.039347238761835 -4.230556974172714 9 21 20
-124.928706643554548 -61.526878984102538 -4.578297323633734 9 19 20
-124.899720963621917 -61.036972268226840 -5.040642369175345 8 18 19
-124.862414184564329 -60.570448609855774 -5.617586391378893 10 18 20
-124.884523913879036 -59.955266077240942 -5.391623785668941 10 18 20
-124.940693492628114 -59.251297488689872 -4.706845444531154 11 18 18
-124.954698795691527 -58.654659919657931 -4.595427960854352 11 17 17
-124.926502681741198 -58.169474480036094 -5.057346682268161 11 17 17
-124.889980491056861 -57.709031965940085 -5.633852763810381 11 17 17
-124.904496349097172 -57.113271514386945 -5.522182003771803 12 18 18
-124.893743584286014 -56.586563072320168 -5.754465534030800 13 19 19
-124.857697275635601 -56.131381120906710 -6.330689805624786 13 19 19
-124.923693754219812 -55.393057307491226 -5.530705059957342 12 18 18
-124.955945592271803 -54.747031103377779 -5.189349108676510 11 17 16
-125.005401855153153 -54.050439259788661 -4.618565347217356 10 16 14
-125.038083077290153 -53.400168701279021 -4.277047669334024 9 15 13
-125.045467748030234 -52.822781399045411 -4.279458205720886 8 14 10
-125.087083059371835 -52.144436347148691 -3.823096590128984 8 15 8
-125.060835361061280 -51.667390882974253 -4.283999407322881 8 14 10
-125.102886127909869 -50.986415771401411 -3.827456543834529 8 14 10
-125.085538706188387 -50.485131880640324 -4.173492112596534 8 14 12
-125.145088855318875 -49.748643394018494 -3.487431261823332 8 15 13
-125.170790707338242 -49.114889334125564 -3.259941362984080 4 15 11
-125.247916814339149 -48.318717621819580 -2.344368813794318 3 12 7
-125.359476325974057 -47.409388144844016 -0.970052691890913 3 12 7
-125.462825026598523 -46.520570991721058 0.289687664902885 3 12 7
-125.472504938428187 -45.929856578589103 0.288237981338426 5 12 5
-125.422568582024681 -45.534562791187682 -0.515732552373123 4 11 4
-125.355691958779730 -45.199349340153326 -1.548906584432160 2 9 2
-125.314643799891428 -44.783334922998058 -2.237979437849305 1 10 5
-125.171003344379187 -44.715808917428269 -4.302851547074141 6 16 10
-125.241659351786382 -43.931412292294333 -3.501111949385262 17 28 23
-125.286908325208813 -43.230871527694774 -3.043240473930069 15 26 23
-125.358188337191805 -42.438964482120731 -2.241279663121531 15 25 24
-125.421211388026279 -41.672769721303261 -1.553863169680739 15 24 23
-125.467375735678672 -40.963287717996380 -1.095645818993262 12 21 18
-125.470862688645951 -40.403539441108791 -1.210598327773852 9 18 15
-125.466000337837045 -39.874765920013921 -1.440085161060665 7 15 12
-125.452774116657693 -39.377796930099571 -1.784104746167543 9 15 12
-125.345022675008323 -39.226353776189434 -3.389235935859944 10 16 13
-125.392547324497542 -38.514163768371958 -2.930395696287292 11 17 15
-125.569807180202190 -37.321699953131564 -0.751551004517751 11 17 15
-125.583555706447527 -36.728679816247713 -0.751078010864660 10 16 14
-125.519830159813907 -36.426955386783909 -1.782399859351358 9 15 11
-125.499510076977728 -35.966475916193922 -2.240296403526486 11 17 13
-125.540006725606872 -35.277113681710176 -1.895442242657197 10 16 12
-125.632809135336643 -34.386230607437170 -0.862486230682919 9 15 11
-125.665366958111107 -33.724598233349056 -0.632003424427637 9 15 11
-125.741639178324249 -32.892429371321263 0.171931206583793 9 15 11
-125.705451752376376 -32.499046563952710 -0.514583330327241 9 15 13
-125.704252917337570 -31.971159405604261 -0.742308426450080 8 14 12
-125.755533899167546 -31.236099776162014 -0.281906578865318 9 15 13
-125.807203908261329 -30.498369895965102 0.178653891796557 9 15 13
-125.859269280424996 -29.757959156514168 0.639375907364808 9 15 13
-125.772177567665693 -29.582705970190901 -0.734399057626007 10 16 16
-125.781264735789179 -29.020268275342907 -0.846700126201910 8 14 12
-125.834375594432942 -28.277668314469228 -0.385500488241064 9 15 13
-125.914148922926813 -27.423339172084987 0.419880954072909 9 15 13
-125.828018178373554 -27.260334553854090 -0.953308206357491 7 13 9
-125.855988412933129 -26.623913336971636 -0.835619460393559 5 11 9
-125.928216129819717 -25.800516976033975 -0.144388291070044 5 11 9
-125.930647529984128 -25.272958018423676 -0.370373316780018 5 11 7
-125.968591555806242 -24.595020717233066 -0.137481604254617 6 12 8
-126.033365295069274 -23.801328579120952 0.439630483291097 6 13 6
-126.089808869284383 -23.042585414940753 0.902258310856354 5 13 6
-125.926124188708101 -23.246056950913818 -1.501990027862064 5 11 7
-126.036266647115596 -22.255466114179850 -0.350906053204511 6 11 7
-126.093948373289393 -21.493646336082829 0.112282432881187 6 12 8
-126.160976524028257 -20.689522365145926 0.690365643053696 5 12 8
-126.130995764279419 -20.319101670852891 0.007056714542671 7 12 8
-126.225584134956094 -19.391158994672480 0.929626766092099 6 11 7
-126.258555280606046 -18.740216386018471 1.049558454799552 5 11 7
-126.211878843507236 -18.453452635276189 0.137405724577008 6 12 8
-126.111981623488560 -18.415934397246140 -1.462795346019192 7 13 9
-126.110353094413242 -17.932937177105156 -1.801122816532001 4 13 8
-126.198453609912264 -17.036453696543482 -0.992191592277294 2 13 7
-126.296123930702976 -16.093549797325668 -0.068301149741956 4 13 8
-126.304846165610996 -15.565680646610961 -0.291279854647200 7 13 9
-126.296036207914582 -15.122912117545983 -0.743487686790530 7 13 9
-126.269621416293901 -14.766962044358515 -1.424941714999676 9 14 10
-126.180529391378371 -14.714026122805185 -2.909273434336797 7 13 9
-126.100583738851057 -14.624692860806807 -4.278745331663714 6 12 8
-126.237431868583997 -13.498224254034172 -2.894566343688666 8 14 10
-126.456465708922678 -11.970210697537134 -0.477473333070975 7 13 9
-126.314413365373213 -12.191344938293426 -2.649473254970985 8 14 10
-126.199533429911895 -12.289701327693228 -4.477161149321688 8 14 10
-126.293618360711349 -11.370018967927873 -3.665605799017868 7 13 9
-126.533999802356490 -9.726692614310050 -1.017769371816598 5 11 7
-126.565994778850808 -9.109097644986020 -1.008820300003663 6 12 8
-126.434212643893687 -9.309787264669971 -3.065258551151118 7 13 9
-126.338992445367410 -9.336948463442987 -4.662556372761628 8 15 9
-126.390439822639934 -8.633982684563033 -4.423462333882043 3 10 3
-126.424152625981989 -8.021746241808740 -4.413636301587474 6 13 6
-126.511690012952144 -6.700663346727871 -4.163639515767187 1 7 1
-126.667087500776390 -5.470686645601632 -2.660793154355844 0 6 0
-127.128555486059753 -2.662627331340099 2.630575489196133 0 5 0
-126.758739615235882 -4.133442683981428 -2.408994250985245 3 10 2
-126.916870898431355 -2.884671137090417 -0.905033516028169 5 12 4
-127.094682278730133 -1.530316197618169 0.828973056866033 15 21 14
-127.096682650817570 -1.092176724706595 0.381984498636996 27 32 25
-126.871351532363420 -1.026619287298900 -3.828266693755097 39 43 28
-126.799728124027666 -1.000682762216692 -5.193104683526172 26 29 15
-126.436524573922441 -2.538073300095711 -10.117966935394236 32 34 20
-126.515560200473288 -1.725051916823904 -9.645089860406756 41 45 30
-126.126670608881653 -3.054242233025304 -15.360395530393419 58 62 47
-125.941153594628645 -3.688282935893051 -18.103232972735015 68 72 56
-126.128141990009084 -1.587841641345868 -17.370245953220632 81 85 71
-124.612374963940965 -153.872445726214352 -10.319744216268589 231 212 196
-124.589265705376505 -153.286975770864132 -10.447685027639636 235 207 187
-124.532235933767737 -152.608172092870461 -11.036249566757249 234 202 178
-124.466954716108077 -151.909099534583873 -11.739829092069499 223 189 162
-124.453097230390441 -151.351406200190013 -11.752199083389343 209 179 153
-124.490537084131432 -150.930115532127587 -11.073471232654526 191 167 144
-124.511077216992106 -150.460871085300028 -10.625039532637146 174 158 136
-124.438231564269842 -149.746002421412214 -11.443259339925334 148 141 122
-124.365670827770273 -149.035191891849507 -12.261301071854035 55 49 37
-124.327349794765809 -148.414815208054335 -12.618596226308057 44 41 36
-124.314704857615226 -147.860238785110340 -12.630354054614315 34 33 28
-124.259857729725425 -147.200623337006192 -13.217676910368624 29 30 24
-124.188311243912480 -146.502403251419338 -14.035103828480629 34 35 30
-124.125493433761790 -145.828705963847426 -14.737243667675585 58 62 57
-124.155975681819555 -145.380882034628030 -14.172976316757655 72 77 71
-124.211933235045919 -144.990300539899920 -13.263355787273326 50 55 51
-124.225731138411902 -144.497139835205473 -12.929254613712970 44 49 45
-124.079264805275443 -143.634023936917202 -14.781950249701765 43 49 45
-124.000636627663397 -142.932805649550573 -15.713654771813992 44 49 45
-124.015001295515930 -142.443409503408930 -15.379243709573615 45 48 45
-124.113750108814244 -142.138193265508079 -13.893978855872348 47 49 46
-124.128316528212011 -141.643043133014061 -13.559530505056387 42 44 41
-124.109349190016317 -141.074311271426780 -13.685317542312760 41 43 40
-124.023269687492132 -140.364313536136677 -14.731536008910325 45 47 44
-124.021482546875546 -139.834088793071544 -14.626989955577443 45 47 44
-124.019836141044067 -139.303446347812496 -14.522380874824250 46 48 45
-124.018328635788521 -138.772383286923116 -14.417709674119664 44 46 43
-124.025348031602817 -138.257543172088333 -14.197933357317083 42 44 41
-124.007338141470768 -137.692611758934419 -14.323223234776748 43 45 42
-123.997861110068683 -137.144446143877872 -14.333399558165468 46 48 45
-123.938271707998041 -136.501454408267705 -15.033678870329510 46 48 45
-123.979328515223031 -136.048461482321699 -14.353547008712042 45 47 44
-123.987002086158157 -135.531188012114342 -14.133482784523295 48 50 47
-124.036603250850149 -135.087934717655173 -13.338304191741059 48 50 47
-123.985985650520121 -134.464219628194428 -13.923234115582062 43 45 42
-124.019076476310559 -133.987884458426748 -13.358012310540090 69 71 68
-123.960416213404599 -133.352931842806896 -14.057764375011942 34 36 31
-123.876901087211252 -132.679644283764674 -15.102378176477089 50 56 46
-123.776906167884334 -131.984114505000406 -16.376822574671394 32 38 28
-123.793837770603233 -131.481720259215962 -16.041317295558969 52 58 48
-123.819200368186614 -130.990858517142669 -15.590801062627833 34 40 30
-123.927938554528339 -130.626009462745571 -13.990512272719940 63 69 59
-123.961765137943445 -130.140744635050225 -13.425030401207209 58 63 58
-123.979030774551006 -129.628299121629169 -13.089468784174528 50 55 51
-123.938171958956289 -129.030357837970399 -13.558605951197251 56 61 57
-123.972280053952531 -128.540139984345245 -12.993040389493132 65 70 66
-124.006466546340533 -128.047264786272990 -12.427464676126817 63 68 63
-124.157016696371969 -127.708119648071701 -10.252614178184871 83 88 83
-124.232821594032799 -127.260584841495231 -9.112367226362892 84 89 83
-124.292070946256899 -126.786407410451531 -8.202032406488911 68 73 67
-124.268420438433807 -126.204419917799100 -8.441055187832575 18 23 17
-124.261478806579362 -125.643748219412842 -8.450147316166579 24 29 23
-124.262935527223064 -125.092946578896417 -8.344261219068187 44 49 43
-124.264493852242083 -124.541662348552691 -8.238331482324469 64 69 63
-124.324129803400041 -124.054699701979828 -7.327943319491851 75 78 72
-124.367262296729393 -123.545457419691374 -6.647397459638967 72 74 69
-124.468395437165057 -123.093979108122085 -5.162497501008005 69 71 66
-124.519914529632175 -122.584825338471617 -4.367079724848992 69 70 65
-124.604575323892377 -122.104567126480362 -3.112074095979608 64 65 61
-124.598335911632986 -121.531536153003074 -3.120957505093628 63 63 61
-124.625255662979697 -120.989035997634019 -2.670227875268523 62 62 60
-124.652253920102012 -120.444402210420606 -2.219482651093927 64 64 62
-124.654554897299661 -119.876411677922817 -2.113369598454142 64 64 62
-124.689972919652845 -119.335125834064428 -1.547703040470338 65 65 63
-124.684197930176836 -118.758515680282358 -1.556401113617596 63 63 59
-124.761023807073926 -118.244500966918721 -0.416350039905808 61 58 53
-124.846141938171243 -117.731053334229173 0.838532741958602 58 55 51
-125.038485271336299 -117.285867629223773 3.586579851234632 56 55 50
-125.148378270841334 -116.773258527239093 5.185900131403429 90 87 84
-125.068778970269847 -116.134278273382890 4.143512789820250 184 180 177
-124.857520722100944 -115.421985556953985 1.263643458261726 187 185 178
-124.728829833851037 -114.769549145549277 -0.467520951107190 181 180 175
-124.526209519428818 -114.086216547084689 -3.232100938806667 194 193 189
-124.455479718923257 -113.481172347514018 -4.159036936185146 186 187 184
-124.731799843244431 -85.664804340274699 1.229770060525709 27 47 53
-124.984366655087683 -84.792729001836278 4.778245880568107 22 43 50
-124.755180522533905 -84.467741715508680 1.561209985167636 24 46 54
-124.583271369156677 -84.089160092175533 -0.852964278714751 33 56 63
-124.615627986262851 -83.469346027733948 -0.400429501851619 39 59 66
-124.672582757349687 -82.816164454791902 0.396106133794461 37 57 64
-124.525482276669834 -82.425408063644539 -1.673748412346299 29 46 54
-124.566307729421098 -81.793156954044306 -1.106431309372482 24 39 48
-124.321416757245871 -81.550046835388656 -4.551855313238690 25 39 48
-124.411445264604467 -80.852958995173310 -3.296513725111225 23 37 45
-124.477081027030195 -80.185039842668729 -2.385117949354026 19 34 40
-124.452991375798646 -79.644880301979768 -2.734779144197347 14 29 36
-124.355504477031559 -79.216910293581250 -4.116128471746208 14 27 36
-124.331623538647392 -78.682364422640092 -4.465632034755998 15 28 36
-124.316016509504038 -78.136557495390463 -4.700434418734773 11 24 31
-124.341357335950477 -77.526229619615506 -4.362017210890201 10 21 23
-124.317800781530721 -76.994491932699333 -4.711336683674460 12 23 25
-124.400549699838905 -76.286794244140751 -3.570445723415730 8 19 21
-124.450744961968709 -75.629276407806202 -2.888047333942950 9 19 20
-124.411191215949430 -75.124634793302860 -3.466458664710302 9 19 20
-124.355405948592988 -74.651602503540616 -4.274027498830606 12 18 21
-124.348757642187422 -74.093821704008434 -4.393808428721627 12 19 19
-124.342226752090795 -73.536506947964213 -4.513528389833141 7 13 13
-124.384853536626110 -72.887876882693547 -3.945518132727045 6 12 12
-124.403088979090597 -72.283136189674963 -3.721301489465844 6 12 10
-124.421451921708879 -71.677213116239557 -3.497036021403716 5 11 9
-124.374535985352708 -71.199042984998556 -4.189555799437869 5 9 7
-124.425859574119357 -70.527372611383029 -3.506763301545448 8 13 10
-124.420077380262384 -69.968974649970235 -3.626136238919258 11 16 13
-124.447140988747762 -69.343272348342452 -3.287053114741184 11 15 13
-124.367994760169111 -68.939584732833808 -4.437660607829116 6 10 8
-124.419868741831039 -68.261493822270296 -3.754670893674358 3 11 9
-124.447344139907770 -67.633289938634363 -3.415416520807639 3 11 10
-124.499520228981154 -66.949231592342159 -2.732343705316509 2 11 10
-124.429057379332818 -66.536391737744651 -3.768032423362428 4 14 13
-124.375083419853652 -66.091205868079058 -4.574448096812006 5 15 14
-124.427694904975553 -65.404610840720764 -3.891193100676247 6 15 14
-124.455897128457408 -64.771996267534519 -3.551636418470281 7 16 15
-124.443290679420826 -64.234635202844402 -3.784916397704905 12 21 20
-124.406240300442121 -63.757280867201779 -4.361849244591639 18 26 26
-124.443094406797513 -63.102961805356344 -3.907518061559898 16 24 26
-124.455519884351475 -62.506997357990883 -3.796849432212099 11 19 21
-124.443500909207728 -61.971853882570613 -4.029825539189744 8 17 16
-124.464443395550944 -61.354562504400469 -3.804443045923080 9 18 17
-124.403498501596317 -60.946542199664890 -4.724669911621618 9 18 17
-124.400132775146204 -60.393488990440744 -4.842831803051723 11 17 17
-124.372294452534149 -59.905638047773273 -5.304606795677586 11 17 17
-124.385664987545283 -59.310455321228474 -5.193478007436568 12 18 16
-124.440283996753010 -58.603814452565800 -4.509468960574111 10 16 14
-124.470450367152864 -57.960990183892157 -4.169077730739673 10 16 14
-124.435040419265903 -57.497955445081594 -4.745078402211277 10 16 14
-124.408000832538818 -57.014528448370726 -5.206425744429481 11 17 15
-124.356436234813842 -56.602884342075761 -6.011343525254148 11 17 15
-124.346155476324469 -56.077288570527607 -6.243389796030129 10 16 16
-124.377205084332289 -55.433607983145656 -5.902584842870169 10 16 16
-124.391985942204897 -54.836246216347192 -5.790803790962428 9 15 15
-124.464630353393872 -54.067678062195810 -4.877091132396203 9 15 13
-124.512790719156129 -53.368393090495466 -4.306955045397359 8 14 12
-124.610650162084141 -52.516730045854921 -3.049458284766786 6 12 8
-124.626292620552974 -51.910596448982588 -2.937355338940648 6 12 8
-124.625636301762952 -51.354616250077790 -3.054251188008408 6 12 8
-124.608662071671247 -50.850440929590128 -3.400137986112583 7 13 9
-124.616649991321623 -50.269682673436591 -3.402294629210616 8 14 10
-124.657901069684229 -49.583567013615493 -2.946187248198385 8 15 13
-124.707662296620782 -48.868454899072994 -2.375448231433268 4 15 11
-124.757678066755219 -48.150347918338468 -1.804618269736949 3 12 7
-124.816229163481125 -47.402125657762163 -1.119156143839490 2 11 6
-124.858491413629366 -46.705122708059598 -0.662677090055041 2 11 6
-124.859588417795251 -46.143994661853519 -0.778787144808945 4 11 4
-124.844325296017288 -45.639056177920509 -1.123863210185732 3 10 3
-124.845853613109298 -45.079079402215456 -1.239755075708558 2 9 2
-124.781215479181597 -44.747381797203118 -2.271822031781824 0 8 0
-124.725030780874661 -44.391631464329897 -3.189233595120498 4 13 8
-124.610845333585388 -44.243419866591253 -4.908268411946494 15 26 20
-124.721220304410082 -43.311325916043764 -3.534753296468807 14 25 20
-124.831963233196959 -42.372285666165176 -2.161133652911786 13 23 21
-124.876487794527748 -41.665379228898438 -1.703674258784730 11 19 17
-124.904649465980327 -41.016281146853466 -1.475165534488355 7 12 11
-124.933090364377662 -40.365767432802500 -1.246537800790122 6 12 10
-124.953473895456185 -39.744551749903465 -1.132321989566606 2 11 6
-124.965787029562208 -39.153462155248455 -1.132515810551894 5 11 7
-124.911547634488443 -38.812271661450460 -2.048846875753924 6 12 8
-124.907635699140116 -38.285872674099579 -2.277854591273496 7 13 9
-124.995987541377687 -37.410065595564838 -1.246872530734606 11 17 15
-125.118216325165193 -36.400436881735054 0.242374188884980 10 16 14
-125.073343675303121 -36.031071508549076 -0.558906990781253 11 16 12
-125.020283856826339 -35.697931844526174 -1.474590879347289 11 16 10
-124.967408759293647 -35.368900450202361 -2.390144109563010 11 16 10
-124.956708106650026 -34.877812883571423 -2.732894930894901 10 15 9
-125.005097254379621 -34.153443134310720 -2.273766490524565 10 15 9
-125.095905194276824 -33.257488121650461 -1.241816834091509 9 14 9
-125.145054738583781 -32.526459442420993 -0.782393166316297 8 14 12
-125.160869192964412 -31.930198233315508 -0.780965201709250 7 13 9
-125.227606325538062 -31.125725587058643 -0.092165917799178 6 12 8
-125.235663651059895 -30.561866852319408 -0.204974287023163 9 15 11
-125.244031946748123 -29.998143439631011 -0.317632496247654 10 17 10
-125.168135729608352 -29.789315848634292 -1.575538287802146 10 16 13
-125.261717628145746 -28.871071800639157 -0.542491011301706 10 16 12
-125.389686531332572 -27.803148523578319 0.948901706538948 6 12 8
-125.416425016303805 -27.163298365709981 1.065965891909713 5 11 7
-125.265205706950070 -27.291095515792250 -1.222239125492592 4 10 6
-125.335003930469156 -26.470661719142871 -0.532139722305942 5 11 7
-125.379739451801655 -25.757858321216005 -0.185498990936111 6 12 8
-125.399337495459605 -25.155217058128592 -0.182326643288576 6 12 8
-125.436361229105955 -24.476600241457657 0.050117810020225 5 11 7
-125.542099401042407 -23.492190824404808 1.199158417584698 5 12 6
-125.528747533338105 -23.037805755813675 0.744658176384974 5 12 6
-125.532818065344429 -22.507981900262710 0.519433991997374 6 12 8
-125.400160561049589 -22.600655302803304 -1.538534898026427 7 12 8
-125.593483159173900 -21.215169600494686 0.756866168329196 8 14 10
-125.607270924176447 -20.645939605664452 0.646743932632006 7 15 10
-125.638642909349002 -19.997254369636629 0.765933824719014 9 14 10
-125.489646590534548 -20.187579009867555 -1.520564094761909 7 11 10
-125.633732263031675 -19.018740651390988 0.088358945565233 5 11 9
-125.605914389553135 -18.652879906561807 -0.593868327717217 5 11 9
-125.578388773935998 -18.289829158960153 -1.275926861127516 7 13 11
-125.533847562772223 -18.011884932752476 -2.186967322785137 4 13 10
-125.602225360156481 -17.199191671528919 -1.608326654293421 2 13 7
-125.645130240785051 -16.508153529757095 -1.373196539366376 4 13 8
-125.758064607964542 -15.479206848216080 -0.221171741101131 5 14 9
-125.775964977170929 -14.909127286956149 -0.329335266058024 5 11 7
-125.803022019977746 -14.296343424779185 -0.322698961652577 7 12 8
-125.682151754971443 -14.411737184521764 -2.263936119833176 5 11 7
-125.552570086316763 -14.579385767087533 -4.319661783437596 5 11 7
-125.598105792800411 -13.887651566158024 -4.083280255325775 5 11 7
-125.802030867402550 -12.406672839686783 -1.783789958234678 3 9 5
-125.664449500467754 -12.630595234509956 -3.953622280377004 3 9 5
-125.544430144381934 -12.776124070564370 -5.894142171167658 5 11 7
-125.635911061274896 -11.860067310103400 -5.083795252075902 6 12 8
-125.719277244212265 -10.984061938624205 -4.387777009747140 9 15 11
-125.856384639399238 -9.832605089238625 -3.003731206601771 9 15 11
-125.870391557895132 -9.310125884972056 -3.224126255566517 8 14 10
-125.778414023691937 -9.337298477427680 -4.819872680398902 8 14 10
-125.713204084074619 -9.233597356944012 -6.071584073844207 2 9 2
-125.826251544235419 -8.208245235872102 -5.030327056588078 6 13 6
-125.833111019393684 -7.736602754779206 -5.364477014936881 9 16 9
-125.760014323272856 -7.688363908771167 -6.730249389527359 5 12 5
-125.892984917508898 -6.559709878861941 -5.458806781821579 2 8 2
-126.116591231074580 -4.948301585235225 -3.040384739608442 3 10 2
-126.422380527351237 -2.893094582144510 0.410515081056388 3 11 2
-126.198597269861480 -3.658664676073378 -2.903569327389448 3 12 4
-126.389387875335984 -2.212975514261863 -0.942575916852235 9 16 8
-126.581408566084804 -0.756216570522206 1.018892015437473 30 35 28
-126.442791945979494 -0.669424535382925 -1.708928332592563 26 29 18
-126.021395589467701 -1.376886206266785 -8.998209281655704 47 51 36
-125.356458330232783 -4.674093225944584 -17.818507317907944 53 57 42
-125.567334505729434 -2.767625858445674 -16.185224715827360 69 73 58
-125.618787733127533 -2.116643194190136 -16.056451674875319 77 81 66
-124.054224316288952 -153.256562341581969 -10.814818939837238 232 214 195
-123.907697495337985 -152.319507946818078 -12.668304599076890 231 207 184
-123.893920060674915 -151.763480935227307 -12.680619141948881 221 195 168
-123.929924721163161 -151.345496564387162 -12.002543849368465 201 178 154
-123.982561261056432 -150.969797512480966 -11.094358888818988 185 169 150
-123.961035023206321 -150.388103017540175 -11.221503525795782 150 142 124
-123.906739520182683 -149.718580219917868 -11.808664467430589 49 46 34
-123.844460817400034 -149.030139307815148 -12.510698163042406 48 47 43
-123.798907591103784 -148.388380799675929 -12.982532152757130 46 44 43
-123.786488788521936 -147.834280815794585 -12.994176894834197 44 43 41
-123.733156246649060 -147.175149964953164 -13.580770189626520 47 47 45
-123.622571253167933 -146.373581158298947 -14.972231240900442 58 60 55
-123.594375580996257 -145.783704988427019 -15.213509615406480 93 98 91
-123.574577058873359 -145.215312401488745 -15.339690795880159 55 60 53
-123.628720269119015 -144.827103274487285 -14.430913821885980 45 50 44
-123.609231097247203 -144.257657268404444 -14.556957853632383 41 48 41
-123.548997041274504 -143.591961096653961 -15.257779274180365 38 45 38
-123.464455616629351 -142.872366736538680 -16.303360712472937 39 44 38
-123.461906904552023 -142.346282423893228 -16.199136372786171 41 43 38
-123.533018548229393 -141.986894202088166 -15.060227320504652 46 48 45
-123.571529209959294 -141.548985347075671 -14.381158258244881 45 47 44
-123.536712485868122 -140.945761876200862 -14.736600396688942 44 46 43
-123.477620962214246 -140.291092016185843 -15.436761734326041 45 47 44
-123.394297032234618 -139.587442043483293 -16.481596603754468 48 50 47
-123.392636413437174 -139.060801833730437 -16.376953125414872 50 52 49
-123.407386586486041 -138.567577846155928 -16.042397040704799 51 53 50
-123.438516966545095 -138.106121697720852 -15.477959948939656 53 55 52
-123.461613073972785 -137.625671515854009 -15.028420825710612 54 56 53
-123.452317206514664 -137.078755884754315 -15.038497614176748 54 56 53
-123.402564361940449 -136.452838479816506 -15.623036511367872 51 53 50
-123.426023307815541 -135.969715187584086 -15.173351323137126 51 53 50
-123.425250521859653 -135.438682876814141 -15.068328318711536 54 56 53
-123.465129634123457 -134.982214881110451 -14.388795632965468 56 58 55
-123.440277042717995 -134.404744550171642 -14.628346989559759 53 55 52
-123.472250294945027 -133.929645427910913 -14.063647104621850 63 65 62
-123.407194699038783 -133.281749259618664 -14.877450793890119 30 32 27
-123.390855501100717 -132.721217646715957 -15.001896128576590 35 40 33
-123.342309804609940 -132.106796947101941 -15.585739188898998 36 41 34
-123.342410486950953 -131.575355844800470 -15.480302528130807 37 42 35
-123.278010016120348 -130.938774183417365 -16.293676341904899 42 47 40
-123.302583974945520 -130.447035907987839 -15.843546413650643 45 50 43
-123.311106296971289 -129.928116511495119 -15.623093092195461 44 46 42
-123.360055377337687 -129.469507710870346 -14.828384516258353 39 41 38
-123.320390206715615 -128.875246167249742 -15.296912770204898 41 43 40
-123.313099020847631 -128.330120181313248 -15.306012104153069 43 45 42
-123.354245030475425 -127.853736047611520 -14.626078345864016 51 53 50
-123.508168706918681 -127.530541797559550 -12.338590889024942 50 53 49
-123.589637048135700 -127.098405869015295 -11.084617171910537 60 65 59
-123.671138786727838 -126.660328047037595 -9.830688640500426 56 61 55
-123.712472376441085 -126.164549928387316 -9.150864776571268 47 52 46
-123.721725292743926 -125.625246499742360 -8.930271764401255 39 44 38
-123.706970337765398 -125.055499227359974 -9.054054064098750 49 54 48
-123.684296747739566 -124.476828474955965 -9.292575350443201 64 69 63
-123.774123471315335 -124.028936221141350 -7.923906314709370 44 47 42
-123.823856800714651 -123.529619475115879 -7.129241584055052 75 77 72
-123.921776536682344 -123.078814694675515 -5.645871974112652 76 78 73
-123.939537598895242 -122.536568153292791 -5.310380104120156 74 75 70
-123.981427448582451 -122.017238333004755 -4.630532556822430 69 71 66
-123.975308843469037 -121.447321290148665 -4.639326118959730 67 69 66
-124.017345856875451 -120.923180994939258 -3.959457685678160 68 70 67
-124.075460311651597 -120.410510847807458 -3.050062021716940 70 72 69
-124.117620363942933 -119.879371146239635 -2.370206775460360 68 70 67
-124.031828655563658 -119.236163983050830 -3.526458938334656 65 67 64
-123.978180534580105 -118.624575830735580 -4.223572709132924 62 64 63
-123.964637561593193 -118.047587385384475 -4.346849737831008 51 53 49
-124.015138078360309 -117.519056610066755 -3.552118702049000 41 43 40
-124.057705300763942 -116.981034436930216 -2.872139511743711 40 42 39
-124.028443208953519 -116.390830491609506 -3.224790316627406 53 54 54
-123.879505695325832 -115.724813470033268 -5.298357088981618 150 150 148
-123.685912303445846 -114.482397241076896 -7.953514671626294 184 187 182
-123.617254438131013 -113.885860573787014 -8.879371890007945 183 186 183
-123.863050033228859 -112.888466657346854 -5.224566479004324 68 73 69
-123.611307913479649 -112.210833532428126 -8.788599696895744 91 100 97
-123.774194194593463 -111.719487846149491 -6.387696542988152 68 75 73
-123.666189796523454 -111.115249871534601 -7.886750705798704 99 110 106
-123.892107541547716 -108.356316828723976 -4.370446082204211 95 100 97
-124.007475932352150 -107.806308928609624 -2.658032473302114 71 76 75
-123.995617551715583 -107.230920398738945 -2.780487130060351 50 55 55
-123.944088494671988 -106.652072070412473 -3.476250140477902 52 58 58
-123.884714265478806 -106.075974821055183 -4.286596821043474 60 69 66
-123.960564687677589 -105.508096016102087 -3.147566851669495 69 78 75
-123.774232644806929 -104.935241895444946 -5.792358490698064 73 82 79
-124.277526435918332 -87.922399081607381 2.255133510495824 8 22 25
-124.118189419795982 -87.499327199920046 -0.042625361676301 30 45 50
-124.132194469900895 -86.318830995884795 0.173640935671045 34 53 60
-124.052296286288353 -85.826821489400416 -0.978235431720492 29 49 58
-124.067447440093389 -85.228831059121745 -0.755424817736497 30 50 59
-124.058956069996086 -84.658375861325098 -0.876217926928547 29 49 58
-123.947706597485919 -84.216197145887705 -2.486015249782241 27 47 56
-123.907764143720200 -83.690699362338265 -3.064827220028377 27 47 56
-123.891654685074514 -83.136760855008021 -3.299953666997567 33 52 59
-124.018049695912794 -82.392213166818749 -1.473408571713946 36 51 60
-123.867641999889244 -82.021093662248845 -3.655502030921184 31 42 51
-123.709423024663550 -81.671487997064503 -5.951969811487942 25 35 44
-123.749089482927374 -81.046092203089955 -5.385136602296654 18 31 38
-123.915442843848552 -80.230084065821089 -2.985916722997757 12 26 29
-123.939493181957829 -79.618773503978929 -2.648126995631657 7 18 23
-123.829145914993148 -79.214616641968348 -4.257101328407060 8 19 26
-123.782194480401444 -78.717578019469627 -4.949832311534664 8 19 26
-123.774907693693592 -78.159596748807218 -5.069920751763817 3 14 18
-123.767726953456190 -77.602097631490665 -5.189953496678385 4 15 17
-123.816045975707098 -76.951433660116649 -4.508382143657371 6 17 19
-123.888220668579606 -76.256469758058401 -3.483277666260733 8 18 19
-123.920944295379996 -75.626138618499596 -3.030675570755420 9 18 19
-123.858807937543034 -75.163919589760937 -3.952030323384520 8 18 19
-123.788860550544683 -74.720469301442975 -4.987787534437189 12 18 18
-123.726932294565799 -74.267117927278292 -5.908951452627434 10 16 16
-123.799693528631849 -73.562761496799155 -4.883663057947814 5 11 9
-123.872585919731094 -72.853402316707246 -3.858363414007982 4 11 8
-123.937694101291655 -72.154601550210813 -2.947537911094713 4 13 8
-123.931664203005141 -71.593880793553708 -3.067053259116904 4 12 7
-123.894074591672762 -71.098064422541441 -3.644434111917860 5 10 6
-123.896205775387003 -70.522966304036188 -3.649334334772334 6 11 7
-123.906385289306300 -69.931115414490534 -3.539697823811707 9 14 10
-123.924618190520363 -69.321688143409361 -3.315530637578348 10 15 11
-123.879588039198509 -68.848717033514092 -4.007094746377561 11 16 12
-123.913933172550870 -68.204128876162969 -3.553863682342069 8 14 12
-123.940494264405231 -67.574999705252324 -3.215056234884884 5 11 9
-123.990984189151433 -66.890036734668030 -2.532799386380503 4 10 8
-123.930607182863753 -66.457900293477479 -3.453002816073138 4 11 8
-123.933797527931191 -65.881428804566056 -3.457410476558238 4 13 10
-123.913328623470989 -65.361390758309113 -3.805132397906704 4 12 9
-123.932666099404770 -64.747259406293296 -3.580485208381731 4 10 6
-123.904535125109220 -64.248297852832479 -4.042514571668249 4 10 7
-123.940042507094248 -63.594027627937777 -3.588827154255796 3 10 8
-123.928071394125595 -63.057114547426806 -3.821798579567115 10 17 15
-123.963895357129871 -62.399842868502525 -3.367990606354340 16 23 23
-123.976054999753998 -61.801727589285264 -3.257471291118577 16 25 24
-123.972480825105620 -61.244465170797582 -3.375776230957683 14 23 22
-123.961110649068232 -60.708655050502202 -3.608448816777297 12 18 18
-123.941939750925485 -60.195117847266104 -3.955482859909722 10 16 16
-123.907010106023279 -59.726268065629824 -4.531313613236790 11 17 17
-123.840398476237795 -59.347487845829846 -5.564809327970153 11 17 15
-123.853484449200920 -58.752069356201744 -5.453819100065317 10 16 14
-123.914503319603725 -58.021436053215339 -4.656136462802834 8 14 12
-123.904061747488868 -57.491028832631393 -4.888309192927977 9 15 13
-123.853953184793099 -57.076396661297231 -5.692561169240037 10 16 14
-123.867726408410917 -56.479502378995150 -5.581257354053150 10 16 14
-123.889652368590220 -55.858367144428861 -5.355443937019260 9 15 15
-123.927716836304228 -55.188367205484127 -4.900695132407662 8 14 12
-123.918123338797017 -54.660398023036585 -5.132437050596195 10 16 14
-123.996485069242169 -53.865556252233475 -4.105400808709561 11 17 13
-124.059123926466484 -53.114805644007390 -3.307150252833395 10 16 12
-124.074077638649143 -52.509376342971429 -3.195369551198866 5 11 7
-124.065260428925441 -51.978711096556296 -3.426767847913482 4 10 6
-124.040637629377571 -51.499840486300300 -3.886912106254499 4 10 6
-124.096158143537750 -50.765736907420106 -3.202754469985166 6 12 8
-124.111918575186181 -50.158105492002093 -3.090610503993048 5 11 7
-124.175919769133557 -49.392051723734383 -2.291865734012191 4 11 7
-124.200139082481243 -48.754667019722760 -2.065122448635520 3 14 10
-124.256635897778622 -48.008636857694199 -1.380620519560409 3 12 7
-124.249261745880588 -47.475892830158656 -1.611349860295974 2 11 6
-124.290214161887405 -46.779729747816567 -1.155488781498406 1 10 5
-124.291295344750395 -46.219399010278849 -1.271598198010679 3 10 3
-124.316680653508328 -45.575568866795081 -1.044363450572860 3 10 2
-124.326242873095197 -44.986800004320450 -1.045849411172611 3 10 3
-124.287803363687985 -44.568703348240696 -1.733695729150980 0 7 0
-124.249541031851948 -44.153667586331665 -2.421425778665281 0 10 2
-124.227553658665514 -43.683603092718336 -2.880218612286058 9 20 14
-124.237978557153525 -43.098200675280268 -2.881257217746565 11 21 16
-124.345344368929062 -42.157339805280053 -1.509271915949483 10 16 14
-124.372445368528858 -41.508286797068521 -1.281270149464177 9 15 13
-124.375611528097863 -40.948289990806295 -1.396378682944601 4 9 5
-124.395168983658522 -40.327685715329444 -1.282551769893587 5 10 6
-124.431154098720256 -39.644799430430190 -0.939789251016350 5 10 6
-124.467434143430552 -38.959931037847070 -0.596906041636345 4 11 4
-124.520196042847289 -38.210539646687693 -0.025084367256738 5 11 7
-124.484219236469116 -37.805033025839172 -0.711622940990168 5 11 7
-124.456546547793934 -37.370713788163989 -1.283626551097342 9 15 13
-124.542617269627499 -36.489404886359040 -0.253792403771513 10 16 14
-124.531695293042446 -35.991309876461990 -0.596721236852147 10 15 11
-124.480410035782171 -35.657841895109378 -1.511559560950104 10 15 11
-124.429308112363117 -35.328483879169397 -2.426267872828163 10 15 11
-124.451606698783593 -34.704252198589614 -2.311166950872547 9 14 10
-124.514923137587232 -33.911589893996158 -1.623882545357191 8 13 9
-124.554174771459984 -33.216528065025244 -1.279682664069043 8 13 9
-124.601928620879363 -32.485337513616017 -0.820928358175678 7 13 11
-124.625558500550127 -31.854528594083455 -0.705258252917076 8 14 10
-124.674028430402387 -31.118891847374606 -0.246207143520934 6 12 8
-124.657449380770998 -30.659807022865948 -0.702299634441346 8 14 10
-124.616572722990995 -30.308093822451166 -1.501487442510580 7 14 7
-124.600493872536290 -29.853496582279330 -1.957294446899425 9 15 11
-124.633892164931552 -29.186246074463700 -1.726467393131173 9 15 11
-124.749758086338517 -28.157165294918300 -0.351323759869160 8 14 10
-124.767540809236621 -27.556563683207372 -0.348998860294472 5 11 7
-124.744533623405133 -27.138446269373585 -0.918603736321330 4 10 6
-124.705318238225374 -26.796420879342374 -1.716897075773971 7 13 9
-124.732288828234061 -26.160634097462708 -1.599680025778554 6 12 8
-124.759634874023092 -25.523793493336015 -1.482294206546527 5 11 7
-124.812149788669572 -24.772730121483011 -1.021466784292130 7 13 9
-124.889923197287487 -23.904886084004282 -0.217181212396099 7 13 9
-124.860543539446340 -23.530275611272575 -0.900245703309082 7 13 9
-124.881174708360874 -22.927120265819621 -0.896584403788069 6 12 10
-124.902189888452284 -22.323426391588271 -0.892744937983593 6 12 10
