ply
format ascii 1.0
element vertex 681
property double x
property double y
property double z
property uchar red
property uchar green
property uchar blue
end_header
182.156421252455146 -3.228082973782857 33.269186883535752 173 170 161
180.701297550524941 -2.724021490907375 31.853805703241534 171 168 159
177.938403393278008 -2.699158852121144 29.184389016891913 169 166 157
173.790715031555521 -3.195222642352249 25.187355360142391 169 166 159
170.335374788214295 -3.467358801304255 21.854529701414009 170 166 157
167.957114766629530 -3.366204757602085 19.554614481825126 168 164 155
167.194584664760583 -2.679603063327381 18.803749883461819 166 162 153
164.816400223068968 -2.606202084087044 16.504084182945547 163 156 146
163.284602601165773 -2.228113786859063 15.015821363513140 161 159 147
160.906475670650423 -2.185175342058656 12.716441716017272 159 157 145
157.912792095361624 -2.397075636268915 9.827294361226421 159 156 147
155.611631417929090 -2.359726535806355 7.602010740923561 159 156 147
153.541344162427720 -2.247626712157729 5.598085274952950 154 151 144
151.624996388688146 -2.088903617051527 3.741753541654106 153 150 143
149.785645872190969 -1.912773780075599 1.959266292997029 152 152 140
147.715468255452691 -1.842922499007428 -0.044276738309463 153 151 138
145.876203347942351 -1.693406329946601 -1.826530994158958 150 148 135
143.421284207664627 -1.810157256674721 -4.198388633724392 150 148 135
141.582091930088808 -1.688608031495316 -5.980389757682843 148 145 130
140.127782569193187 -1.418862392137587 -7.393748585249199 146 144 134
138.673543893234580 -1.159275062288500 -8.807036663664178 147 144 134
136.526622579593464 -1.204708346287036 -10.883537976405961 146 144 132
134.302749719212869 -1.298242426404394 -13.033589692217731 145 143 131
131.770982022842304 -1.540621631247824 -15.478248975906752 143 141 128
129.855054210918723 -1.532138323205908 -17.333235123896571 144 142 129
127.708212286160560 -1.638642899337017 -19.409145778518365 143 141 126
125.099469964369774 -1.964978477308590 -21.926975345049044 141 138 123
123.722540138756827 -1.759224471397309 -23.265834694109600 146 143 128
121.960723256710608 -1.736437024979512 -24.972976452545879 146 143 128
120.352941946109738 -1.656074323873820 -26.532683181550709 146 140 126
118.822215502238777 -1.551715272014207 -28.018640816249700 141 139 122
116.444531199572438 -1.848489816012321 -30.314735378940384 141 139 124
114.990897756718141 -1.732722993109489 -31.726832582070728 139 137 122
112.998272663209832 -1.879387690383207 -33.654388882008845 136 134 119
111.775784712294723 -1.676832547120796 -34.845381997201201 134 132 117
109.706215671056924 -1.885264371060915 -36.846351661143785 135 133 118
107.559636950323537 -2.145067488815779 -38.920810252769343 140 138 123
105.181990725091936 -2.531346054380971 -41.216001721717362 141 139 124
103.805658245483841 -2.447932779717348 -42.553887524453643 141 139 124
102.352365103580809 -2.411774317486030 -43.965328077544427 142 140 125
101.438368329504470 -2.119979658990672 -44.861385361795641 143 141 126
98.290397880929149 -2.943375855044620 -47.892145740591559 145 144 124
96.606100833391054 -3.057214160525638 -49.524107479721096 141 139 120
95.230018795855557 -3.027656448691851 -50.861558730723516 145 142 125
94.778597324687340 -2.538888355102721 -51.315784691306135 145 142 126
94.173232492501796 -2.131747295576710 -51.917242217425155 147 141 126
91.795677656468683 -2.639789024868074 -54.211224037239646 147 141 128
89.957510190992508 -2.885313064087213 -55.989936958281589 147 141 129
88.042282910904717 -3.183861708648254 -57.842097804172681 144 141 126
88.207985840131187 -2.403889124375693 -57.707680397326129 144 141 126
86.986558776325055 -2.355347964181294 -58.897595693977308 146 143 127
85.302722444068763 -2.561211902431895 -60.528830571650616 143 142 124
83.464732628378300 -2.861371108883122 -62.307066092518426 142 138 126
82.320556159185031 -2.800468043311015 -63.423206171221182 142 139 124
81.176462994928329 -2.747448074579883 -64.539304958044170 145 142 127
79.492745882044133 -2.997013242274397 -66.170147031148161 144 141 126
78.117462341964369 -3.088825075714058 -67.506730962896114 144 141 124
76.665115942447827 -3.232833026375283 -68.916769890903652 144 141 122
75.675506886274633 -3.129343141917471 -69.885575087862094 144 141 122
75.302977134468179 -2.686939444958172 -70.266206439622721 144 141 124
75.393405189013407 -1.985927446410725 -70.205823894694504 143 140 123
73.710017785249903 -2.290499354440150 -71.836257487500433 143 140 125
72.952301667012335 -2.078304913452283 -72.584541766952213 144 141 124
71.577557102720618 -2.225769171423901 -73.920810684506591 144 141 122
69.971397224883461 -2.516569990439057 -75.477472528818623 143 140 121
68.365237562445415 -2.818578458880646 -77.034019110211062 142 139 120
67.916534776571240 -2.454416720481959 -77.488263044708646 142 139 120
67.931039554300284 -1.820462303785149 -77.501727691938413 142 139 120
66.788156048425918 -1.871744274978724 -78.617331542920681 142 139 120
65.568159290122011 -1.976878314120209 -79.806349236794887 140 137 118
63.962266539182167 -2.321812490361203 -81.362581651858790 140 137 118
63.282724120642087 -2.119273667039886 -82.037305686245134 143 140 121
62.371718092345816 -2.061737502181621 -82.932382392669808 144 141 122
61.846874923019726 -1.774776238038723 -83.460265250368110 141 138 121
61.167773349340280 -1.585969987297760 -84.135058827156513 142 139 122
59.716563633522526 -1.878447532896010 -85.544113268623960 141 138 121
58.188121439288267 -2.228987782856387 -87.026481173483972 140 137 120
56.582420403206768 -2.638439678334755 -88.582141190983918 141 138 121
54.899433257336085 -3.107654118766201 -90.211071517498453 138 135 118
54.297982013226019 -2.905351036636856 -90.812292790535054 140 137 120
55.164723356091130 -1.774205821276652 -90.019134589836113 140 137 120
55.877393598378049 -0.734947573464199 -89.373041233855986 141 138 121
54.040232920986185 -1.328647935608988 -91.148651845065871 142 139 122
51.971102118654329 -2.085118961445187 -93.144189918182576 142 139 122
50.597497579740832 -2.404220003487795 -94.479237476328819 143 140 121
48.914655858542929 -2.934915573751094 -96.107604517353565 142 139 120
201.562044411330248 -3.275914712607454 50.592228018269140 177 177 169
200.410945252596662 -2.573322628757168 49.472794503091478 173 173 165
194.784253392212236 -3.384073477481743 44.080231468991485 174 171 164
191.086646598289661 -3.578791622601111 40.529931740371609 176 173 166
188.392208840599380 -3.455048312837291 37.937606803623737 174 171 163
185.697774679378256 -3.350231881565997 35.345474970205686 175 172 163
183.929424664869089 -2.939850536659608 33.637468941238353 174 171 162
180.926318330601987 -2.978867667614772 30.751049828795686 170 168 156
177.691670242040885 -3.121734382888724 27.643891819128100 171 169 158
175.846218489549813 -2.785904157574454 25.862679504533531 171 168 159
173.229003760518111 -2.744292145783104 23.345115639203414 170 167 158
171.306439317164262 -2.465439356655808 21.490521384050538 166 163 154
168.997993183414110 -2.343419770141172 19.267851545229973 165 162 153
166.149262568202545 -2.440203943169527 16.529892012971459 164 160 151
163.377713670957462 -2.527765594580013 13.865772964267080 160 158 148
160.451779395984403 -2.693756069805933 11.054600888520838 161 158 148
158.066181770925709 -2.671947907290834 8.759012700297689 158 155 146
155.834989694278505 -2.606793108174878 6.610829008107288 157 154 145
154.067004867010326 -2.375427086209659 4.904490969464320 157 154 146
152.067471781894426 -2.248158569435381 2.977419696848273 150 148 139
150.299580944250920 -2.042325140460419 1.271299513697102 152 152 140
149.072170086406231 -1.630972591556112 0.080512243718488 153 151 138
147.458810715557831 -1.385139575575993 -1.478229229460112 150 148 135
144.996212886914009 -1.498932272420639 -3.846443861377821 150 148 135
142.919679085326095 -1.470265126932969 -5.846522186642744 148 145 130
141.383674401857689 -1.230613567494602 -7.331347363356230 145 143 132
139.230002186961912 -1.261571609979124 -9.404768069010601 146 144 133
136.690256979327842 -1.471402898465347 -11.845945970709522 145 143 131
133.841619048346274 -1.831166994262103 -14.581242858331137 144 142 130
131.996875721115202 -1.777912609401977 -16.359885386062160 143 141 128
129.920491509725480 -1.838278123054306 -18.359118816878436 143 141 128
127.457978607512104 -2.082428823537407 -20.726032236891655 141 139 124
126.076728422518059 -1.866044447044751 -22.062934164577882 143 140 125
124.232134406415554 -1.865656381566526 -23.841103942657838 144 141 126
122.696537468220768 -1.739442014154079 -25.324956517309147 143 140 125
120.465818747902190 -1.938438628048989 -27.470647618352189 144 138 124
118.853072325424833 -1.871267125730766 -29.027843271218444 142 139 122
117.472128405076887 -1.708833407955854 -30.364336373628873 144 141 126
115.473238708552174 -1.842131535678166 -32.289033297772363 141 138 123
113.319857082468744 -2.061475027357363 -34.360653874053213 138 135 120
112.402629457327933 -1.714797754694074 -35.255730464547952 134 130 118
110.790150699737850 -1.703724791866766 -36.812476716930348 141 138 125
108.173258513845454 -2.183120103396161 -39.324831895682138 140 138 123
106.406292704793444 -2.272321269531317 -41.028357670040606 142 140 125
104.562085987815465 -2.411247654889767 -42.805278697066171 142 140 125
103.490680499609184 -2.186140900196671 -43.847063509775580 142 140 125
102.032966617384758 -2.158218199599339 -45.256304421017802 142 140 125
100.498027483619907 -2.178643527691626 -46.738962251002334 144 143 123
97.649215075824870 -2.864461809002209 -49.470819429987358 142 139 120
96.500776192117897 -2.716933006697674 -50.585812066422307 143 140 121
95.429724993470842 -2.538244669814162 -51.627288561949342 145 142 125
94.281469558326563 -2.406246891227613 -52.742209090918607 147 141 125
92.128316050021084 -2.797145065303638 -54.812172899434955 147 141 128
90.052446633194165 -3.163215851374784 -56.808505828263378 147 141 129
90.682607119644899 -2.137967282770969 -56.233654764165578 145 142 127
89.921300399982414 -1.835885631435348 -56.981146566414765 144 141 126
88.850828461288273 -1.701805653499207 -58.022441001669762 143 142 125
85.769874901715298 -2.640929994749144 -60.973211897593927 144 142 125
84.158125882283429 -2.817599325460558 -62.528374728468862 144 140 128
83.165120696480045 -2.673086097460124 -63.495977502536590 145 142 127
82.945669723271337 -2.117098121994562 -63.729292627465810 143 140 125
81.566173395611472 -2.193871471615067 -65.064015974744279 144 141 126
78.794329109571180 -3.043006372561159 -67.720154454422470 143 140 123
77.569559079615900 -3.058534655887726 -68.907810988558765 144 141 122
76.422224022563029 -3.039559720740967 -70.022008422346858 144 141 123
76.203432294791455 -2.509919309365972 -70.255367719320446 145 142 125
74.901566397846480 -2.590335031785923 -71.516332820864562 144 141 124
73.909289485118038 -2.504660989005282 -72.483678336983303 143 140 125
73.691008289822733 -1.985281526535723 -72.717176249841856 143 140 124
72.544200819306553 -1.998976499331506 -73.831289791446295 144 141 122
70.004237989161794 -2.823390287897426 -76.266037376868951 144 141 122
67.928572263222307 -3.396413585154017 -78.260337484558107 142 139 120
67.478526806345300 -3.035612518446424 -78.713904496768237 141 138 119
67.415771345273782 -2.450443422373585 -78.800764823689406 142 139 120
66.966131919571836 -2.093908137758229 -79.254482169983874 140 137 118
66.361813763465847 -1.832193368361287 -79.854943476491485 138 135 116
64.673484432077501 -2.222336644598545 -81.482132038980836 137 134 115
63.914501631782926 -2.065529201395297 -82.229240215886165 139 136 117
62.923289299521159 -2.054293435620276 -83.196328793071274 141 138 119
62.319481865867075 -1.814175391976076 -83.796812121501802 138 135 118
61.715839953278689 -1.577972847316873 -84.397334330444778 140 137 120
60.027682794497181 -2.013266841232925 -86.024140500700298 142 139 122
57.797085309528541 -2.796117465770350 -88.163879697684592 141 138 121
56.651225543127381 -2.919234993180865 -89.277320276365344 138 135 118
55.582920325432568 -3.001675926159586 -90.317422505012701 139 136 119
54.824717473365979 -2.896153349178487 -91.064375905585479 139 136 119
55.074364270720380 -2.157407660805614 -90.858833703445242 140 137 120
55.479409212786962 -1.317563871938860 -90.506956324769703 139 136 119
55.419640291304049 -0.772207365776721 -90.594835591005022 137 134 117
54.662282590739935 -0.676268084944275 -91.342094663478150 141 138 121
51.656085303638264 -2.042018429031644 -94.213378343223354 144 141 122
49.580225966455117 -2.823081428054927 -96.205444370796698 143 140 121
214.916494690529134 -1.483826698755311 61.922479505006464 148 149 143
204.944007272577380 -2.498730825447154 52.402934066207564 178 178 170
201.621951909645531 -2.506550012009223 49.225342400016274 174 174 166
195.513038244944170 -3.471872764219028 43.399910400913456 174 171 164
191.571566441496827 -3.745821830531761 39.634513765863574 177 174 167
189.100937777472211 -3.544006208291288 37.266892343088330 174 171 163
186.939991618162622 -3.252419093597645 35.193631348172886 174 171 162
184.159720648999524 -3.192254426778601 32.532164287572471 173 170 161
182.076237192544625 -2.905760962635622 30.532756717555714 172 170 158
179.528249490717315 -2.799327751138717 28.092266527449993 171 169 157
176.206025159390492 -2.989267392342197 24.916630352488795 171 168 159
174.819437566874171 -2.499308484012386 23.579465782177977 170 167 158
172.348918237367570 -2.416591430300619 21.213017995539843 167 164 155
170.188134899927377 -2.236466503766055 19.140826443496735 165 162 153
167.407919901279854 -2.302983568388015 16.480636605494681 163 160 151
164.008223005087387 -2.622674777177880 13.232539753157766 160 157 148
160.608487050100450 -2.966171597611822 9.984706629533804 160 157 148
157.208709863475747 -3.333473747197213 6.737138271195761 160 157 148
156.132128159262948 -2.823601227491661 5.694898505408048 159 156 147
154.358644481004660 -2.593931791809113 3.991208562045102 157 154 145
151.655860188004510 -2.743552268231845 1.405690449957291 153 150 141
150.502034419776464 -2.295064702361103 0.290176960870497 152 152 142
149.580649054333236 -1.761198971758312 -0.604837405748128 151 151 139
148.814274389639309 -1.170892139643776 -1.352871567043451 148 149 135
146.343992094196608 -1.282543027749043 -3.717432023098013 148 149 135
143.873715297463548 -1.411447013076986 -6.081817514919521 146 146 134
141.713285737647965 -1.428746926378994 -8.152146119911436 146 144 131
139.630343424745178 -1.428627492572491 -10.148864779392369 144 142 129
136.772767378819651 -1.770628335663666 -12.880068549545683 145 143 130
133.450349205689434 -2.330808181062399 -16.051800922838055 143 141 128
131.367414802644532 -2.381346588438456 -18.048001919760338 140 138 125
129.826826794099617 -2.211345870741708 -19.529917498363915 141 139 126
128.053869440791487 -2.153593511602820 -21.232089604946339 142 140 125
126.668360802453364 -1.937537350289709 -22.566950924665719 144 141 126
124.818025265923040 -1.937470225567278 -24.342370675448905 144 141 124
122.967727746389912 -1.950273422992584 -26.117676132741849 144 141 124
120.110096446241144 -2.430256134672083 -28.847433152774585 145 139 124
118.879775944042919 -2.190588475145234 -30.035061220054445 142 139 121
117.727039171378507 -1.923911953591042 -31.149224208473044 144 142 124
116.186896358552815 -1.844012447974767 -32.630425310143806 143 141 124
113.716771448984531 -2.207295000100360 -34.992470887934587 139 137 121
112.254212722380075 -2.115708615187452 -36.400049364516747 143 140 125
111.024251051228902 -1.924468891295129 -37.587350602269993 144 142 127
109.329290057401010 -1.962892442596607 -39.214987027997267 140 138 123
107.091744219968021 -2.273056502568715 -41.356267757246002 143 141 126
104.931707092507025 -2.561411050597489 -43.423993999009781 143 141 126
102.849187371966579 -2.827133483950814 -45.418178381342216 142 140 125
101.386902565119399 -2.803652918236580 -46.825186852786885 141 139 124
100.622481105205807 -2.446132684714490 -47.571759231152811 143 142 122
98.462508428469008 -2.787022112085400 -49.638975538017831 142 139 120
97.000397114620725 -2.793868698811599 -51.045754835303370 141 138 119
95.383248550165604 -2.888950494187598 -52.599174363834521 145 142 125
94.774298422920054 -2.483818128005718 -53.198896020596550 147 141 125
92.691948210980655 -2.835423943171950 -55.192277454469604 147 141 126
92.083216084826120 -2.443605342133581 -55.791966356933415 147 141 129
91.784895096564853 -1.895148149639942 -56.098331703793463 145 142 127
91.409197158582941 -1.388950935892495 -56.478104064862748 144 141 126
88.861609465935885 -2.025266744054674 -58.911140129204796 144 142 125
86.313933986539254 -2.679414389085482 -61.343950644611880 144 143 125
83.921333249708425 -3.268854842583325 -63.629896679098380 143 139 127
83.545971681316502 -2.794749130891583 -64.009499624274497 145 142 127
83.713957282960124 -2.030204601431088 -63.876015431369353 144 141 126
82.718211312835464 -1.895669173887317 -64.842204317099913 145 142 127
79.860049525144959 -2.785033528768085 -67.567493582801887 144 141 124
78.088276690517489 -3.097264142673052 -69.266423938455915 143 140 121
77.170272186188214 -2.949518175043957 -70.159081172752565 144 141 123
76.019514800057195 -2.937619373652852 -71.271568537840920 145 142 125
74.403069068510973 -3.194541009184563 -72.823658400450597 142 139 122
74.028766951829738 -2.762355260563811 -73.203336680454953 142 139 124
74.198138184042406 -2.024133370288022 -73.070244416315973 143 140 122
72.659585774281084 -2.259493483270124 -74.548961235734225 144 141 122
71.121046527284918 -2.505503251959631 -76.027574729918086 144 141 122
68.883591604761847 -3.166127284763950 -78.165291491991724 144 141 122
68.354655391440687 -2.848824091196950 -78.691528576194628 143 140 121
67.592879404604673 -2.671242328595652 -79.437514342738467 144 141 122
66.753561054665283 -2.544446804662669 -80.256740225219630 143 140 121
65.370569501096170 -2.745293199791859 -81.588514322217378 138 135 116
65.075291922154918 -2.307708057738743 -81.895194363951703 140 137 118
64.080942654479330 -2.290885943897888 -82.860839745074344 139 136 117
63.475218767773399 -2.046570753103411 -83.460449452277970 140 137 118
62.869660872551719 -1.806174646525850 -84.060098228136127 140 137 120
61.875663798799295 -1.806727624482281 -85.025733247076005 139 136 119
59.715825838076270 -2.529334459221854 -87.089084792587840 134 131 114
58.022265743489228 -2.979294723029581 -88.713155249590017 138 135 118
56.639629262822538 -3.248046821166690 -90.044400224733209 140 137 120
56.112275303799365 -2.992462656772489 -90.570758948996513 139 136 119
55.818384578580037 -2.593758475865870 -90.877702235532439 139 136 119
55.369188226513828 -2.294884775368466 -91.331038007083492 138 135 118
54.764638098535698 -2.097532212093215 -91.930725826522149 138 135 118
54.549186456780902 -1.655720694941170 -92.164778942267617 140 137 120
54.800760051650343 -0.915233498558530 -91.960176439670789 141 138 121
52.562982945635383 -1.779911566666182 -94.095638639572996 143 140 121
51.336564268799378 -2.003633037636725 -95.280363429624856 146 143 124
215.316786164820911 -1.693626741376895 60.846269933658988 142 143 138
205.235295009664441 -2.737695749173770 51.268312832957207 178 177 172
203.145334241926690 -2.336902903271786 49.270827445500288 176 175 169
193.218706713780335 -3.519337317996339 39.841926150948183 177 174 167
190.818065678374978 -3.288367945663750 37.551381677264146 174 171 163
188.029126290874984 -3.207966919657413 34.893853255272262 173 170 161
185.550845156318047 -3.038887637972265 32.530229719767846 172 169 160
183.771578241422333 -2.641322829981091 30.827578225578407 173 171 159
180.516654664997020 -2.780168222161312 27.730078546307794 170 168 157
178.737447518867782 -2.412544391157420 26.027706656462527 171 168 159
174.317421193266966 -3.013532954181642 21.829461936770571 170 167 158
172.538244163982881 -2.679922329029440 20.127425754144468 168 165 156
170.836793143619730 -2.330018289983685 18.498896883899221 166 163 154
168.669323615839545 -2.165589010819446 16.430065545579595 164 161 152
164.404498034510311 -2.805016914197258 12.379686767093233 162 160 148
161.149464018724359 -3.090926137536196 9.283753723526871 159 157 145
158.515878193535229 -3.161485140629586 6.775176367089188 160 158 146
156.892231298569698 -2.860000336875882 5.220783558376922 158 156 144
155.113263379956948 -2.630391666246357 3.519717882286415 157 155 143
152.712806775388231 -2.657746680481460 1.231744240204279 153 151 140
150.545445911568663 -2.609271858857360 -0.835945505099630 153 153 143
150.087449111534738 -1.891208298175538 -1.289386104322119 151 151 139
148.464091641196489 -1.647129449485508 -2.843326464450257 148 149 135
146.840795087629601 -1.414304241257705 -4.397180127578338 148 149 135
144.984444951506475 -1.288548557259599 -6.171016290013739 146 146 134
142.584186998932040 -1.401166246409537 -8.458207314983838 146 144 131
139.484542969741426 -1.822859384736659 -11.405362933615237 144 142 129
136.617993444337458 -2.167895977341106 -14.132242573449815 145 143 130
133.285117262601318 -2.731105586870507 -17.298940684387929 143 141 128
131.351111690823501 -2.718085207543310 -19.145325196382856 141 139 126
130.660688709613908 -2.181235449550685 -19.818285237277564 141 139 125
129.504046198390256 -1.852171228996501 -20.931221921683800 142 140 125
128.425225908579648 -1.496932820014959 -21.970799029211634 144 141 126
126.491465681215473 -1.527481255015613 -23.816852437440104 144 141 124
124.324534619875422 -1.675462965695757 -25.882725572998680 143 140 123
121.457977109343972 -2.153017434094447 -28.608237319708763 145 139 123
119.679740312760600 -2.157477479566921 -30.307243375191234 143 142 122
118.601242014611145 -1.854810481026172 -31.346433378488712 142 141 121
116.978611608460156 -1.809903754744987 -32.898671384920419 142 141 123
114.734024282824222 -2.064551956410996 -35.037154942967362 142 141 123
112.878205509274011 -2.153222746155055 -36.809038108023458 143 142 124
111.566724861291817 -1.998620676988332 -38.067822701819580 143 141 127
110.177561338796664 -1.889902511503260 -39.399830653573133 142 140 127
109.332832028105372 -1.530771922239282 -40.218859492520409 144 141 126
105.999588618934354 -2.374616899123651 -43.382493202297184 144 141 126
103.055087265481163 -3.053315556056548 -46.179505288464355 144 141 125
101.043828595549996 -3.297002809448931 -48.097148647402236 145 139 123
100.354866923506734 -2.904587133471241 -48.769321041029514 141 140 122
99.043755041366254 -2.824892151436627 -50.027510994862354 141 138 121
97.421553889680254 -2.909361545399638 -51.578622621760076 141 138 121
95.954980651285481 -2.926908430228933 -52.983157206093011 143 140 123
95.033058119272610 -2.679175976868375 -53.874969280502256 146 140 124
94.111252046513670 -2.437686969606349 -54.766772801692269 146 143 127
92.644901805029477 -2.481682553513926 -56.171141817236560 143 140 125
91.489856630915185 -2.375104896282567 -57.282552496276736 145 142 127
90.490536363670159 -2.195527809638625 -58.247495086940745 144 141 126
89.413500457916527 -2.063452828266400 -59.285628704416979 144 141 125
87.091310785399074 -2.594664050670914 -61.494999648529074 144 141 126
85.625221678922955 -2.688043826005564 -62.898985253875225 144 140 127
84.781884281557097 -2.459114074197340 -63.717339756759088 145 142 127
84.405736303657321 -1.984881927895035 -64.096567787777218 143 140 125
83.017740354103367 -2.060346670350444 -65.427238415226782 143 140 125
81.006957813786400 -2.484406720064325 -67.343252885135968 143 140 123
79.385436611680660 -2.709145509344245 -68.893245934230890 143 140 121
78.308990096083363 -2.644526192138674 -69.930967158899648 143 140 122
77.388378337372856 -2.500791224853561 -70.822335804395721 144 141 124
76.312125187775138 -2.450243983917519 -71.860004683745558 143 140 123
76.248451136313079 -1.837971819276446 -71.946704545672759 144 141 126
74.938787181910968 -1.930573748010781 -73.203813644515492 144 141 124
73.940760260255502 -1.854834745897370 -74.168306109708425 144 142 121
71.774296677796585 -2.454963527508960 -76.229748708621059 144 142 121
70.698465798722424 -2.441785889569616 -77.267234936645423 144 142 121
69.856467110704671 -2.300409122828124 -78.085328646634537 143 141 120
68.079524994471655 -2.710012498147460 -79.780783728938161 144 142 121
67.003905986778520 -2.720413807042933 -80.818128605560133 144 141 122
66.318049087209616 -2.508080612544697 -81.489932632249406 141 138 119
65.788229739445896 -2.207666643807310 -82.015573378686469 141 138 119
64.790888353913473 -2.190023770851075 -82.979795789368495 140 137 118
62.936105270878471 -2.694444065351307 -84.747894906709945 138 135 116
61.704972838915452 -2.834740733632929 -85.931223385869544 141 138 121
61.409559661122714 -2.414522243408768 -86.237659793906545 133 130 113
60.490530093186052 -2.377503798459800 -87.128686867271398 133 130 113
58.167813001396269 -3.210191812507857 -89.334702243746136 133 130 113
56.936862511330730 -3.383601242809668 -90.517776916992005 138 135 118
57.032026587885895 -2.740259050717662 -90.459066444470920 138 135 118
57.517570506083288 -1.851610473705660 -90.035342987330353 140 137 120
56.209027270571369 -2.088352412298633 -91.291504528717439 138 135 118
55.290650204295318 -2.087130691094203 -92.182475282979880 138 135 118
54.372373731363140 -2.092055843523225 -93.073430887895000 141 138 121
54.078577387724692 -1.703469698955316 -93.380315176224798 142 139 122
53.472797800973709 -1.517441748344615 -93.979298256873591 144 141 122
52.398795783401738 -1.638432347459781 -95.016278344907505 144 141 122
215.083511386179850 -3.226947015237235 59.199908865287085 118 118 115
214.233405990101119 -2.375500384792924 58.378384270831276 136 137 132
210.656944569676142 -2.409488323160133 54.990192303860766 162 161 157
204.821351668168347 -3.205043888626440 49.475692629256315 176 175 170
203.192313319767777 -2.654902716355581 47.921319528471656 175 174 169
201.641229995777110 -2.090131091065556 46.440361297534650 174 171 166
194.558935518797824 -3.397578968737864 39.753806389294994 175 172 165
191.839233138389432 -3.270994954041829 37.173538720652630 174 171 163
189.041623769427986 -3.190095516343534 34.520152857671746 172 169 160
185.854458669861117 -3.263829406913970 31.500426414853763 172 169 160
184.459263154857297 -2.731713046696715 30.166945897325093 172 170 158
182.051245129495356 -2.567774004910018 27.880620527215541 172 169 158
179.643244223951740 -2.420571371266419 25.594459243300236 170 167 158
176.300236576519239 -2.627570508664651 22.428941337489050 170 167 158
173.658482618988671 -2.602284000335759 19.923285001567820 167 164 155
172.107652007740569 -2.194025004176328 18.443816936837749 166 163 154
169.076309685195696 -2.346346823898644 15.572072126483221 164 161 152
165.187748870835549 -2.841078791612675 11.894494569854118 164 162 150
163.792859997842527 -2.419398681194591 10.562004131636201 158 156 144
161.307000023373433 -2.423946894167600 8.203793522193109 156 154 142
158.977017033704982 -2.385701930648702 5.992289175700847 158 156 144
156.647051512830700 -2.363629835270111 3.780942947653728 157 155 143
154.317102736651464 -2.357728784414562 1.569755165686729 153 152 140
152.143052575095794 -2.306303313889444 -0.494764815020574 153 153 143
149.735195930042693 -2.363313416291653 -2.778893048380269 151 151 139
147.872973357262879 -2.217288247070132 -4.550128501242085 148 149 135
146.478489710668100 -1.894161633616289 -5.881798337726735 148 149 135
145.785648246230210 -1.293203627515007 -6.554261282937887 146 146 134
143.377934392444672 -1.405587703486699 -8.837887835023110 146 144 131
140.190653453088430 -1.859519526766326 -11.853645292166419 144 142 129
136.925359532285142 -2.368375642032105 -14.942375127983041 145 143 130
135.297226981490383 -2.206302769908319 -16.493186977275286 143 141 128
133.357288984707168 -2.188684366246846 -18.336780767256641 143 141 128
131.963168166226922 -1.949447681770547 -19.667760658285914 140 138 125
131.192900349015304 -1.448997821657826 -20.413007405808258 141 139 124
129.643007104219009 -1.295004410037608 -21.890306620042082 143 140 125
127.391372395225019 -1.461272982012192 -24.026328469973464 143 140 125
125.685614968887919 -1.400444640848183 -25.649821568984464 142 139 122
123.200057132775271 -1.700842284461727 -28.005131393570053 144 138 122
120.714480479293627 -2.018487371561997 -30.360254679390579 144 143 125
118.774825522270220 -2.104927485806840 -32.202912748023493 143 142 124
117.459159037383756 -1.918640453977946 -33.460021001030299 143 142 124
116.221572578833545 -1.705336473485881 -34.643901685104737 144 142 126
114.126044270728656 -1.899981198100584 -36.632594442298483 144 142 127
112.342547819466276 -1.962771334614798 -38.328483876081492 143 141 128
111.261178429853459 -1.706088487924212 -39.365827021088734 137 135 122
109.711826549610961 -1.679609806920252 -40.842072649089317 145 142 127
107.772439190298385 -1.850862854160513 -42.683985713424164 145 142 127
104.584709583866285 -2.638550286570061 -45.696093015627127 145 141 125
101.865017708664098 -3.220660508191240 -48.269070764132294 145 140 124
100.705861913842881 -3.056897321838903 -49.379103575695154 141 140 122
99.390727041284634 -2.978070545493839 -50.635360007824488 141 138 121
98.543901110520835 -2.675509695550744 -51.452803530170655 140 137 120
96.916763587974941 -2.769301265259225 -53.001457656331439 143 140 123
96.460386776947260 -2.284181153293915 -53.453275448803339 146 140 124
95.691971410125021 -1.960460414941659 -54.197589240610910 145 142 127
93.908943580797228 -2.160480717369508 -55.892290282484851 142 139 124
91.735616435410606 -2.573652939101180 -57.952373814208954 144 141 126
90.733262285039444 -2.395214736020530 -58.915853282484022 145 142 127
89.262581208300332 -2.467888186290503 -60.317855245602232 145 142 127
88.026179281917692 -2.427662917684388 -61.500521019676654 145 142 127
87.024101580405244 -2.272047634081554 -62.463897812362688 144 141 126
86.881099080639657 -1.666131174837646 -62.623440678988572 144 141 126
85.020266827157229 -1.981130063228224 -64.390595703613059 142 139 124
83.471817204624045 -2.140566904536525 -65.865359246741974 141 138 123
81.689082284743535 -2.437802793438632 -67.559199726622978 141 138 123
80.453110543688453 -2.448720919502211 -68.741544855229989 143 140 123
78.748512241432138 -2.725702737352950 -70.362115225560103 143 140 123
78.528228077480264 -2.193312813474495 -70.594788848294087 144 141 124
78.464422779866140 -1.575122232458898 -70.681486843744892 144 141 124
76.760051936371411 -1.876259759058239 -72.301917382721996 144 141 124
75.290093812968337 -2.057000447081601 -73.703152813871554 144 141 124
73.273135151773673 -2.558155738457523 -75.615419068671088 144 141 124
72.584713541582687 -2.314925662291895 -76.286314183714012 144 141 124
71.896444052660215 -2.076205223138818 -76.957235653091203 145 142 125
70.739328635629334 -2.113008209335258 -78.066180046025323 141 138 121
69.816804873572238 -2.021319216696577 -78.956098260311506 142 139 122
68.816212873731288 -1.981535707463931 -79.918993492942121 142 139 122
67.893905705161728 -1.902475761570740 -80.808885327687904 141 138 121
66.346153284100467 -2.199909680064876 -82.282561936371934 140 137 120
65.189403579833069 -2.275147519576751 -83.391285655785339 137 134 117
64.110927557464322 -2.311386262983634 -84.426997788686549 135 132 115
60.842455170146920 -3.674655217959641 -87.505412156438382 137 134 115
62.110656819085335 -2.310903620356140 -86.352411099815640 138 135 116
62.205913532224770 -1.652992197289436 -86.293894912732327 137 134 115
59.328343974000589 -2.817111287384986 -89.007071379020800 132 129 110
57.780701519075322 -3.181058062754123 -90.480115944878321 134 131 113
57.641654133753264 -2.681889341835259 -90.640452116600983 137 134 116
58.128998767545639 -1.792600201272873 -90.217596709271163 141 138 119
57.364369913551002 -1.685034800547951 -90.961496960359057 141 138 119
55.817052108929389 -2.076423507783899 -92.434414364218753 139 136 118
54.504569188538738 -2.329464320619337 -93.688523401363597 142 139 121
53.975101591315834 -2.091867054099496 -94.213685820181354 143 140 121
54.072301758365654 -1.455590748965325 -94.155876673649743 145 142 122
53.621609016552753 -1.171771200765535 -94.608341617523109 145 143 123
213.371492933688586 -2.982479337274429 56.136355223814888 129 130 125
208.924288012702050 -3.299147534663537 51.948185998641407 157 156 152
205.961775208650010 -3.164125417174500 49.151414491993222 174 173 168
204.562200804358412 -2.536239730804746 47.819043018305763 174 173 168
198.082994798596729 -3.604347279618850 41.728380081774475 174 171 166
195.276711905824499 -3.485374632053889 39.078751696178813 174 171 164
192.783037835821688 -3.279920930741218 36.722117668054921 174 171 162
190.054911973858594 -3.172034761437274 34.146072230430690 173 170 161
187.717570481807570 -2.947910694100703 31.936174819262163 172 169 160
185.302090751856298 -2.767286179784910 29.653247351100788 172 170 158
183.433752219704502 -2.410368863994330 27.882766933431014 172 169 158
178.907926955492684 -3.013207380473675 23.624296220901982 170 167 158
177.586762263836476 -2.494550133305079 22.366397037572597 170 167 158
175.484003464970613 -2.268925294810843 20.376837276636479 168 165 156
171.974234314804391 -2.573817669866502 17.070387396554111 166 163 154
170.184187428269581 -2.266443512752631 15.373821381523555 165 162 153
168.003323470465489 -2.117483500232050 13.311557125547807 163 161 149
165.275256821704431 -2.189985820065071 10.737340189868746 159 157 144
162.703541761521421 -2.221879202265892 8.309624951788038 156 154 142
159.740927331949024 -2.421717580645667 5.516348949743900 157 155 143
156.700107950068286 -2.672389566909449 2.650150299762089 155 153 141
155.535711616703225 -2.210399401389830 1.539554743762636 151 150 138
154.136841781631801 -1.848932097488329 0.209588584823109 151 151 141
150.470520585031210 -2.399508637975155 -3.241156152165587 150 150 138
148.446181933717128 -2.316317426406655 -5.155906817093808 149 150 136
147.829403549718421 -1.677157582991935 -5.754292425046543 148 149 135
146.587167286522913 -1.297643833505596 -6.937659539165764 147 147 135
144.328400951820640 -1.345373660021019 -9.071489822659231 147 145 132
141.522220201506400 -1.636096930612105 -11.716949866957520 145 143 130
138.872427726704188 -1.880743511366140 -14.215982046881095 146 144 131
137.317561098169563 -1.681319839383857 -15.691369647873898 145 143 130
134.667774649297769 -1.958826331743883 -18.190066467004442 143 141 128
133.112995521111742 -1.784607136714483 -19.665236485521206 142 140 127
132.027597598266937 -1.417973899305033 -20.701784168644906 141 139 126
130.472966465872162 -1.263480577213351 -22.176821939521346 142 138 126
128.449044128620187 -1.326049451948625 -24.090271385877969 143 140 125
126.033999502589637 -1.575935118274024 -26.368975548704498 143 140 125
124.323037701707918 -1.528017395291048 -27.989845997293827 148 142 126
121.986235052922240 -1.773619245728184 -30.195166064391742 144 142 127
119.414704212476067 -2.141852329083110 -32.619507319056538 145 143 128
117.938546526628542 -2.027145305786556 -34.020818092495830 144 142 127
117.010184281528254 -1.670269674616617 -34.910672895795557 144 142 129
114.282173001816929 -2.154932139197003 -37.480673748416876 143 141 127
113.666979072300649 -1.670558346772402 -38.078224063382322 145 143 130
112.191091692820024 -1.595770943405173 -39.479253237759139 134 132 119
110.089168761027082 -1.828211344012854 -41.464497779019553 145 142 127
108.691643290357149 -1.738429415443383 -42.792310483229357 144 141 126
106.589752147304367 -1.997410235506122 -44.777297038243802 146 141 126
103.548556125003515 -2.726472407016155 -47.638391194240370 146 140 124
101.290039825177615 -3.094252893094517 -49.769046651343103 141 140 122
100.362313804567648 -2.822892420151328 -50.658325571775464 140 137 120
98.103808707554350 -3.217220571154443 -52.788713119813877 138 135 118
97.959167310440236 -2.572380765563781 -52.947872601123294 143 140 123
97.423249955985753 -2.124979298134163 -53.472109098225985 146 140 124
97.200706623127346 -1.522586148545628 -53.704422520667663 145 142 127
94.550859387657198 -2.158167869336173 -56.199404411490121 143 140 125
92.527410799012557 -2.490770884075154 -58.110300900499965 145 142 127
91.130475287263849 -2.513768394828114 -59.437234943611003 146 143 128
89.811919036612750 -2.505587323971072 -60.691127408452303 146 143 128
89.276699231505461 -2.096399140456755 -61.215304262243649 146 143 128
88.271656855394767 -1.938321756545040 -62.177288108399267 144 141 126
87.658411107934569 -1.579245574804606 -62.774480675731638 144 141 126
85.243435507189318 -2.186272977485500 -65.049541620713200 143 140 125
83.690203541110264 -2.346857970056694 -66.522005488584540 142 139 124
82.136998408122011 -2.518091262736706 -67.994372585012229 142 139 124
80.740538229497773 -2.614646495915558 -69.320776859271547 143 140 123
79.265757445296899 -2.763681710113167 -70.720031506395713 143 140 123
78.888218948035188 -2.317734924416981 -71.098303162291330 142 139 122
78.902772898943113 -1.656598581401713 -71.112071131023981 142 139 122
77.114747504638672 -2.001834539971944 -72.802886577244522 143 140 123
74.777962984403160 -2.667780240231640 -75.003888506569837 143 140 123
73.460227212584996 -2.773608157244901 -76.256999933887101 144 141 124
72.299346904801084 -2.799188327991132 -77.364258738067207 143 140 123
71.609002951022589 -2.563271446011263 -78.034158932145544 144 141 124
72.565579246150307 -1.383228672279361 -77.173621906892436 142 139 122
72.659932068899948 -0.695910101343869 -77.114976004290838 142 139 122
71.656542122656020 -0.647739874727029 -78.076619037647987 142 139 122
69.633550421856910 -1.204469296577826 -79.985427054537297 140 137 120
67.296684869325958 -1.960395426640946 -82.185464004523993 140 137 120
66.214919883792476 -1.987397484474926 -83.219697786565519 136 133 116
65.839384471191480 -1.599983270970748 -83.598325206127015 136 133 116
63.894690806850235 -2.157543559267952 -85.433723297828323 138 135 116
62.734669185477202 -2.254393246648297 -86.540659281706610 139 136 117
62.830461139769113 -1.595872551254005 -86.482405423702090 137 134 115
62.298628668238337 -1.320039084489333 -87.006830079174506 135 132 113
58.626945001567435 -2.978180000789921 -90.443608712349743 135 132 113
58.409195354232438 -2.526110179786516 -90.676668063977417 139 136 117
58.505773279926828 -1.879770364983262 -90.618664828074714 141 138 119
58.131519211144138 -1.526906030094812 -90.997549598869881 142 139 120
55.794102846966311 -2.411203116669009 -93.196001655709352 145 142 123
54.791723036868277 -2.467247615200971 -94.157055200217286 142 139 120
54.260746624719530 -2.230197847676629 -94.681490171464191 141 138 119
54.437028957483349 -1.544168261648188 -94.551166912532892 143 141 120
52.413643543838418 -2.271361793022024 -96.458031905833110 141 139 118
211.407779404388805 -2.831692354462709 52.861599292044360 155 156 151
208.200969053638460 -2.767465969638671 49.849850975634411 173 174 169
205.542890959442389 -2.545749607433449 47.349982099575556 172 171 167
196.777290155300136 -3.310831210454681 39.135095736503104 175 170 166
193.256759008363474 -3.447560461614636 35.832063371274558 175 172 165
190.598597396052838 -3.314323716711777 33.333145215144697 173 170 163
187.391620805734988 -3.388666199533728 30.322902786139736 171 168 158
185.752714122939039 -2.939162170940883 28.774286571379662 171 169 157
182.153694573860605 -3.190292457278899 25.399121491104779 171 169 158
180.044396644928469 -2.937252042611862 23.412407825280098 170 167 158
176.445321611199120 -3.233011692077494 20.037728681126566 170 167 158
174.414460170593088 -2.985860545818029 18.124410774263197 168 165 156
172.226804206635506 -2.810039977365032 16.065119301554404 167 164 155
171.215440907797785 -2.215280918831512 15.101664379318208 166 163 154
168.792614456794240 -2.153177670608959 12.823471556257573 164 162 149
166.605068777898538 -2.019354707345453 10.764559626001272 162 160 147
163.554878483603204 -2.227897750329043 7.902410334020828 156 154 141
160.504661550640321 -2.457520324380111 5.040490768090336 155 153 140
157.846564355677856 -2.556731029594957 2.543934493297542 154 152 139
157.619860550166379 -1.726593966441142 2.311267144201167 151 150 138
155.275570772233920 -1.730675472629847 0.107042803790563 150 150 140
151.284108754547958 -2.404370917145837 -3.630323893833435 149 149 137
150.037951928945006 -2.007059637012774 -4.811998623259115 149 150 136
149.105654595248211 -1.491618718673462 -5.701603085819841 148 149 135
147.624348679797777 -1.206058720047232 -7.102209639367999 148 148 136
145.201732965162762 -1.317153818657651 -9.378720460393623 147 145 132
142.465314715867862 -1.574880685709605 -11.947035409690812 145 143 130
140.748782198483156 -1.425680490383768 -13.566283397967680 146 144 131
138.169271561039238 -1.651576967426619 -15.988272287293768 145 143 130
135.511286195687006 -1.928571554427987 -18.483052042182607 144 142 129
133.873306466222800 -1.787429243766253 -20.028937586168951 144 142 129
132.549252590064384 -1.522121885869268 -21.282846735853440 142 140 127
130.519050629839654 -1.572957856408138 -23.193412804781588 143 139 127
128.724293495120833 -1.534568027642043 -24.884956662408484 144 141 126
126.380240590215323 -1.751189858058497 -27.087106537734911 143 140 125
124.428583447992310 -1.809243636758913 -28.924314996920174 147 141 127
122.319984745790933 -1.951147316469568 -30.907297812449684 146 144 129
120.054421247219224 -2.178545015774557 -33.036026944374782 144 142 127
118.102816639006306 -2.278481996399046 -34.872829410812699 142 140 127
115.837252883925302 -2.535995244726591 -37.001248425549704 145 143 130
114.670662422476738 -2.300698545676725 -38.108460848463494 143 141 128
113.111653162545295 -2.256272784486486 -39.580271157435817 145 143 130
111.866726767508908 -2.075051735840751 -40.760310195319875 135 133 120
109.915289914136551 -2.236550870301327 -42.596559224922913 145 142 127
109.220105651325881 -1.812826999327304 -43.266077023435287 142 139 124
107.347278590240919 -1.959055088152698 -45.029231015840566 145 141 126
104.218093196726798 -2.725577491902808 -47.958704646182611 148 142 126
102.031118052134204 -3.054887313502560 -50.013122259681410 143 142 124
101.100637150596896 -2.783013357512045 -50.901088540060016 143 140 123
99.699053340864609 -2.750134298180082 -52.226374018954573 140 137 120
99.161490272821780 -2.297072943210649 -52.749881472383350 143 140 123
98.702640077368656 -1.808151049385615 -53.200555139874695 148 142 126
97.929763549690207 -1.480627772957992 -53.942773869054889 145 142 127
95.350239549375615 -2.075812847390860 -56.360955092581861 142 139 124
93.006310543362019 -2.568316339820609 -58.560324452175308 145 142 127
91.526545894992609 -2.632074440442407 -59.958072635934059 145 142 127
90.282541698299781 -2.583757254152711 -61.137184804124246 145 142 127
90.060109879997881 -2.010861822716732 -61.369247939916249 146 143 128
88.659163986663373 -2.058371093544484 -62.694011118362937 144 141 126
86.865334787785912 -2.323195890028578 -64.382877756855976 144 141 126
84.914316045791153 -2.683997828974797 -66.217275285621213 143 140 125
84.299446868910508 -2.342352194266848 -66.813511788506560 143 140 125
82.977300460495186 -2.386182883782882 -68.065151351001447 143 140 125
80.869108287355672 -2.865652869712655 -70.044853909072060 142 139 122
79.704250933048115 -2.844340688494922 -71.150692794362868 143 140 123
79.011208294502325 -2.571565926195599 -71.819681343576804 141 138 121
78.082432018653151 -2.433819365991192 -72.707082470376974 142 139 122
76.446054804237860 -2.696279839178010 -74.249580165863023 142 139 122
74.966960166821835 -2.881834591994135 -75.646395166438822 143 140 123
73.094646698377744 -3.299172829716705 -77.407004186846365 141 138 121
71.851525259507596 -3.372469406691003 -78.585286831794321 140 137 120
71.395078378476569 -3.005226804910452 -79.035857730587878 141 138 121
71.804181142596676 -2.143874153619801 -78.686143001599788 141 138 121
69.649941342656788 -1.518438584042644 -80.766048765707382 140 137 120
68.014025995491139 -1.859445817842889 -82.307958895637000 139 136 119
68.030897683934327 -1.233518846476035 -82.322473234311872 136 133 116
66.552518861264289 -1.497346859504848 -83.718824972220119 137 134 117
65.074142342886930 -1.771274252868411 -85.115073854498775 138 135 116
63.831951087586589 -1.913033179418183 -86.293096778721406 139 136 117
63.613383843742554 -1.443029331483765 -86.525949598930112 138 135 116
62.528876016206539 -1.501967188131032 -87.558542483538901 137 134 115
60.105631913736985 -2.388792870648436 -89.826767701384654 138 135 116
59.651223551711112 -2.078670799369486 -90.277725850367432 139 136 117
59.984731446212564 -1.282926554523602 -90.002030339505438 142 139 120
57.561337468347617 -2.203489552326891 -92.269836582341384 142 139 120
56.477114155966035 -2.301099237237347 -93.302167509469484 143 140 121
56.338529335506934 -1.809719751880017 -93.462644792122404 144 141 122
54.466473924018217 -2.418218063298937 -95.221409559423762 144 141 122
52.830741650521219 -2.888917945328155 -96.762072279588665 143 141 120
52.298500506478504 -2.663276545084872 -97.285784775377124 142 140 119
216.488511149041244 -2.654760587540435 56.193835408998325 122 124 119
212.021092276569959 -1.862793792252482 52.003924732017452 169 170 165
209.826741486120028 -1.477063987337463 49.945675340134358 171 172 167
203.621733972817793 -2.429318997729542 44.166079795988878 171 170 166
199.461273399418928 -2.742959846464932 40.284137435468040 175 170 166
194.435651036345746 -3.376627767191141 35.599931974895753 175 172 165
190.432321630928215 -3.697184170002289 31.864607557326366 173 170 163
187.530009815360728 -3.666987821325537 29.150974013357740 171 168 159
185.335545958159173 -3.411102118065273 27.094115262787511 168 168 156
183.377068348018184 -3.087604123942644 25.256242188002773 171 168 157
179.688218053029516 -3.390138046935091 21.813722067191833 170 166 157
176.235284357499097 -3.633769153668819 18.590310592337971 169 165 156
173.962199828199175 -3.475382509655371 16.461208423686202 168 164 155
172.711741100011977 -2.960040759445187 15.280376762789160 167 163 154
170.281402026955220 -2.887253638683321 13.005667977900600 166 162 153
168.637740679191268 -2.539129626167548 11.460369933998038 162 159 152
167.308815116190431 -2.084361400909855 10.206841166715463 162 159 150
164.249199564685682 -2.293206081702706 7.349203990386428 159 156 147
161.268229360324796 -2.493106622342765 4.564709967950193 152 149 140
159.624733064392757 -2.198498401530253 3.019883828744980 154 152 140
158.846767088488264 -1.578885401437101 2.277093247891969 153 151 139
155.944515185320427 -1.797266992673119 -0.434010220352917 151 149 137
152.255395079083087 -2.346785735991400 -3.873858925557187 150 148 136
150.848120733331257 -2.011492332037057 -5.199534974294608 152 150 138
149.598303783093058 -1.622486889897978 -6.379373216477688 149 147 135
147.561648127680002 -1.561339124399727 -8.288004564600016 149 147 135
145.761111817142876 -1.417542971725060 -9.977868684568421 146 144 132
142.858842380222370 -1.740810432173186 -12.687884121784151 145 143 131
141.058361468595137 -1.625504350295626 -14.377481481790198 145 143 130
138.156059844670267 -1.984912811321688 -17.087109503378855 144 142 129
136.355629203338339 -1.898092266750075 -18.776437696576437 144 142 129
134.712666603756247 -1.756448956862903 -20.319944609614964 144 142 128
133.069761988252992 -1.626035471588083 -21.863363667811910 142 140 127
130.797171837485678 -1.779825283052169 -23.989488956378864 143 139 127
129.311797286536262 -1.605263503154744 -25.387006528224333 145 141 129
127.905217582414721 -1.406159972319846 -26.711613020356708 143 140 125
126.498714857967201 -1.216633703651234 -28.036157755730670 145 141 126
124.226237481743638 -1.424078627252324 -30.161784696229574 144 142 129
122.268698387729060 -1.505159511898726 -31.995942220270081 144 142 129
