ply
format ascii 1.0
element vertex 681
property double x
property double y
property double z
property uchar red
property uchar green
property uchar blue
end_header
-108.297663477302976 -167.284249886187155 -9.117881037957119 111 48 49
-108.289185801572657 -166.878243265828246 -8.460962649548208 101 41 44
-108.278875759075277 -166.353280756744823 -8.249580871522625 100 55 53
-108.271617997481542 -165.999614821101943 -7.369822341569829 105 81 72
-108.261591332450791 -165.471246229429084 -7.158340057254776 28 20 5
-108.254079046447728 -165.082719348777601 -6.389921017047044 11 9 0
-108.241997675541469 -164.411852435579533 -6.735182928390685 14 12 0
-108.227804395925290 -163.604864404569014 -7.637150757271542 13 11 0
-108.209739084653563 -162.556587987088761 -9.541184619683264 12 10 0
-108.199691842119918 -161.977627221901059 -9.551950720073279 12 10 0
-108.192938334713062 -161.586255937177015 -8.783197961666019 12 10 0
-108.179627782534325 -160.793772561248204 -9.684594193065266 13 11 0
-108.168298605853039 -160.110750479886747 -10.140480261442605 11 11 1
-108.163669139303039 -159.819322461208913 -8.926247063243608 16 16 6
-108.147055833206409 -158.803159270574014 -10.829255733780400 19 16 9
-108.137118039800711 -158.177482913058782 -11.062168110983407 19 16 11
-108.140818448678615 -158.357091469829641 -7.732782499343529 16 12 9
-108.133147106226829 -157.849418386724068 -7.409101522593318 190 189 185
-108.102383101617619 -155.732544896140951 -6.447878994928431 176 176 176
-108.092100109629826 -155.030356811607675 -7.014320742353704 95 96 98
-108.083555648146174 -154.423879094473449 -7.135510048170687 86 90 91
-108.073586160063130 -153.726338022777213 -7.701753982365005 81 85 86
-108.064547750676127 -153.076985732116896 -8.045338690530400 98 102 103
-108.054887233826733 -152.384621380945561 -8.611381527360692 101 107 107
-108.044244981469760 -151.628765361640916 -9.511124229489610 128 134 134
-108.033399614537132 -150.855557795140641 -10.522001594047737 109 114 114
-108.026072234503303 -150.281505419816341 -10.531415997018144 64 68 67
-108.016646870656558 -149.579788019819262 -11.208301498008552 61 65 64
-108.008463639974437 -148.944524487300129 -11.551332068947744 71 73 72
-107.998599466241387 -148.207254862115320 -12.450511221838354 75 77 76
-107.991038821910351 -147.597315525085662 -12.682124390014820 96 98 97
-107.982527617749298 -146.927954727007602 -13.247380612466486 61 65 66
-107.975201561740050 -146.321210865152523 -13.478848661762640 51 55 54
-107.968681295107302 -145.754966527177999 -13.487796572397627 55 59 58
-107.961910089108400 -145.169426307871476 -13.607922038685729 54 58 57
-107.954895184195649 -144.565405966668663 -13.839213199797598 53 58 54
-107.946965085835060 -143.906041977254262 -14.404088521052643 53 58 54
-107.938816933468871 -143.230919743086076 -15.080089251046587 59 64 60
-107.931457113200466 -142.595736699663433 -15.533583961672008 48 53 49
-107.925526735364883 -142.034896857233122 -15.542194040340803 41 46 42
-107.920334160090604 -141.509628319571220 -15.328367233642808 38 43 39
-107.914886327867762 -140.965864428295163 -15.225711807880572 33 38 34
-107.910478301500319 -140.473235797342824 -14.789455926877196 34 36 33
-107.904529248396400 -139.893837803792167 -14.909124853023087 37 39 36
-107.898344882551754 -139.298390948410145 -15.139930435895167 34 36 33
-107.891931406945574 -138.687710407585030 -15.481861316989324 35 37 34
-107.885917585645203 -138.094839007349179 -15.712558801482345 36 38 35
-107.881220113097555 -137.566481808524657 -15.498526932478001 40 43 39
-107.876275418038560 -137.021522694159898 -15.395643110652827 37 42 36
-107.870785988869500 -136.445480173279606 -15.515057614717932 29 31 28
-107.865066546378756 -135.855010843640969 -15.745589543678136 26 28 25
-107.860317962881112 -135.309938455752672 -15.642613068735557 28 30 27
-107.855924057995480 -134.778850901721171 -15.428464078919944 30 30 30
-107.851582332749402 -134.246722153001173 -15.214300844083681 21 26 20
-107.846416760684818 -133.671744304287358 -15.333549456814580 21 26 20
-107.842761186554625 -133.165671781343832 -14.897071989973995 21 26 20
-107.838857836518784 -132.644073772615315 -14.571731754822309 24 29 23
-107.834712527444069 -132.107765464253532 -14.357517577469935 30 35 29
-107.829201279298161 -131.506174763360320 -14.698923269750907 32 37 31
-107.824037469518046 -130.918830184733935 -14.929157221294957 31 36 30
-107.819768938848014 -130.369519021320230 -14.825994722570982 28 33 29
-107.816098873641209 -129.843760563981817 -14.500585710344325 27 32 28
-107.812465890313888 -129.316404277953581 -14.175175405526971 27 32 28
-107.808325951902845 -128.764476252681220 -14.071978325380826 27 31 30
-107.804498960255728 -128.223250626193760 -13.857662482487882 30 32 27
-107.800175580082353 -127.659083175784687 -13.865538031723958 32 34 29
-107.795897710393746 -127.094945483063540 -13.873391502589300 33 35 30
-107.791401010280595 -126.520438062794355 -13.992315286915101 29 31 26
-107.787212857456808 -125.956628446134772 -14.000122460488114 29 31 26
-107.783066919576981 -125.392845224913714 -14.007909166875152 27 29 24
-107.779219378822205 -124.838669788987374 -13.904595338419313 26 28 23
-107.774642282034847 -124.256043302379894 -14.134500042787408 26 28 25
-107.771125420689671 -123.710682162606957 -13.920078403536820 26 28 25
-107.767890440235220 -123.173022370435348 -13.594583754674090 25 27 24
-107.765180281835299 -122.650742077239855 -13.046961953989580 25 27 26
-107.761497227878152 -122.092872022968422 -12.943607466176189 25 27 24
-107.757846024589028 -121.534477963045134 -12.840243134965846 23 25 22
-107.753738089167399 -120.960200929663358 -12.958978564107809 22 24 21
-107.749909774494469 -120.393892963835583 -12.966639309105915 21 23 20
-107.746114522515953 -119.827602316363070 -12.974284058757860 21 23 20
-107.743066773974178 -119.281918670796500 -12.648782432343779 22 24 21
-107.739329899988931 -118.714844831249920 -12.656407315953260 20 22 17
-107.736328345312927 -118.166745483719993 -12.330908456585973 21 23 18
-107.731714693249771 -117.574693792079756 -12.782645437083886 24 26 21
-107.727607094940950 -116.996382729521841 -13.012281114161539 36 38 33
-107.721927897453753 -116.380641792793611 -14.019066117840481 42 44 39
-107.718358581681187 -115.816898442299831 -14.026576559778448 40 42 37
-107.713459480886712 -115.223402675798383 -14.700182732399924 35 37 32
-107.710403180082153 -114.670690812028610 -14.485616427260169 31 33 28
-107.706920559226660 -114.108068110562527 -14.493073859243566 30 32 27
-107.704347910593611 -113.562036587507919 -14.056489642618885 30 32 27
-107.700250688225125 -112.986725640003783 -14.396948359111349 32 34 29
-107.696405665509488 -112.416656060721550 -14.626373587197747 28 33 29
-107.692591174918263 -111.847682014923137 -14.855772931943960 25 30 26
-107.689450385058350 -111.288977479787988 -14.752167616575946 26 28 25
-107.686116497455913 -110.726950418262206 -14.759547763859786 26 26 24
-107.682593950151897 -110.162415678409374 -14.877902863011400 32 32 29
-107.679516414980412 -109.602916669239917 -14.774275464737627 32 34 31
-107.676874032554721 -109.046822349859198 -14.448687074858526 33 35 32
-107.673004221309512 -108.478907072065468 -14.788960871305534 35 37 34
-107.668960086843981 -107.911199947670070 -15.240174805676588 37 39 36
-107.665152911471580 -107.346827436296195 -15.580382169862247 37 39 36
-107.662183596397995 -106.787626023578980 -15.476699936154773 34 36 33
-107.658630444607226 -106.226048090436734 -15.705898125411579 28 28 26
-107.655501531242848 -105.666241795418017 -15.713157354257248 31 31 29
-107.652195350006807 -105.106369811562402 -15.831360948533757 32 32 30
-107.649499874985580 -104.546435243670345 -15.616696372497955 30 30 28
-107.646623876683634 -103.985890722070820 -15.512983321661267 26 26 24
-107.644150562081052 -103.423311819068800 -15.187380799391860 25 24 22
-107.640922264059384 -102.863176738824549 -15.305549842788849 24 23 21
-107.638096579117644 -102.301006526057122 -15.201829456268996 22 22 20
-107.635287635713738 -101.738293665891533 -15.098106646397042 20 20 18
-107.632495460178163 -101.175037782775433 -14.994381404442350 20 21 18
-107.629348746159351 -100.615448800860776 -15.112505797067627 23 25 22
-107.626593130386112 -100.051649226431479 -15.008768661535782 25 27 24
-107.623123121658750 -99.497900045431990 -15.348705375077941 27 29 26
-107.619862883630503 -98.942859892541179 -15.577696138738389 27 29 26
-107.616268134774359 -98.395289535487620 -16.028487810712164 26 28 25
-107.613419229602002 -97.836035817241637 -16.035607396648231 27 29 26
-107.610058726643558 -97.287986740040424 -16.375433048973974 27 32 26
-107.607430549913445 -96.725536045401569 -16.271621062343428 25 30 24
-107.603947473845977 -96.183934422250204 -16.722297871261418 21 26 20
-107.601015716613460 -95.630850747221132 -16.840252466905127 20 22 17
-107.597935863020780 -95.083129339612825 -17.069081599748131 22 24 19
-107.595394403922256 -94.521207513617014 -16.965222683789278 23 25 20
-107.592872019753798 -93.958737437435403 -16.861360285863782 23 26 19
-107.590369083304211 -93.395718650852203 -16.757494232368089 23 26 19
-107.588052650765789 -92.826241017845277 -16.542746555271037 18 21 14
-107.585257792183725 -92.274214473047707 -16.660624777497105 5 8 1
-107.581504081609040 -91.761444030916451 -17.443710937967268 12 15 8
-107.578117370745460 -91.239021333278146 -18.005003112707584 18 11 7
-107.573474338271041 -90.775282770161709 -19.453163321486926 123 101 96
-107.568086013622136 -90.354945017473625 -21.455527753745827 131 97 94
-107.563721414770868 -89.899141007274523 -22.792614201574622 133 92 89
-107.559884809356674 -89.426414526408223 -23.797045595883219 129 89 84
-107.555938534655297 -88.966654621833229 -24.912254869039742 127 88 83
-107.552353047510906 -88.495609149726903 -25.805689940840722 133 99 89
-107.550047886249715 -87.959881824685510 -25.812307232569594 143 109 99
-107.547463207118014 -87.441941846169641 -26.040592920437149 151 117 107
-107.544758589411671 -86.934248348495174 -26.379689399253550 155 121 111
-107.541937984442498 -86.437616183021859 -26.829586391050270 158 124 114
-107.539904413719213 -85.894571527160664 -26.725290190838280 159 123 114
-107.537600619602955 -85.370942552752197 -26.842641179049451 156 115 109
-107.535329216003831 -84.847842657078374 -26.959971225674991 152 108 105
-107.532797681362013 -84.346331752791500 -27.298921261606978 152 104 102
-107.530449713997285 -83.835633732459087 -27.527019162262974 142 94 92
-107.528427377887382 -83.303858232048881 -27.533460473292763 128 80 80
-107.527012297311600 -82.726681378602436 -27.096643074609119 119 71 71
-107.525053243552989 -82.193782164441885 -27.103065678529106 118 70 70
-107.523553755614984 -81.625194420215863 -26.777059132942668 117 71 71
-107.521943790618351 -81.067116541044811 -26.561856140802149 117 73 72
-107.520646112302458 -80.483062660409729 -26.125053365975390 121 77 76
-107.518962744985444 -79.934927492553413 -26.020642028851455 121 78 77
-107.517591968192690 -79.360270360692354 -25.694636383550289 110 70 68
-107.516666410002301 -78.744209127319635 -25.036267285650865 66 28 27
-107.517811928137633 -77.922039020359719 -22.716145700305219 126 94 95
-107.519640032080360 -77.019452661046827 -19.842230908529729 49 38 36
-107.519453369409391 -76.313674131199505 -18.630137406146901 17 17 14
-107.518359324767047 -75.702243053850140 -18.193519020907615 12 18 16
-107.517040067098065 -75.117823551696830 -17.978448102936227 14 20 19
-107.515369506608380 -74.576927786200784 -18.095673890105729 14 20 20
-107.514012101692856 -74.006235723232422 -17.991338803139257 12 18 18
-107.513225977219932 -73.373262633389544 -17.443935967782267 13 18 21
-107.511834908693572 -72.816020328444665 -17.450337425176400 14 19 22
-107.510367447205724 -72.274709949013655 -17.567470318309091 15 21 21
-107.508569452438721 -71.782630082057139 -18.016831237794804 15 21 21
-107.507856102364698 -71.160574853858847 -17.580140089300698 15 21 21
-107.506557439606880 -70.620230837034697 -17.697182282443777 12 18 18
-107.505317982858202 -70.080387358310603 -17.814190999344902 11 17 17
-107.504012599600003 -69.558373408313813 -18.041906611886702 10 16 16
-107.503525598820417 -68.931784583020487 -17.605153845258400 9 15 15
-107.503097154555817 -68.302968918348341 -17.168395987370417 10 16 16
-107.502478969796869 -67.708219021670359 -16.953096014462432 13 19 19
-107.501425914839160 -67.186005919868109 -17.180692963979737 14 20 20
-107.500814137114986 -66.608751790028052 -17.076068718171513 14 20 20
-107.500270085635393 -66.030896637697666 -16.971418258986489 11 17 17
-107.500042787775598 -65.413964954781534 -16.645300730474219 12 18 18
-107.498898046620113 -64.951411673383674 -17.204904088613745 15 21 21
-107.498321628396013 -64.412394021146554 -17.321587109510574 16 22 22
-107.498435421747317 -63.773586464884652 -16.884672698565424 15 21 21
-107.498747225741937 -63.112205633583237 -16.337037033146544 14 23 22
-107.498153894604869 -62.612823677350967 -16.675037924833646 14 23 22
-107.497150197272603 -62.198492865740718 -17.455795199826184 14 23 22
-107.497209906294444 -61.618750303826907 -17.350875331741776 14 23 22
-107.497966110215728 -60.931301677092748 -16.692436510914519 16 25 24
-107.498316884870960 -60.327261433546212 -16.476768621351454 17 26 25
-107.498877779240061 -59.700086958631012 -16.150379458582137 17 26 25
-107.498913512825382 -59.182368465535035 -16.377409270127231 17 26 25
-107.499655033969077 -58.553114834954492 -16.050955097921843 17 26 25
-107.500243756788208 -57.967697042632516 -15.945840569447654 17 26 25
-107.501545833216227 -57.266372767136502 -15.287283434107565 17 26 25
-107.502204569400774 -56.701639101297481 -15.292781384295154 18 27 26
-107.502589153799249 -56.207607038493379 -15.630259375401437 17 26 25
-107.503196786062901 -55.691239879485643 -15.857001682618488 18 25 24
-107.503780011352788 -55.200007576199710 -16.194355825271998 18 24 24
-107.504841880463417 -54.637050670688652 -16.199642628962948 20 24 25
-107.506767936801964 -53.925831001289787 -15.540888842032899 21 25 26
-107.508936882327774 -53.186254270814523 -14.771451866302812 20 26 26
-107.511098646559091 -52.467973900999496 -14.112657996861174 19 25 25
-107.512484490663383 -51.924878511642511 -14.228444252382758 19 25 25
-107.514372021279854 -51.304849595350433 -14.012205763476004 23 29 29
-107.515731388905820 -50.813895187965272 -14.349185741774249 24 30 30
-107.517598316054460 -50.245453484221443 -14.354143866242850 22 28 28
-107.519719568281047 -49.650271408314730 -14.248396689629317 21 27 27
-107.522631686982862 -48.920004433964657 -13.589367237323046 20 26 26
-107.525550044946584 -48.213464494574666 -13.040949450805442 21 27 27
-107.527934579178364 -47.641178017133534 -13.045699530006829 18 24 24
-107.530587904539090 -47.041039921236475 -12.939748826233142 9 15 15
-107.533516225785547 -46.412224284121606 -12.723102872788019 12 18 18
-107.536726169951535 -45.753904650018285 -12.395767006445567 12 18 18
-107.540365030808815 -45.036730468260060 -11.847113997412265 17 23 23
-107.543594511871930 -44.431837999376711 -11.740936601875035 15 21 21
-107.546686185179212 -43.884368999830549 -11.855951814319809 8 14 14
-107.549053755563207 -43.513350523844593 -12.634650450763786 18 28 29
-107.551695051894185 -43.116372545009497 -13.302626466936260 22 32 33
-107.554616415333726 -42.692608679454011 -13.859885335631589 15 25 26
-107.559325772243653 -41.939531842157756 -13.200230884104968 16 26 27
-107.569383900544921 -40.147843809781193 -8.779506458167106 15 25 26
-107.582994908051376 -37.688860706170097 -2.035914567054220 19 27 25
-107.591405277278824 -36.311931114115716 0.725407619766628 1 7 4
-107.596299762509261 -35.671499538912862 0.832015725715735 3 9 6
-107.601217116190199 -35.061835492657124 0.828092592564388 4 10 9
-107.605990942310157 -34.515578635614077 0.603035708530484 4 9 8
-107.611765653573300 -33.809709169415704 0.931109096352230 5 9 10
-107.616234841092989 -33.393278887844993 0.263807304734826 5 11 7
-107.622565752560590 -32.653443856188964 0.702656037120249 6 12 8
-107.628420453290261 -32.042835744588146 0.699171609845195 6 12 8
-107.635349880899952 -31.265977994612317 1.248784461783686 1 7 3
-107.642151289891984 -30.553040514435281 1.577276263661048 0 3 0
-107.648086834811778 -30.040669619270115 1.242265062227006 0 3 0
-107.654948943196345 -29.393571472366162 1.349745849977012 0 3 0
-107.662777299800226 -28.608425279038805 1.899703429353821 0 5 3
-107.670851725045907 -27.820220693765769 2.449747245560701 0 4 2
-107.676269366755520 -27.551773699273760 1.340986917809232 2 7 5
-107.681249204310973 -27.393946499467450 -0.099420843593037 2 9 8
-107.687366121986912 -27.065959776358014 -0.986741742615038 1 12 8
-107.695490977787031 -26.420915405519743 -0.878635720280982 7 18 14
-107.703852392024615 -25.774990912865405 -0.770425588737282 11 22 17
-107.712030507728301 -25.200658405119182 -0.883283984159448 12 23 18
-107.719142628164633 -24.845644018994481 -1.659548105984669 12 22 17
-107.725119568825406 -24.714937412683099 -3.099199690786037 12 21 20
-107.732127564304733 -24.442807049958478 -4.096378228584484 16 25 25
-107.739760545815827 -24.100617814748858 -4.872261156535700 14 24 25
-107.748975528871512 -23.536183112194198 -4.984521635089692 14 24 25
-107.757010093583503 -23.199373478138671 -5.760157072076936 14 24 26
-107.765234672029763 -22.866080904327500 -6.535665404277125 14 24 26
-107.774143258231234 -22.459372982917703 -7.089884440724376 14 24 25
-107.785775626895244 -21.667629955002273 -6.538174939549464 13 23 25
-107.792086099532639 -21.731174435560469 -8.419102979457875 9 19 21
-107.799275505315208 -21.685896274508565 -9.968154052118820 9 19 21
-107.807654702231986 -21.489702046201629 -11.074753847991587 11 21 23
-107.817829919125217 -21.059516623148653 -11.517749713455572 17 22 26
-107.829899720421082 -20.390301276917043 -11.297146361790169 14 19 23
-107.841421739321547 -19.840787174553110 -11.408149577070645 10 15 19
-107.854946520144395 -19.047186634948250 -10.855553872706508 9 14 17
-107.867933345568417 -18.373266516086922 -10.634560248429693 12 17 20
-107.885442396815066 -17.120103549928217 -8.865341255547406 19 24 28
-107.896085404581129 -16.854479924277349 -9.749854953893760 18 23 27
-107.905991621903468 -16.718332353797553 -10.965965022945255 19 24 28
-107.921491124723630 -15.872103568077470 -10.302107462401324 20 25 29
-107.937704265470686 -14.979604481513135 -9.527525898449682 20 25 29
-107.950333640766800 -14.594654248405400 -10.079740959332071 19 25 26
-107.963213794623641 -14.211995223688231 -10.631812464051592 14 20 20
-107.976347028511427 -13.831620651709519 -11.183739381132142 6 12 10
-107.989381878603965 -13.497038285686886 -11.846100887423688 4 10 8
-108.002298633190890 -13.209089743848789 -12.618897749741592 4 10 6
-108.019131618879015 -12.483732329012019 -12.285734720584827 4 10 6
-108.034844040942744 -11.933553936047257 -12.394740099232365 3 9 7
-108.050884757569264 -11.383354373016552 -12.503588640800473 3 9 5
-108.060984019914002 -11.552027540043575 -14.381621994317840 2 8 4
-108.078364511722313 -10.915869801092914 -14.268996632876878 2 8 4
-108.093256805554049 -10.597027210199156 -14.930307527037968 6 12 10
-108.106739179640996 -10.464113086693990 -16.033814606536765 8 16 19
-108.118283494144549 -10.566612932977149 -17.690120037446690 16 24 26
-108.140363074037438 -9.564488123730792 -16.692142651909990 13 22 21
-108.164751324509254 -8.369995251985362 -15.251605407704574 14 20 18
-108.181150571293031 -8.059016267280485 -15.912114436689990 10 16 12
-108.193660674956121 -8.175711492362280 -17.567811717211328 8 14 12
-108.209104458074592 -8.015303268790145 -18.559804591015961 10 16 14
-108.230546005454144 -7.285897013551688 -18.224478518491026 12 18 16
-108.253427356599076 -6.457894658183379 -17.667760778128127 17 22 20
-108.276311069139908 -5.674642390685983 -17.221440157866994 28 33 32
-108.300711790471794 -4.791030608605633 -16.553709086859044 28 34 32
-108.320948692948193 -4.343651249225996 -16.881209577332243 25 31 29
-108.336206114785085 -4.389514271150156 -18.314603891865431 17 23 21
-108.353239968792451 -4.293548342700404 -19.416031629210892 17 23 21
-108.368257174995904 -4.401803985073099 -20.959757508414555 16 22 18
-108.388496576612539 -4.066480532944181 -21.507821125403183 15 21 17
-108.407900088444308 -3.834013465543229 -22.276943646602064 16 22 18
-108.423444817782439 -3.959539209463031 -23.820239390715301 17 23 19
-108.441511615402248 -3.888485515111650 -24.920916537236820 16 22 18
-108.467167793845448 -3.207247048116291 -24.693937269336260 16 22 18
-108.488307031195006 -2.936408421907758 -25.351765518207543 21 28 23
-108.514881024824660 -2.253404907016289 -25.124365339192451 20 31 27
-108.533477341147247 -2.246160816236409 -26.334991226397307 21 32 28
-107.920974426746653 -174.033273935025534 -12.000088816619893 43 37 23
-107.903501288007732 -173.061424288871393 -13.348758261968584 32 28 16
-107.885779478387505 -172.031408877252233 -14.919863169899344 31 27 15
-107.855376872171703 -170.411537292372401 -16.613965098285490 21 21 10
-107.823324758001206 -169.277460075887973 -14.645512417771386 12 13 0
-107.815634518733845 -169.202318672294723 -12.876222711364335 9 10 0
-107.806342841768867 -168.934868490573933 -11.774831967646350 10 7 0
-107.797917332974379 -168.753193385885851 -10.339567271325564 9 2 0
-107.787222060545304 -168.293959301789982 -9.905975440440386 86 71 62
-107.776670285066317 -167.832763426398685 -9.472335154809485 187 158 148
-107.765521347864166 -167.281041992161562 -9.372489029114803 147 109 101
-107.755025672977894 -166.787491332648955 -9.050013834119738 140 106 101
-107.744913480814390 -166.321485576285937 -8.616212763858641 123 102 94
-107.735858753928625 -165.968277056025300 -7.737309187535743 9 2 1
-107.725995010043746 -165.497209000555415 -7.303441369257513 13 11 0
-107.716924529533401 -165.108586493690780 -6.535768748289655 9 10 0
-107.705367465382253 -164.381893475363910 -7.103072249064496 9 12 0
-107.692339384452993 -163.437395868612555 -8.560192530631838 9 10 0
-107.681246488742516 -162.718796275694729 -9.127190665122214 10 8 0
-107.668950813055076 -161.813817835289484 -10.472694890979938 10 8 0
-107.659283152235574 -161.236863291977841 -10.483258749729430 11 9 0
-107.650729747442355 -160.792572065214074 -9.937629557451288 11 9 0
-107.641343545560915 -160.214604229485417 -9.948069197537450 14 12 0
-107.630638628894786 -159.429226408522538 -10.848145760792050 15 12 3
-107.566248906407239 -155.495296745596022 -7.815394719804374 173 179 175
-107.558743712427102 -155.007330776107210 -7.380572518053924 130 136 133
-107.551190234602529 -154.494100899684014 -7.056892354135243 104 108 107
-107.542482314659964 -153.772934933133087 -7.733634826286703 98 102 101
-107.534346013883990 -153.123165212100247 -8.076792265605349 85 91 91
-107.525820186631194 -152.385600839921551 -8.864475307185700 93 99 99
-107.517587949988808 -151.674098228273806 -9.540890744310389 129 135 135
-107.508758819823839 -150.834932402693937 -10.884059144366688 85 90 89
-107.501340484983686 -150.218133048080034 -11.115674845777704 62 66 65
-107.493806389555374 -149.559941349147238 -11.569489768692023 71 74 73
-107.486404315378849 -148.904039545472017 -12.023217962049785 76 78 77
-107.478684043583996 -148.167421653897236 -12.921364770980375 92 94 93
-107.471442234598769 -147.496703153619109 -13.486027694641820 66 68 67
-107.464330703652607 -146.828809631301482 -14.050599214818675 60 64 65
-107.458063396086686 -146.303260258699964 -13.837289447140250 56 60 59
-107.452076545310447 -145.816027165537690 -13.401733331341319 51 55 54
-107.445580179653660 -145.210381766495118 -13.632793152587254 57 61 60
-107.438813287084642 -144.529458376746220 -14.308192806837383 52 57 53
-107.432170403974666 -143.851889586561100 -14.983498604808830 50 55 51
-107.425998607945303 -143.251944272872777 -15.214344479215555 48 53 49
-107.420007294940689 -142.671461491819400 -15.334044788615813 41 46 42
-107.414104226343710 -142.091598058936796 -15.453696506932062 43 48 44
-107.408524358248101 -141.565602147329884 -15.240062467017765 37 42 38
-107.402783914991105 -140.986152577784594 -15.359632125825556 38 43 39
-107.397420223395429 -140.476135982798070 -15.034871299760852 38 40 37
-107.391691234873448 -139.862953581002898 -15.376500477491930 37 39 36
-107.386188514685927 -139.284789445167632 -15.495943178783222 36 38 35
-107.380697756623917 -138.690843284550994 -15.726401494664486 33 35 32
-107.375350966605936 -138.114161052406899 -15.845754345518003 35 37 34
-107.370199228398064 -137.569766648293495 -15.742963759579311 31 35 30
-107.365167895899830 -137.040453351472308 -15.529101449627888 31 36 30
-107.360137103931592 -136.494805564291596 -15.426265905124296 30 32 29
-107.355006698890691 -135.903586115246441 -15.656523761943390 27 29 26
-107.350050256424680 -135.343013214750897 -15.664665165502328 25 27 24
-107.345348434399966 -134.840414995838728 -15.228652457311483 23 23 23
-107.340687864368107 -134.335685358373752 -14.792641954070547 20 25 19
-107.335893001100970 -133.773073767190340 -14.800727043961984 19 24 18
-107.331238235224390 -133.237835644865470 -14.586745573034847 19 24 18
-107.326630482117125 -132.701550609665247 -14.372752387760102 16 21 15
-107.322068549946479 -132.164217276750520 -14.158748072561423 16 21 15
-107.317412828106015 -131.574439319977103 -14.388764004560386 19 24 18
-107.312785677676814 -130.973210471006951 -14.729743022800506 28 33 27
-107.308343455767925 -130.422868367390237 -14.626674229355274 25 30 26
-107.303946543247775 -129.872016742484789 -14.523589004812322 25 30 26
-107.299619786528496 -129.332414828011338 -14.309495534133390 25 30 26
-107.295284032334251 -128.768779950919310 -14.317371521013968 25 29 28
-107.291038024748588 -128.227608833895090 -14.103255572816494 26 28 23
-107.286848519767560 -127.696323856651574 -13.778151946042954 26 28 23
-107.282637362149444 -127.131418104273777 -13.785981408106323 28 30 25
-107.278484727135222 -126.576940309719916 -13.682816648027710 25 27 22
-107.274328476160036 -125.991559315699746 -13.912548374730335 27 29 24
-107.270256142581516 -125.436861230834609 -13.809347466278950 25 28 23
-107.266199753535858 -124.862474200639397 -13.928059368063799 24 29 23
-107.262185784143455 -124.288654297679997 -14.046745138706370 24 29 25
-107.258219206476866 -123.724441371898166 -14.054450462947074 23 28 24
-107.254305686632648 -123.195325596317403 -13.618333592227231 22 27 23
-107.250410538627179 -122.655558119148353 -13.293176460718598 23 27 26
-107.246538243640771 -122.097728647350138 -13.189912087429178 24 26 23
-107.242696201158182 -121.539374250309464 -13.086638644764861 23 25 22
-107.238890163594803 -120.965131252178821 -13.205229296664299 22 24 21
-107.235109810555215 -120.406268356184313 -13.101931576217112 21 23 20
-107.231357285540270 -119.846878211457550 -12.998625970174345 21 23 20
-107.227605800000333 -119.307557801760140 -12.562536624224094 20 22 19
-107.223901395918404 -118.746295526374610 -12.459227268073249 21 23 18
-107.220198274508590 -118.197148419467297 -12.134074820940270 20 22 17
-107.216582906210590 -117.616131930108594 -12.363502865185097 21 23 18
-107.212970933971462 -117.047772944342640 -12.371081224883056 21 23 18
-107.209542544943758 -116.429865064289331 -13.376811754946317 28 30 25
-107.206056747159252 -115.848271411518368 -13.717042639055052 38 40 35
-107.202689926777353 -115.248466809058172 -14.500839598917651 34 36 31
-107.199214525914172 -114.685317772102451 -14.508298994717109 35 37 32
-107.195787694825498 -114.117759057735768 -14.626639430848172 35 37 32
-107.192336533640315 -113.559049045986526 -14.523182652431842 33 35 30
-107.189042535925765 -112.980423987035522 -14.974150107737557 34 36 32
-107.185755434614563 -112.407585826257602 -15.314195811457097 28 32 31
-107.182377764037440 -111.849716345050425 -15.210695223382714 27 32 28
-107.178921937900427 -111.300493086843787 -14.774566369981954 28 30 27
-107.175542555435456 -110.743524686458372 -14.560198440670746 29 29 27
-107.172355281676133 -110.172889524343020 -14.900173710659715 29 30 25
-107.169050078995639 -109.612873008674384 -14.796660554696217 29 31 26
-107.165762139284155 -109.052318673984388 -14.693144676228883 32 34 29
-107.162491168882667 -108.491226116058129 -14.589626219903977 35 37 32
-107.159362078555915 -107.925304193890383 -14.818666254471253 36 38 33
-107.156345224312673 -107.358156733336457 -15.269382980604121 36 38 33
-107.153225493847842 -106.795847594023158 -15.387522464336229 30 32 27
-107.150127816008634 -106.234085646716380 -15.505645765645625 29 28 24
-107.147004128881250 -105.673213791792193 -15.512913462620816 29 28 24
-107.143899057653201 -105.112344904056769 -15.520172223270805 34 33 29
-107.140761617302744 -104.551278423061035 -15.416589618204256 33 32 28
-107.137691866763035 -103.990142653588748 -15.423834228705800 28 27 23
-107.134640365642568 -103.429008779769532 -15.431070089234822 27 26 22
-107.131717575048697 -102.869907261859780 -15.659941224869755 22 21 17
-107.128535103968005 -102.305458173606823 -15.334697211385020 23 24 19
-107.125478362681989 -101.742497274420074 -15.231095500360709 23 24 19
-107.122436838400120 -101.178993403962210 -15.127492098649867 18 19 14
-107.119654806073967 -100.623355576727192 -15.467119127424326 20 22 17
-107.116649587384273 -100.059851646904789 -15.363498357853700 23 25 20
-107.113915362393215 -99.506386924655899 -15.703080146901584 26 28 23
-107.111077311399441 -98.948716607163348 -15.821037126416968 25 27 22
-107.108393898722355 -98.397967040991873 -16.160566658562544 23 25 20
-107.105533114362601 -97.838463211399258 -16.167694501982879 25 27 23
-107.102760516605727 -97.282690127933435 -16.285600639711163 27 29 24
-107.099867879707503 -96.719449165311360 -16.181923304543858 23 25 20
-107.097352667040468 -96.177043100483772 -16.632145371450918 22 23 18
-107.094720525465320 -95.627711875445712 -16.860776891058833 21 22 17
-107.092188255368555 -95.084283789230042 -17.200158753440917 21 22 17
-107.089302680817454 -94.517024952498218 -16.985660512747131 27 27 22
-107.086431968887879 -93.948674776962932 -16.771166395524745 28 28 21
-107.083576518819754 -93.379232822873433 -16.556676215305203 24 24 17
-107.080736755562327 -92.808698637349835 -16.342189773456113 16 17 10
-107.078239000523325 -92.261785575070661 -16.570732111641661 11 12 5
-107.076430117620433 -91.767555089628203 -17.685273686893510 13 14 7
-107.074920889138866 -91.298919106238088 -19.131985106191649 85 75 68
-107.073978637340346 -90.879304320634375 -21.243073995495877 105 79 76
-107.073020175897597 -90.462743658847700 -23.243280316887166 120 85 82
-107.071515027354749 -90.003197861540983 -24.468178444663721 127 91 85
-107.069615324524236 -89.510577440871245 -25.139311354970260 129 88 83
-107.067573630348008 -89.005047795302445 -25.588927304745852 130 85 82
-107.065474486867885 -88.493330361239160 -25.927775547166505 137 100 91
-107.062944360644821 -87.940111630944941 -25.712962739342260 147 110 101
-107.060903859855301 -87.430276148752753 -26.051763555424685 150 113 104
-107.059086320230591 -86.940396278233294 -26.611970064355319 153 116 107
-107.057210903534241 -86.443782855060121 -27.061414688398230 155 118 109
-107.054788549439962 -85.891061766469633 -26.846545200280957 155 115 108
-107.052586362392091 -85.357207206543549 -26.853093952187010 155 112 106
-107.050313431878649 -84.813083591718964 -26.748923367144812 153 107 104
-107.048469942364903 -84.310510225827770 -27.087555181096974 153 104 102
-107.046663140142911 -83.809552663145610 -27.426152811700348 143 93 93
-107.044688310068508 -83.288068616235577 -27.543324345825198 126 76 77
-107.042436125290294 -82.733083561950068 -27.328396753426631 114 66 66
-107.040212374962593 -82.176993473315505 -27.113466932758058 116 68 68
-107.037912251863077 -81.607911050640908 -26.787848500262328 117 71 71
-107.035640514894581 -81.037177991657089 -26.462233478767587 120 75 74
-107.033182764094278 -80.439932932059889 -25.915262577152163 111 67 66
-107.031186477940693 -79.890755960436678 -25.811011663136611 78 36 34
-107.028896762835018 -79.302090884474481 -25.374730940659646 72 32 30
-107.026306386251989 -78.671489293060830 -24.606449072461999 104 64 64
-107.022071187746860 -77.834287859826418 -22.178197443585532 116 87 87
-107.017725597056327 -76.971305044971260 -19.639405121744176 15 7 4
-107.014740786643017 -76.264526546287641 -18.428660536831643 14 16 13
-107.012351312352848 -75.623405082441252 -17.771249728917894 13 19 17
-107.010226744929625 -75.008201565157663 -17.335163173863975 13 19 19
-107.008604622610022 -74.450302185860849 -17.341681930197183 14 20 20
-107.007030071979997 -73.892370473313150 -17.348178261219545 13 19 19
-107.005504296528940 -73.334405110777652 -17.354651604739729 13 18 21
-107.004028523494583 -72.776404742785061 -17.361101387603924 14 19 21
-107.002604003860696 -72.218367974377941 -17.367527025704732 13 19 19
-107.001351224691902 -71.676531496371965 -17.484562630948801 15 21 21
-106.999913847457321 -71.102179454509326 -17.380303476466992 15 21 21
-106.998891773057153 -70.577589472530136 -17.607910071413528 11 17 17
-106.998049605601125 -70.071100274734931 -17.946103163950397 11 17 17
-106.996782129987395 -69.496893324354090 -17.841761235616076 13 19 19
-106.995328405071973 -68.886898593833493 -17.516159020067562 10 16 16
-106.993686924013346 -68.239480973607769 -16.969314069176733 11 17 17
-106.992718432023551 -67.680008797831377 -16.975536320584894 11 17 17
-106.991813645378073 -67.120485665733227 -16.981728620093719 15 21 21
-106.990726111713570 -66.523533800431807 -16.766675848062562 15 21 21
-106.989703786174559 -65.925437955167254 -16.551603656248091 16 22 22
-106.988873098467963 -65.345428683815385 -16.447112496280766 15 21 21
-106.988611743750553 -64.842836079394999 -16.784987620401296 16 22 22
-106.988298336441133 -64.322039733789325 -17.012216141635690 15 21 21
-106.987431405438670 -63.702020955806383 -16.686436388446765 15 21 21
-106.987015055148319 -63.141269582003567 -16.692407664586398 14 22 21
-106.987052765872221 -62.642235690582631 -17.030103085204246 14 23 22
-106.987169346553614 -62.144767674548660 -17.367744656362817 13 22 21
-106.986483487662895 -61.500883664190447 -16.931265050801471 12 21 20
-106.985247828857368 -60.747681990334122 -15.941879304659324 14 23 22
-106.984726014448441 -60.097922510077524 -15.505381699943428 16 25 24
-106.984668207206923 -59.511776163977814 -15.400583968604252 17 26 25
-106.985580229364999 -59.080617101494219 -16.069739106678639 18 27 26
-106.985950450515773 -58.540129641864176 -16.185984388009160 18 27 26
-106.986411201481701 -58.000100907883230 -16.302181638292893 19 28 27
-106.985834224440254 -57.253086567533288 -15.423275976641008 20 29 28
-106.986232984061544 -56.664867456940044 -15.318281161285768 22 28 28
-106.986854217750889 -56.099601904220492 -15.323802527517358 20 26 26
-106.988197616110853 -55.653577496289529 -15.882045428243401 21 27 27
-106.989016632327306 -55.089477314297113 -15.887460180245654 19 25 25
-106.990309737579366 -54.598515088609822 -16.224471938714089 19 23 24
-106.989978119603691 -53.763463827374395 -15.013778451617412 19 24 24
-106.990501773539222 -53.072054293831549 -14.466350538430277 19 25 25
-106.991018536128863 -52.352564531320326 -13.808356081021998 18 24 24
-106.992505397727726 -51.808225988069204 -13.924106806527988 20 26 26
-106.993621770141246 -51.161191543616489 -13.597656333609478 19 25 25
-106.995459191526905 -50.642660392301501 -13.823832588985880 20 26 26
-106.997650407952918 -50.177749097505369 -14.271005423749159 20 26 26
-106.999718694198236 -49.661692658360970 -14.497045760712439 20 26 26
-107.001084266091269 -48.958474567742158 -13.949336628270402 20 26 26
-107.002817602904685 -48.306676747015786 -13.622640033522657 20 26 26
-107.004223559223135 -47.543405954373640 -12.853811964098838 18 24 24
-107.006346432255626 -46.914632536994546 -12.637550899729433 13 19 19
-107.008154898505637 -46.172733609045267 -11.979169164514900 10 16 16
-107.010784524763864 -45.596852030156050 -11.983838998716152 11 17 17
-107.013552483496724 -45.020809800184217 -11.988444308797995 16 22 22
-107.016679401827389 -44.502186003364564 -12.214004626902579 16 22 22
-107.019943827951934 -43.984489783358612 -12.439489613735873 12 18 18
-107.023560082750663 -43.526397535866387 -12.885910523146748 17 27 28
-107.027625260770336 -43.159166029261868 -13.663758048738458 28 38 39
-107.031817575728951 -42.795594888301203 -14.441507074471986 19 29 30
-107.035430342972163 -42.224536584264243 -14.445656929004912 15 25 26
-107.037112504665373 -41.014086464414980 -12.129275376448419 16 26 27
-107.035914069832373 -38.809089619732902 -6.277024942997116 24 33 33
-107.036994324210596 -37.194513786155916 -2.634784590777997 16 25 24
-107.040899757124066 -36.405672531643013 -1.975882874848566 11 19 18
-107.045643572435822 -35.834074084529433 -2.090356084746844 13 18 21
-107.050471244019093 -35.230986349187354 -2.094254428234450 13 18 21
-107.055739520408324 -34.723930627254049 -2.429530136898165 12 16 19
-107.061261219595906 -34.250652588048943 -2.875195803227541 12 18 20
-107.066375439485256 -33.550862982453637 -2.547375809155625 15 20 22
-107.070978653310476 -32.552941503198895 -1.225139135493123 17 22 24
-107.076374595991950 -31.780479520065342 -0.676214649651655 17 22 24
-107.081845725118370 -30.938065318069210 0.093743521638572 13 18 20
-107.088126258021077 -30.361453847723133 -0.020046129398139 7 15 13
-107.094467906325775 -29.717082407641144 0.087213739396816 8 16 14
-107.101283960308024 -29.209052387789736 -0.247331546709688 8 17 15
-107.107980200392646 -28.529539014497445 -0.029404891074620 11 19 19
-107.115493663855275 -28.197092814464582 -0.916103591015428 12 21 20
-107.123283125687763 -27.939016267887116 -2.023622499919952 15 24 23
-107.131224395726804 -27.686165888640808 -3.131014988733170 13 23 22
-107.139024030936341 -27.224476913414811 -3.575471606220361 14 24 23
-107.146928498100365 -26.692776562494856 -3.798880964879601 12 22 21
-107.155128951556406 -26.234321261337978 -4.243112546459912 16 26 25
-107.163946595494195 -26.179345062964710 -5.902343387259094 15 25 24
-107.172676911572353 -25.911637483756749 -6.898652446854101 17 27 26
-107.181330830866003 -25.352073680937199 -7.011131197770766 16 25 26
-107.190344110595518 -24.979421596206411 -7.675808480278448 16 24 26
-107.199634864579508 -24.760224126373256 -8.782208974295600 14 22 24
-107.209066124360149 -24.508326699678943 -9.778019962983819 14 22 25
-107.218600279521965 -24.070188574499671 -10.221404371340810 10 19 22
-107.228306637915551 -23.441629330929182 -10.112372073890583 8 18 20
-107.238296766335296 -23.044525423427253 -10.665974845308028 8 18 19
-107.248497110240052 -22.610804878178989 -11.108995078884504 10 20 21
-107.258905729470641 -22.257497562484215 -11.772805710331994 16 26 27
-107.269528538734491 -21.867562555644639 -12.326032016306414 19 28 29
-107.280564586975444 -21.001812137914243 -11.553651818178395 21 26 29
-107.291704975004791 -20.573143711577856 -11.996170333869884 20 25 28
-107.303267983794825 -19.863417482847545 -11.665367543946218 20 25 28
-107.314879844205009 -19.477081104336683 -12.218083648753208 19 25 26
-107.327181134088178 -18.601464378460072 -11.445199722226590 16 21 22
-107.339895511557813 -17.680211248421916 -10.561729049527855 12 17 20
-107.352795561637279 -16.920117775893594 -10.119946194056524 9 14 18
-107.365248787781468 -16.742653986255227 -11.224404186496912 8 13 17
-107.377374837529700 -16.907060888675137 -13.212370731592927 8 13 17
-107.391516171658324 -15.894626733448373 -12.107438209976522 12 17 21
-107.405943731298706 -14.961364454817680 -11.223271572998954 14 19 22
-107.419716894858965 -14.581260269161797 -11.774889566695464 17 23 23
-107.433470936402145 -14.333104933701408 -12.657735147260325 16 22 22
-107.447531097763445 -14.045425132265301 -13.429982241416695 10 16 14
-107.462645964263146 -13.410875480605780 -13.318424194507088 5 11 9
-107.478659821078423 -12.554863273464628 -12.654421274446463 3 9 7
-107.494267455078486 -12.005338640909970 -12.763470053860146 4 10 10
-107.510325542763439 -11.411163911138033 -12.761904058735496 4 10 8
-107.525655364795796 -11.175739910164882 -13.643864741294095 2 8 6
-107.541348491245742 -10.899053079154079 -14.415217474382445 2 8 6
-107.557129892401193 -10.671218579326103 -15.296884000488546 4 10 6
-107.572500350458867 -10.630398063325128 -16.620257631162616 12 17 20
-107.587024582442609 -10.872118346870474 -18.606281068626629 14 19 22
-107.604938445216291 -10.242979516848465 -18.493328295188462 15 22 21
-107.624711969933259 -9.239604285048028 -17.496466989770937 10 16 14
-107.644437874917458 -8.371158582386872 -16.830816222805510 9 15 13
-107.661203235109525 -8.300983952224225 -18.042965808802677 10 16 14
-107.679843639226050 -7.856535402440263 -18.371199890323425 13 19 17
-107.698813695432776 -7.413105511463909 -18.699265781847288 17 23 21
-107.720433889308268 -6.490085658245815 -17.922411667796325 21 27 25
-107.743074379643076 -5.465616392268862 -16.924395947344863 19 25 23
-107.766050505838905 -4.483854684068125 -16.036638934421831 6 12 10
-107.784622070716324 -4.426270006397100 -17.247794843582966 21 27 25
-107.801470081714697 -4.718746295383394 -19.232184136070032 14 20 16
-107.818352309480389 -5.020841405529188 -21.216458048014573 16 22 18
-107.839977337484484 -4.535902899982053 -21.432822194232585 16 22 17
-107.860761439636676 -4.251643238508201 -22.090958488023091 15 21 17
-107.883427576330632 -3.718190989811311 -22.196465062821403 15 21 17
-107.904205802938847 -3.539122765065695 -23.075239148991102 18 24 20
-107.923874781333353 -3.567678597066440 -24.395842256668487 17 23 19
-107.944054672602988 -3.551127656218693 -25.605806367129816 18 24 20
-107.968797640107809 -2.921688027732420 -25.489589669666174 19 26 21
-107.991755109600888 -2.601757506901988 -26.036194525124870 17 28 25
-108.016999844503701 -2.023246074880207 -26.030072439268054 20 31 27
-107.465770471616565 -177.817158626444723 -9.296576394523981 84 72 56
-107.380411216873682 -174.073701079287417 -10.151957452933743 42 35 22
-107.315354046480877 -170.660564964978903 -11.991955863616880 18 16 3
-107.302387617003887 -169.210996996154364 -15.117128868110285 16 14 1
-107.290764959846825 -168.951208717130385 -14.016774389512733 14 12 0
-107.279315936178008 -168.869879270412298 -12.249346569315804 15 12 0
-107.267824302243881 -168.628249832661140 -11.037883606661666 12 9 0
-107.256383515855944 -168.290592857951367 -10.159961433155104 8 6 0
-107.245041592049915 -167.889179617262585 -9.504366009243284 4 1 0
-107.233846276620483 -167.337104189896309 -9.404545714562687 23 21 15
-107.222852638984833 -166.696978319044604 -9.638111940125810 23 17 12
-107.212024293866648 -166.116113276820755 -9.649271318995034 5 2 0
-107.201201441010951 -165.765010338142559 -8.771191934266540 6 4 0
-107.190521835681835 -165.352885561148184 -8.115389918689885 9 7 0
-107.180229945056539 -164.684383493564070 -8.459771406257062 8 9 0
-107.169704921341676 -164.352154811994581 -7.470496373957928 10 9 0
-107.160146880279314 -163.408120260376990 -8.925951833888178 11 9 0
-107.150690660620086 -162.580696329559743 -9.936722711426199 10 8 0
-107.141325276874085 -161.839536239806961 -10.613985521561915 9 7 0
-107.131842997881904 -161.262474006636012 -10.624461802786442 10 8 0
-107.122101402790761 -160.871061742916822 -9.857138957102478 11 9 0
-107.115594971528282 -159.164900368242741 -14.644746039228039 17 9 1
-107.106241278019709 -158.779862613664221 -13.877172006731712 19 12 6
-107.094037948641628 -159.443762003750606 -8.554949711557327 16 11 7
-107.025897596451813 -155.078414868799399 -7.302175914455830 149 153 154
-107.017532483241212 -154.610919234132268 -6.756695498757438 115 121 121
-107.010465231675397 -153.888514929300158 -7.432665827619275 116 122 120
-107.003331631427614 -153.214842100709717 -7.886448510056653 99 105 103
-106.996811584050349 -152.453916486796601 -8.784271347337096 115 121 119
-106.990581177442266 -151.675363072057536 -9.792995958196173 130 136 132
-106.984647143637702 -150.879996753050619 -10.912610733912118 77 82 78
-106.978378184243070 -150.176484796504383 -11.588004694103944 78 80 77
-106.971861954420902 -149.540248301145510 -11.930247792741028 72 74 71
-106.965334446037588 -148.926777301631603 -12.161403065397479 100 102 99
-106.959744649350469 -148.189989216821800 -13.058532414223663 81 86 82
-106.953742472706239 -147.539578852238634 -13.511534375259174 76 81 77
-106.948435968956971 -146.810622421072310 -14.408447582569750 69 69 68
-106.941806741250545 -146.285450255705996 -14.195307073462430 61 63 60
-106.935706497761927 -145.700294356240022 -14.315107597588252 64 66 63
-106.930007728871772 -145.076994357812112 -14.656826463855850 57 63 59
-106.925503630509880 -144.321610906290829 -15.775345599616713 48 54 50
-106.919559528674128 -143.760179674827498 -15.783968331264560 46 50 49
-106.913699593409333 -143.198825295487211 -15.792550006835796 45 49 48
-106.907757955381044 -142.655842040562391 -15.690122780596170 50 52 51
-106.902225039131636 -142.076337535297114 -15.809593724675864 43 45 44
-106.896606890408691 -141.515199515371137 -15.818057503298149 40 42 41
-106.891582610242494 -140.901691808118414 -16.159352899499851 40 40 40
-106.885600210932978 -140.393124009330734 -15.834873147897611 37 41 40
-106.880563352680269 -139.798313834416433 -16.065123213399119 32 36 35
-106.874888457642726 -139.271301591049536 -15.851545095661407 32 36 35
-106.870004379217121 -138.677701311628766 -16.081709617755223 35 39 38
-106.864643673102478 -138.133598781716387 -15.979015996939069 34 38 37
-106.859345191304286 -137.589006808997027 -15.876297646303840 31 36 31
-106.853727252508094 -137.075068483550922 -15.551698819570134 27 32 26
-106.848736554716083 -136.513647565120920 -15.559865339834204 28 30 25
-106.844003530509539 -135.937248558932396 -15.678921651840341 25 27 22
-106.839139211904879 -135.376197806315133 -15.687023902431690 25 27 22
-106.833336606371986 -134.887610968847895 -15.140534694189597 24 25 22
-106.827973144035454 -134.367924441110858 -14.815873295923666 23 25 20
-106.823061478821643 -133.818769882144608 -14.713016858552720 22 24 19
-106.818613952038234 -133.241778737522765 -14.831942684748554 21 23 18
-106.813181977931720 -132.732346652116348 -14.396349623231742 18 20 15
-106.807996334038364 -132.207653716859085 -14.071654690699717 15 17 12
-106.803488572083111 -131.642813488899350 -14.079625372785529 14 18 12
-106.799461760166167 -131.052851971467788 -14.309342325914969 14 19 13
-106.794840866297349 -130.500933204762077 -14.206375237908105 17 22 16
-106.790483196017945 -129.936469126062917 -14.214270244757358 17 22 16
-106.786172346845149 -129.372037126380377 -14.222142522344285 17 22 16
-106.782354180965044 -128.784654811505931 -14.451733110897266 17 22 17
-106.777235194262701 -128.265701616346661 -14.016088322844837 18 21 14
-106.772370926604424 -127.733654461530733 -13.691315345699849 19 22 16
-106.767766472363846 -127.189328252334889 -13.477403354102137 20 22 17
-106.763195277288659 -126.643940556048022 -13.263486377853525 18 20 15
-106.759590372025229 -126.056967272394800 -13.492970732894634 19 21 18
-106.755325987749657 -125.500682491001811 -13.389878033502839 21 23 19
-106.751570484528642 -124.924703226799778 -13.508462382205067 24 26 21
-106.747616547129027 -124.358605072976133 -13.516181064984664 25 27 22
-106.744422021169754 -123.765398788172334 -13.856392140305815 25 27 22
-106.740301746817934 -123.208929278010459 -13.753232400726489 24 26 21
-106.736456686168282 -122.643436134034346 -13.760892769571853 22 24 21
-106.732151436874730 -122.094416727781947 -13.546885948788031 23 25 22
-106.727871199906403 -121.544327754103776 -13.332878171788309 23 25 22
-106.723615202374546 -120.993168470015362 -13.118869815968083 23 25 22
-106.719886862953061 -120.426114163482865 -13.126490415608401 22 24 21
-106.715934514884665 -119.866215618954669 -13.023285637443990 21 23 20
