ply
format ascii 1.0
element vertex 677
property double x
property double y
property double z
property uchar red
property uchar green
property uchar blue
end_header
177.596424955481382 -2.720960634776169 -13.997609257874416 149 147 134
175.465317953007855 -2.586781457962487 -15.750948269399203 146 144 131
173.076502368048722 -2.560166536970748 -17.712469820254540 146 144 131
170.859502743066741 -2.485298408296269 -19.534966462093109 146 144 129
168.041070351113206 -2.647932355614441 -21.843307196015843 142 143 127
166.769217502878888 -2.248614974795869 -22.901850801174987 138 139 123
165.755275151631110 -1.759745222612242 -23.752123056833540 139 140 124
162.936830969241868 -1.965095124135207 -26.060018453476943 136 137 121
161.149604654399184 -1.791830655170934 -27.534835592104884 135 136 120
158.846746670942196 -1.829645015343726 -29.425956877002903 138 139 123
158.520787591203572 -1.109442545480532 -29.720868116052969 141 139 124
155.874188245474386 -1.305396245267597 -31.889352443503554 141 139 124
152.969624077390222 -1.620497798588819 -34.265777490219136 141 139 124
149.549123734606098 -2.160489568184106 -37.058218840991060 142 140 125
147.332110667962695 -2.236478787892033 -38.879156201913844 138 136 121
146.662773269682816 -1.696970071199481 -39.451371998483978 140 137 120
145.133742908043530 -1.513939849099260 -40.717233065144256 140 137 120
141.970863304479025 -2.015409579952627 -43.300739166444004 138 135 118
139.409827556482583 -2.286337970613817 -45.398526188684798 138 135 118
138.912927177160725 -1.707572082276555 -45.831921588007646 138 135 118
136.351872883376785 -2.004233176066833 -47.929434858366960 136 133 116
135.081067918780860 -1.767587173370617 -48.986805309252702 136 133 116
131.659621881572235 -2.461597433545775 -51.777208853357735 139 136 119
129.786597180872150 -2.507962641807933 -53.319578464604092 136 133 116
127.655443775079988 -2.678492648131682 -55.069758752245463 136 133 116
124.921885517686789 -3.126676048177408 -57.304904792332565 135 132 115
123.479064325792649 -3.021831000477651 -58.500344346101201 136 133 116
121.089577886345054 -3.347299481689294 -60.457920791138321 136 133 116
119.732884779342186 -3.224903665754412 -61.583885499450304 135 132 115
118.204108313603598 -3.188653663746074 -62.848357146497762 136 133 116
117.536284208308388 -2.770545091595865 -63.420047264570627 139 136 119
115.577191162750211 -2.947677036064382 -65.030754911867604 139 136 119
114.134701871752469 -2.898949647098046 -66.225775598634954 139 136 119
111.745005952668976 -3.298966711419493 -68.182484463316371 139 136 117
110.216416964087330 -3.311536250684146 -69.446543274729976 140 137 118
108.860129704041825 -3.252569324204440 -70.572049233412116 140 138 117
107.934617654157805 -2.997925653418134 -71.351356350487976 140 138 117
107.698463007963042 -2.420094283686627 -71.576905340546432 141 138 119
107.807247667678752 -1.677853243498661 -71.525728923847879 140 137 118
106.710057396134587 -1.517736768900754 -72.443650522069447 141 138 119
102.338241809365442 -2.958193181870122 -75.991164720151090 141 138 119
101.413312616954471 -2.737768277004422 -76.770398443296529 138 135 116
96.351093478618949 -4.563275133532674 -80.870533510529640 137 134 115
96.460485156642747 -3.854115759462980 -80.819306963100843 138 135 118
95.277016643710681 -3.789854004137846 -81.805825550521206 139 136 119
93.748731719047171 -3.906300769304087 -83.068960564601326 139 136 119
93.341534606156969 -3.465020798823475 -83.432995602568099 139 136 121
93.020860141101878 -2.982014392075762 -83.727993404933954 138 135 120
92.010420470704233 -2.854255559116495 -84.576224235006919 139 136 121
90.223691360324665 -3.133032247063207 -86.046626147831660 138 135 118
90.248771036633769 -2.482867784251548 -86.065316648442320 140 137 119
88.116971744229815 -2.958420119470479 -87.812048198081129 142 139 120
86.502821172912263 -3.175471032996733 -89.143928697006999 139 136 119
85.492832141846293 -3.083275768502306 -89.992009037715746 141 138 121
84.914594231532220 -2.767669454318549 -90.494642892237380 140 137 120
83.559562945737724 -2.871112909659487 -91.619077933048032 139 136 119
83.154400803047082 -2.471676706238665 -91.983655774868112 138 135 118
83.267700398510030 -1.793758640760183 -91.933977179263394 135 132 115
80.703854094377405 -2.573222691127688 -94.025185028070638 137 134 115
79.435475303330875 -2.659013189076417 -95.080397151186872 139 136 117
77.043948196699631 -3.371834592014136 -97.033010129825470 137 134 115
78.627087898899006 -1.895819312475584 -95.810112174999063 137 134 115
78.482622971377069 -1.372751304291044 -95.968102620472905 137 134 115
73.152211218666977 -3.759621072689256 -100.266733524581525 135 134 114
72.316087131607219 -3.644824913524738 -100.976505131065323 134 133 113
67.935006876154205 -5.546914233868485 -104.514835323985125 136 133 114
69.260640938986739 -4.219924729525674 -103.499790211534361 140 135 116
70.414151599858684 -2.982725120899789 -102.623195370913038 141 136 117
69.695328943944190 -2.241246866215224 -103.284675448687807 137 134 115
216.343281226811655 -4.527441169983339 16.595108546445630 130 129 124
213.259081941704324 -4.469981390051101 14.079067593173392 134 133 128
213.876781594954480 -3.259500073684465 14.547114298516135 137 136 131
211.739712371700477 -2.926215476734667 12.794578100864527 141 141 133
206.761379058088380 -3.524239054210078 8.752536125514894 143 143 133
202.471639566633485 -3.929061122763445 5.265955585123606 143 143 133
200.248328650602616 -3.680299152448221 3.444688266620716 141 141 131
198.886173101050417 -3.159133394473521 2.317232032762433 145 145 133
194.940605078170734 -3.513797541926065 -0.891079719471378 145 144 132
192.286709773351276 -3.455613851417816 -3.058689648927583 146 144 132
190.407928739622605 -3.148996913580110 -4.601938872736923 147 145 133
189.045991822391784 -2.675738429501861 -5.729006565911561 146 144 132
184.497133044222920 -3.321315716599529 -9.421723768077385 148 146 134
182.187693710520051 -3.208294266444387 -11.311249186345805 150 148 136
179.619820280842561 -3.201466540008038 -13.408624168353924 149 147 135
179.550291603379407 -2.316602873509203 -13.495329118536972 148 146 133
176.551725958396446 -2.489676245081273 -15.939105033258329 145 143 130
173.553076860717738 -2.681665246761013 -18.382646316413030 146 144 131
170.554340045169170 -2.892572577927657 -20.825950899770277 144 142 127
167.900197520429231 -2.994659175976911 -22.991792817470952 140 141 125
166.969542039460805 -2.469245721352428 -23.771426504154363 135 136 120
165.177224491089930 -2.274395542196325 -25.244030206672477 138 139 123
162.867831165432563 -2.287326707153264 -27.132281141491632 137 138 122
160.903196655463233 -2.182620875665091 -28.743238869019876 136 137 121
159.455786636802031 -1.890338534161780 -29.938412530017928 136 137 121
157.663650404853456 -1.741413023893196 -31.410630248003457 140 138 123
155.612927546608489 -1.705290133761829 -33.090556531054801 140 138 123
153.993302056238321 -1.511312131604350 -34.424048774584634 137 135 120
150.304377545570674 -2.153498485031420 -37.419601638094065 140 138 123
148.684738903395896 -1.986349072003260 -38.752811429700245 137 135 120
146.978928633738860 -1.864268160663075 -40.155191982282673 139 136 119
145.359411756014651 -1.717585332130452 -41.488249352748852 140 137 120
142.187468289743322 -2.220482298029832 -44.067404641950731 139 136 119
140.222929883193530 -2.242191878130000 -45.677107087688313 138 135 118
138.172131841751764 -2.312295880452055 -47.355903956588179 139 136 119
137.760446299752147 -1.704443106806055 -47.719506362996043 139 135 118
135.450921331638312 -1.904920581931361 -49.605763812129510 138 132 116
133.659039451350566 -1.898445358228192 -51.076636898717311 141 135 119
129.968773180618598 -2.721417000479200 -54.069686955014504 141 135 119
127.313784938676235 -3.118180753876985 -56.232091024511305 138 132 116
125.694333993712007 -3.078726466322697 -57.564076179744632 139 133 117
123.557041882686661 -3.277537385251211 -59.311028622203622 138 135 118
121.592338603573609 -3.413176305687069 -60.919479461538828 138 135 118
120.404571883671650 -3.213872223710565 -61.905331859985495 137 134 117
119.044243721528844 -3.099605432046486 -63.029473894247985 134 131 114
117.683995782380336 -2.993760818076972 -64.153567613209987 137 134 117
115.460290477003724 -3.290575614928208 -65.969030361463012 139 136 119
114.013753391838236 -3.244072639265895 -67.162091700371690 139 136 119
112.394533197838228 -3.286517346127834 -68.493344218583246 139 136 117
111.293609626790570 -3.097480653658151 -69.409777509449867 140 137 118
111.229466062723858 -2.428652107026908 -69.496834921407668 140 138 117
110.215294767996724 -2.208895453177558 -70.344227534978501 140 138 117
108.596424978275138 -2.283045145818882 -71.675321330049911 139 136 117
107.582476055301953 -2.077587635544639 -72.522673137237490 141 138 119
105.531574673515095 -2.378307415309373 -74.199046724421862 142 139 120
101.751905428413949 -3.530932172113253 -77.256792304037475 139 136 117
98.749751842683750 -4.327668908712027 -79.692432079886032 138 135 116
97.735714433649150 -4.165737814802762 -80.539293516375693 137 134 115
96.462418034780256 -4.138359937465111 -81.593317971703641 138 135 118
96.313350274670242 -3.558825716866005 -81.749687672935067 139 136 119
96.078134957382431 -3.023157866090857 -81.975252024441090 139 136 119
94.718811728787600 -3.055922966074092 -83.098361342345072 139 136 121
93.705556594732542 -2.921396673496873 -83.945314925116463 138 135 120
92.432885509232520 -2.925653077620810 -84.999312900665842 139 136 119
92.198601739657107 -2.403820648169358 -85.225180486462364 138 135 118
90.060813305372449 -2.868159449001264 -86.969162277697166 139 136 119
89.826945823402895 -2.354634551739455 -87.195143500455259 140 137 120
87.862198150097612 -2.749095047783980 -88.800908921262590 138 135 116
85.291316011614811 -3.475400834314607 -90.889298035747601 138 135 116
84.451818978680677 -3.299738114027872 -91.598082566576949 139 136 117
84.651647790873412 -2.574614657345999 -91.479426275543545 139 136 117
84.765331904928473 -1.894109803169217 -91.429958259430833 138 135 116
82.367455419185433 -2.568835650381505 -93.379925853558802 135 132 113
81.961871672545243 -2.176386560661529 -93.744230079623208 137 134 115
80.083600626447435 -2.591020081926271 -95.280299086466414 139 136 117
80.025036514594746 -2.017112092616700 -95.369048624258113 139 136 117
80.226898447908653 -1.299217973102104 -95.251290556200928 137 134 115
76.123738571431787 -2.379748052962714 -98.598456973008382 136 134 115
71.730581629653443 -4.256983062477030 -102.131265558492686 137 134 115
70.718811020265292 -4.248716344130992 -102.977629679551285 139 136 117
72.482875639060538 -2.666692273756615 -101.620659016562996 139 136 117
70.690969260440554 -3.108364413568315 -103.086907377290032 141 136 117
71.154946056171667 -2.262625072786590 -102.763283481283707 138 136 115
71.359177075401163 -1.563844317187558 -102.646462032351536 137 135 114
215.141171511570548 -4.172891277366265 14.395072030562631 133 134 128
212.652654018536424 -3.940740308579703 12.368272960068026 137 138 132
210.682220929447794 -3.558958861847514 10.757237174415962 140 140 132
207.243879119094771 -3.662358150485182 7.968837054841856 143 143 133
204.668996011788181 -3.506510361464724 5.873281540218898 143 143 133
203.216778310191614 -2.998099702295379 4.678183140910534 140 140 130
198.655562356673585 -3.529678118803698 0.990204121431873 145 145 133
196.944287954495024 -3.135937699379822 -0.412358736668438 146 144 132
193.592000503925931 -3.307416872281259 -3.130367301623977 146 144 132
190.930634710523805 -3.264309990680982 -5.294248181780915 146 144 132
188.873918047567940 -3.029763296024894 -6.973349525103146 146 144 132
186.385299925048571 -2.958136151721812 -8.998448102431325 147 145 133
183.637490130066908 -2.992979188659430 -11.231030975788116 148 146 134
182.358389439496989 -2.525555475655553 -12.286808290708279 148 146 134
180.042581621788628 -2.436072198089616 -14.173044757822737 147 145 132
178.072404129043264 -2.236658371946259 -15.782325618356907 145 143 130
176.447917848794987 -1.924010685363189 -17.114714003346819 146 144 131
171.193944991391959 -2.951253536102682 -21.353049450920707 144 142 127
169.569392258331590 -2.670387523972379 -22.685078900372190 140 141 125
168.031345336421822 -2.367415468175932 -23.947861097053078 137 138 122
165.196863226116022 -2.561322092184668 -26.248201795358710 138 139 123
162.016535001725629 -2.904111789782859 -28.824993909560504 138 139 123
160.824337570661555 -2.507013832685088 -29.810762662694202 136 137 121
158.421939349793888 -2.583685457353977 -31.764723146787048 137 138 122
156.365337343345857 -2.541058921429781 -33.441903810783401 140 138 123
154.654601101779036 -2.375819710407000 -34.842372045348498 140 138 123
154.240977657540697 -1.709051058507672 -35.205653816699567 136 134 119
151.752154951174191 -1.870761982257452 -37.228252655863031 140 138 123
149.003822461443690 -2.152198096007060 -39.458047167426315 138 136 121
147.120282835766517 -2.101170429980325 -40.996388988386769 140 137 120
145.582751289686314 -1.920888107968224 -42.258154832034137 140 137 120
143.266767876061238 -2.069914289601336 -44.141852196983592 138 135 118
139.826108641011103 -2.698965499001583 -46.923732869240837 138 135 118
139.240266481402330 -2.158964822116298 -47.425038680866351 138 135 118
137.443315058906478 -2.131469867117633 -48.893702882492391 138 133 116
135.473326893168121 -2.188459002910020 -50.500435031924752 138 132 116
132.724489153621107 -2.590029265279711 -52.728751232565656 140 133 117
129.542781372594476 -3.194906794245658 -55.302185569891520 139 133 117
127.226379742243239 -3.445149590133277 -57.184640987935325 138 131 115
126.208307741440521 -3.143643768339428 -58.031009002343012 139 133 117
124.497836138952792 -3.152591145959364 -59.429810849275697 137 134 117
123.220267868240384 -2.980637687903675 -60.483279844837313 139 136 119
121.856214792842806 -2.855138685727328 -61.605755512152029 137 134 117
120.145874629946633 -2.893538284056439 -63.004317072831469 135 132 115
118.695351622097022 -2.825146440793104 -64.195696873100843 137 134 117
116.552019036449707 -3.081161831754341 -65.939170738837987 139 136 119
114.062140790862003 -3.509467293932506 -67.958520420146527 139 136 118
112.698253729709052 -3.433622380326610 -69.080564393629061 139 136 117
112.114154114261055 -3.003777817335945 -69.581569940190235 141 138 119
111.270354175951439 -2.698951814800247 -70.289625518387282 141 139 118
111.379917131932814 -1.950041377883329 -70.238890087405395 140 137 117
107.416736100900664 -3.132219342432708 -73.430257821484759 138 135 116
104.753137665441770 -3.718794787723882 -75.586588976818632 139 136 117
102.869448165921582 -3.947166222041440 -77.121983103348441 139 136 117
101.592538427425680 -3.893649486483311 -78.174548009782967 137 134 115
99.448698430661381 -4.270366346604871 -79.916536690923749 137 134 115
98.085129756984216 -4.277906874459816 -81.037874651645183 137 134 115
96.721612508738190 -4.293871699196376 -82.159150498596802 138 135 118
97.786615602455825 -3.111882752773083 -81.350504515066319 139 136 119
97.898094160317655 -2.399518632703864 -81.300309311859309 138 135 118
95.580921346272021 -2.908175262091659 -83.179735814862880 139 136 121
94.565005490312416 -2.772462636100007 -84.025428728921128 140 137 120
94.416962128053754 -2.200711345438012 -84.182208384965691 141 138 121
91.839290918633807 -2.875497747686538 -86.267879946088925 140 137 120
90.216106575604087 -3.074003837718700 -87.595629610777166 139 136 119
88.679699056866255 -3.237565986747480 -88.854393821379205 140 137 120
88.098294633019194 -2.911764619168721 -89.355617769486713 138 135 116
86.648820538689492 -3.045672998608011 -90.545416988569485 136 133 114
85.459882629469007 -3.050791794920891 -91.528604866681206 139 136 117
85.834422348416794 -2.231342421125822 -91.272782848789717 141 138 119
85.775141940722648 -1.641367208840332 -91.361355101103669 140 137 118
81.719752608275229 -3.203406408582466 -94.615559482250291 137 134 115
82.008268085120761 -2.437967981756578 -94.428886684914033 138 135 116
83.079450390795955 -1.243791445004326 -93.623322268193306 138 135 116
80.848439071176514 -1.852586726037302 -95.432078472426298 139 136 117
80.964369926596603 -1.181266283064235 -95.383590749923059 137 134 115
77.950694425009132 -2.244677693293670 -97.810973464337764 135 132 113
74.936505330163257 -3.327486746383643 -100.237910807815553 136 133 114
72.878506585302915 -3.892881207901176 -101.908164611372854 134 131 112
72.560051004002915 -3.489493201507039 -102.203404367929750 140 137 118
73.459977657314084 -2.396233945483885 -101.536590811707242 140 137 118
72.185208330996275 -2.538157834175631 -102.588167915464737 139 136 117
73.521443570797487 -1.189016510123027 -101.578422389546319 138 136 113
72.073068411898419 -1.438439199677646 -102.767558288748802 138 136 113
222.713057699468379 -4.181606800482168 19.308931484660178 114 116 111
222.468850161263788 -3.218058058488454 19.083264587855837 123 125 120
213.998924990456487 -4.820225562699696 12.287568949870604 129 130 125
212.022907592900424 -4.430784123729349 10.679125830099849 133 134 128
212.385072671315726 -3.310057135129263 10.937766631767346 136 136 128
207.984433123622694 -3.716696484694211 7.393400119412689 139 139 129
205.575542167349312 -3.504953155181708 5.439576937672058 138 138 128
202.906827552342776 -3.393366229846858 3.278506809089436 141 141 129
200.324707333718493 -3.269851257224601 1.186746321635951 144 144 134
198.522151506592508 -2.902282023607923 -0.282737307413754 144 142 130
195.073798829828945 -3.100493335943329 -3.065372315022074 145 143 131
191.798591443495354 -3.261434827462563 -5.709505303227189 146 144 132
189.389627109193214 -3.145565794113820 -7.662306498876831 146 144 132
187.413854224652198 -2.894701814860219 -9.269440145427666 146 144 132
185.957990144773277 -2.474431742328211 -10.461886854528188 147 145 133
182.855894945646639 -2.643847606140129 -12.967031118902071 147 145 133
181.140178044437448 -2.339337532731553 -14.366550207916703 146 144 131
179.597852388827278 -1.983262454652329 -15.627832089146636 145 143 130
176.322318491460010 -2.264494998807830 -18.270570659358611 146 144 130
175.646774563326574 -1.616407821260992 -18.840934925963694 144 142 127
169.597518187228559 -2.952559263686777 -23.693359677165319 138 139 123
168.141896541195138 -2.619571308050473 -24.885023927110581 138 139 123
166.426311040499968 -2.393054912038557 -26.283803049578637 137 138 122
164.190629820009690 -2.373789453138404 -28.096790133948815 138 139 123
161.781542045511742 -2.434573721726438 -30.047713895052141 137 138 122
159.372419181523867 -2.510428791423088 -31.998465738136929 138 139 123
156.182857117041749 -2.903709486824340 -34.570320685684948 137 135 120
153.947032735115556 -2.944457083052818 -36.382621537590580 138 136 121
154.659792264332168 -1.838148606334392 -35.848119962781340 137 135 120
153.811820940466674 -1.346637227568894 -36.556101610787010 140 138 123
151.576248025899986 -1.415458762772967 -38.368233784658401 137 135 120
148.820189968620127 -1.708120107385818 -40.594216864246732 139 136 119
146.931521108231891 -1.665521181594081 -42.130018115645527 139 136 119
143.394495168030403 -2.309804316534468 -44.976499381534779 138 135 118
139.336642255589709 -3.191249830851807 -48.236530887162047 135 132 115
139.443446022848889 -2.366105111973630 -48.185260187514217 137 134 117
138.856364871691937 -1.830872140111956 -48.685924193447192 137 131 115
135.058459455957433 -2.654885076860380 -51.738328218084348 136 129 113
132.822502502365808 -2.838297741953723 -53.549097124937049 138 131 115
130.760087830238035 -2.961299563200456 -55.221792133711403 139 132 116
129.392103147825367 -2.797349899052788 -56.342782725686163 139 132 116
126.635159408222307 -3.245943610873876 -58.566737007697554 140 133 117
125.961811697633649 -2.799009179896915 -59.136081370977138 137 134 117
125.028182663362543 -2.470979117278899 -59.912260753542171 138 135 118
123.660522031798550 -2.341549668686841 -61.033051036411990 136 133 116
120.903381010637702 -2.842522557418406 -63.256371774421410 136 133 116
118.840903494743472 -3.047629902647079 -64.928191565548701 138 135 118
116.865233633461969 -3.226198907027191 -66.530954128644623 139 136 119
114.542025886924193 -3.575961122362280 -68.409129120655535 139 136 118
112.479345603387344 -3.820326311141224 -70.080447807732554 139 136 117
111.633069855096636 -3.513759344308772 -70.787336887541102 139 136 117
111.308373591726195 -2.968915554917773 -71.081047198622429 139 137 116
108.898139613006350 -3.405810670878208 -73.027551121660935 138 135 115
106.922342876177140 -3.652284213955027 -74.629554012400604 137 134 115
104.511835282021664 -4.118107730788026 -76.575629264189985 138 135 116
104.709299299632065 -3.348708297263423 -76.456297418406194 139 136 117
103.429060712158432 -3.290936864392992 -77.507313610636942 139 136 117
101.279321630950676 -3.663459739446934 -79.246523360795521 138 135 116
97.998871814637440 -4.602326742812919 -81.880140810378265 138 135 116
97.501329082053985 -4.192160113276493 -82.311493433234745 138 135 118
98.395864295336281 -3.095290559979270 -81.642137793186237 139 136 119
98.769002167668461 -2.252371239416533 -81.385886724631320 137 134 117
96.619322654757795 -2.672630747667172 -83.124633594912723 139 136 121
95.687792292086328 -2.491217901070850 -83.900307770118786 141 138 119
93.973127154926104 -2.713418000273813 -85.294908327046159 143 140 123
91.910240212100447 -3.124350692253010 -86.964413586040962 141 138 121
90.021319903035689 -3.458664371722940 -88.496214794464208 139 136 119
88.741763494080359 -3.489257255363933 -89.546647760259503 139 136 119
88.158892466547456 -3.164781264839032 -90.047156447418956 137 134 115
87.837539542107152 -2.706638695722029 -90.341573741169242 137 134 115
88.387537520263862 -1.790692409541106 -89.948965874416842 140 137 118
86.237531730519663 -2.303488277868324 -91.686604131738932 139 136 117
83.303175192545737 -3.248444056534259 -94.042293204865899 139 136 117
80.978366470337406 -3.884574640106921 -95.916754562130308 136 133 114
81.093594010215526 -3.217114777690978 -95.867890636987482 139 136 117
82.080950632030948 -2.074603427945610 -95.132551369634825 138 135 116
79.669006329574799 -2.783680729770162 -97.075435371688712 140 137 118
76.820777839948065 -3.747840348663619 -99.361271248227609 139 136 117
76.762735588699940 -3.186696057830676 -99.450139059183442 136 133 114
76.966778457991936 -2.479748506049936 -99.333311664901771 134 131 112
73.943597259920992 -3.576958945310079 -101.755798976316612 136 133 114
74.060883935109146 -2.925864291389435 -101.707751679135754 136 133 114
73.393272566448331 -2.717901498860975 -102.277380433607505 139 136 117
73.424130092618071 -2.116252158474899 -102.298335647259620 138 136 117
73.106277787678053 -1.713640256958192 -102.593856020321880 139 137 116
69.732908507096639 -3.071849458976120 -105.289563501710262 139 137 115
222.524033510535531 -5.565232367603951 17.972436857795003 104 109 105
220.629305879624582 -5.106885781166079 16.435254601921855 111 113 108
219.429326511283477 -4.446567619833082 15.450499243114592 118 120 115
216.232166111893548 -4.414492781729483 12.877900914754974 125 126 121
214.945509964633800 -3.802534757438609 11.824250340143408 129 130 124
215.309097959039093 -2.675224655755264 12.082142660388485 133 133 125
211.677752153991321 -2.824955779263099 9.164834137324533 137 137 127
206.135431501701703 -3.615412344480772 4.729429271501346 137 137 126
203.632956858366185 -3.447927873273609 2.709972898615092 139 139 127
202.259743338262325 -2.923748437848976 1.587775738669222 142 142 132
199.583577914845677 -2.841746861977413 -0.569425411844804 145 143 130
196.386130008798091 -2.951584888384766 -3.140425417599658 146 144 131
191.798499669942970 -3.552839286984252 -6.815050675788143 146 144 131
189.730310750694855 -3.320499268625806 -8.488641016596119 145 143 130
188.357283672128972 -2.860921397447387 -9.610262393180818 144 142 129
186.549891165054362 -2.561246268590594 -11.076733302994484 144 142 129
184.655660955913959 -2.303345434762866 -12.612090234910767 146 144 131
182.240043716611922 -2.242234392962845 -14.561145052097629 145 143 128
179.216029815585671 -2.413981839976405 -16.992760256764797 144 142 127
176.974180463997527 -2.322146687267284 -18.803543524674666 146 144 129
173.167721162523861 -2.814239180599881 -21.855272023561099 143 142 124
170.056488579922984 -3.074695745984708 -24.355107867324989 140 138 123
168.683824943387748 -2.710308411814665 -25.475923269314421 138 136 121
167.919852479014821 -2.126923584823095 -26.114176498412661 137 135 120
166.025774249294102 -1.974105843696472 -27.648524463699971 141 139 124
163.610022481841213 -2.031309642262334 -29.596297048992426 135 133 118
159.194196103009176 -2.869960321379923 -33.128951323747344 129 127 113
157.473941410600446 -2.694886597194950 -34.524967195640585 137 133 121
156.275566777325167 -2.327221879261391 -35.507477825293364 140 137 122
155.338254958154494 -1.864435589173997 -36.283282489731107 140 138 123
154.227146827978544 -1.476169062147933 -37.196894295192038 137 138 122
152.246281792414891 -1.441713960618035 -38.799364268855186 136 137 119
149.308461674320398 -1.804362080037078 -41.159390362387541 136 133 116
145.761473663045876 -2.432229630363728 -44.001274781481527 139 136 119
141.344133133350681 -3.437757344577236 -47.531486942499441 135 132 115
138.840791180120846 -3.683240813600896 -49.546277510839190 135 132 115
138.774059238817983 -2.933812607544287 -49.632926304783666 137 134 117
139.316865667387731 -1.929890479558000 -49.237783604894361 134 130 113
137.858178377676978 -1.765052783906450 -50.426250406315063 135 129 113
135.616146908682765 -1.941524524833923 -52.234184732240067 136 130 114
133.287003026438754 -2.169187646472367 -54.110776724585264 139 133 117
130.957781657327445 -2.411398450866091 -55.987181900871946 138 132 116
127.670701414075580 -3.083540111892982 -58.620372914874480 139 133 117
126.037850683109639 -3.053602047126324 -59.945849703153442 136 133 116
124.840469955098911 -2.842160534683560 -60.927227729744061 137 134 117
122.249685382163477 -3.255609940205061 -63.009315975702066 137 134 117
119.832954879739034 -3.607547929335111 -64.953586490453773 137 134 117
119.768122742630709 -2.917337650919812 -65.040534584335234 139 136 119
117.351369434879956 -3.291991153695813 -66.984560366903736 139 136 119
115.544388235326039 -3.403754634767840 -68.446992900524435 139 136 118
115.654437682070380 -2.646758447623892 -68.396573435744983 139 136 117
113.063294189900120 -3.137314043545400 -70.477696283218734 138 135 116
110.210494156219568 -3.765829594649087 -72.764800101755100 138 136 115
109.449432616303369 -3.432116627246097 -73.401875909260553 138 135 116
107.642460587780661 -3.596362053684559 -74.863772607242879 138 135 116
107.317607976041089 -3.067962803555417 -75.157238849896714 139 136 117
106.033904940108442 -2.999769912483200 -76.206704935164311 141 138 119
106.145567482477688 -2.267933925662539 -76.156798183221326 140 137 118
102.245724901603211 -3.478448946380619 -79.267316242275115 139 136 117
98.694246931487967 -4.543629968575020 -82.102551193196575 140 137 118
97.759384852732282 -4.346887947058262 -82.876789277746298 140 137 120
98.918600594665676 -3.121361135693663 -82.002803574383250 139 136 119
97.984304184472947 -2.929005534680968 -82.777267121204744 137 134 117
96.962896395218792 -2.785897650259211 -83.620408836309679 137 134 119
95.156105497543862 -3.044486205745444 -85.081421065447472 137 134 115
94.658612092966564 -2.650819572200937 -85.512627443905387 139 136 118
91.891521176359120 -3.417370254872479 -87.728454460390708 139 136 119
90.957696179859440 -3.260576896393970 -88.502777469879703 139 136 120
89.762045125245777 -3.244621979749599 -89.482970724560033 139 136 121
89.527194068441759 -2.736833611179637 -89.708422359517130 140 137 117
88.768587617640904 -2.503999391850331 -90.345634277608980 140 138 117
86.437652644559904 -3.102608477879657 -92.217551085078355 142 140 119
88.213112530261341 -1.543021262582058 -90.865800924897684 139 137 116
85.008386047073245 -2.622801504747044 -93.423334781813423 137 135 114
82.414947442714436 -3.395413041342864 -95.500456311993048 138 135 115
81.569445654486017 -3.242627985280754 -96.206132697181545 139 136 117
78.625847934466591 -4.231975301151515 -98.556943876101286 137 134 115
77.780364032376696 -4.096062785564486 -99.262455140421991 139 136 117
77.197413269551362 -3.821257936717284 -99.762414392476927 139 136 117
75.244916289055396 -3.718200999123683 -101.379161699608119 137 132 113
74.662595495404048 -3.455716204468877 -101.879295510249648 135 132 113
73.905504507615106 -3.294690352094138 -102.516493261057377 135 132 113
74.724107414748318 -2.248730709140151 -101.921146709659581 143 141 121
72.304372568235081 -3.035476903248041 -103.859504257214496 141 140 120
70.497163047512743 -3.487737691878050 -105.318322652933006 141 139 118
72.367872259984551 -1.839592051206041 -103.902192135631765 141 139 118
221.941055001664239 -3.964702306207620 16.239396789628216 116 118 113
220.825182478007207 -3.279581600095278 15.325008584485545 122 124 118
216.748220546861774 -3.528406462223888 12.067606885732147 127 128 122
215.196991842009822 -3.003995159417389 10.808851423416343 131 131 123
210.858532824040509 -3.379284515324482 7.345274142465797 135 135 125
207.390969310846970 -3.500801143159555 4.571040076240706 136 136 125
203.836187685286802 -3.672333204713716 1.728186805077513 137 137 125
201.849413969070440 -3.350550051800945 0.125585912011246 140 140 130
199.775567559312549 -3.069998415426243 -1.545794171132769 144 142 129
196.743354491591418 -3.123393357556982 -3.974705184345424 145 143 130
192.142679675155762 -3.726052118276026 -7.643075553367339 145 143 130
190.155885051406869 -3.465349555226815 -9.245037711145926 144 142 129
187.907704870474220 -3.307004021409622 -11.053476956762353 143 141 128
186.618166614754102 -2.829441367048899 -12.104365341508412 144 142 129
184.631525920774010 -2.604303016963427 -13.706035058450766 145 143 130
182.470607948145357 -2.453154762656816 -15.445287275275945 144 142 127
180.309707424008991 -2.315417688738943 -17.184409791383075 144 142 127
175.359382690297394 -3.195598188807895 -21.126087707483606 146 144 129
172.326573867488065 -3.410169423347583 -23.553054644958337 143 142 124
170.688561123121048 -3.132593673554523 -24.878611002814637 139 137 122
168.876249545232554 -2.929558740579993 -26.341733879928000 139 137 122
167.761534669194305 -2.477776204611583 -27.254274032719110 136 134 119
167.082962390894238 -1.868928304188083 -27.822785637393253 138 136 121
162.218743007287202 -2.850342434522799 -31.693755124307160 131 129 114
160.057695572115904 -2.829289224009533 -33.431606273055735 134 132 117
157.809424169798604 -2.855252280561676 -35.238104697764982 139 136 123
157.392841714125211 -2.183782366187473 -35.600019280644545 140 138 123
156.191431092060441 -1.822036739538144 -36.581016575486871 139 137 122
154.553966351636944 -1.639765499987168 -37.905854079350604 140 138 123
152.305858315817744 -1.710536350779183 -39.711969428896964 137 138 120
149.621464037571997 -1.970201406819410 -41.861716977186063 138 135 118
146.064385227727257 -2.599233620733275 -44.698762004365022 140 137 120
143.641502153880452 -2.788555478975899 -46.641763039564069 136 133 116
140.607639946288089 -3.243690126645072 -49.065749801309323 138 135 118
140.191986492970528 -2.634956495793160 -49.427463039649240 138 135 118
140.736748680565540 -1.628427586498389 -49.033282801083402 138 135 118
139.099573637408099 -1.534365645736457 -50.357350912501204 136 133 116
137.025938901978293 -1.635040626577608 -52.024908102835411 132 129 112
134.603035923297085 -1.897422295296153 -53.967147574298565 136 133 116
132.005401908686764 -2.249883762549523 -56.046586850323536 134 131 114
128.447049550329382 -3.033998281232955 -58.881426276189785 136 133 116
126.285724683441131 -3.231762183907862 -60.616892308085625 138 135 116
124.823075170874887 -3.136377226374624 -61.802748683750082 138 135 116
123.098439196688446 -3.165783517128958 -63.194563749942944 136 133 114
121.111738132530974 -3.322497768274586 -64.792273985348714 134 131 112
119.736571776577406 -3.217403496152390 -65.909223061201658 136 133 114
118.448859782087922 -3.081284178014364 -66.957470475274363 138 135 116
116.986469947282615 -3.032470270164877 -68.142971700679908 139 136 117
117.621616715375680 -2.032520578257579 -67.681104527501759 138 135 116
116.072155637291019 -2.035208700497837 -68.935279917230048 138 135 116
110.326875715142307 -3.994623817351368 -73.483274856273397 138 135 116
108.951874283779986 -3.948184685142073 -74.599699064664520 141 138 118
108.975863006517102 -3.252098755241155 -74.618340349555524 140 138 117
107.863472641460476 -3.093760897918182 -75.528971966941185 139 137 116
107.275921084576566 -2.691990382405267 -76.028037136277817 140 138 117
104.851891331388359 -3.175033185687862 -77.967466186770338 140 138 117
102.252727228383222 -3.757783633580360 -80.043802993586979 140 138 117
100.528162894103204 -3.931463814731411 -81.434167248434676 141 138 121
98.891059110631602 -4.073005059885529 -82.755844268292407 142 139 122
99.616579440841249 -3.060790802136861 -82.226478857873161 142 139 122
98.854897071815500 -2.781021741423968 -82.862702391129972 140 137 120
97.568253760356299 -2.767740052113600 -83.910196630079383 138 135 118
96.019062741190780 -2.894180293561003 -85.163227372338184 138 135 116
94.644969294139202 -2.941689952377941 -86.279118895209422 139 136 117
93.358477896339423 -2.953090742958997 -87.326431739967859 139 136 117
91.108736736247621 -3.465274067317376 -89.127222128123123 138 135 117
91.223605052495728 -2.773953800827595 -89.078431958752589 138 135 118
90.287743238829080 -2.625943741200140 -89.851690150983103 136 133 114
89.702477393618793 -2.300819485407942 -90.351059838494479 137 134 115
87.189759932221989 -2.989979191712509 -92.356798213469546 138 135 116
86.166545222385054 -2.908899167964790 -93.198437020031292 139 136 117
84.091669266374893 -3.392295829980911 -94.861460868167171 139 136 117
84.734123394408144 -2.437417318136244 -94.402625570638719 139 136 117
83.623698426609351 -2.419814666454044 -95.312748769164756 140 137 118
81.811856989332497 -2.788045026873497 -96.770216239291244 140 137 118
79.298265728357407 -3.549028796809841 -98.774797270374904 138 135 116
82.047330176040219 -1.447819751549826 -96.674943646867064 137 134 115
79.182940430075320 -2.416387087369701 -98.953002662925371 136 133 114
79.301415785901156 -1.752607902650625 -98.905654594734813 136 133 114
75.734456988721419 -3.138581234357011 -101.730181494658410 135 132 113
74.624456634846993 -3.171925624548692 -102.639983403534842 132 129 110
75.972664695354069 -1.828254146681179 -101.635909330128101 142 139 120
70.999801004869596 -4.054076716044658 -105.552953316753758 142 139 120
71.558386940757586 -3.162171214500741 -105.164206435669684 142 139 120
72.205480371563382 -2.215586749150804 -104.707505189898228 143 140 121
222.121122705991411 -3.170064171792911 15.147343443304806 123 124 118
218.469427460129765 -3.281187122096734 12.239372609652236 126 127 121
212.022384778199296 -4.296416148329096 7.130508508334202 127 127 119
207.164201078845167 -3.863385904139066 3.242091984259474 135 135 124
205.171942636352355 -3.527637001671123 1.641971208967817 135 135 123
203.092365509660794 -3.232845958119871 -0.026813892209702 139 139 129
201.449703533966954 -2.806342469260735 -1.351679061768607 139 137 125
197.273115019664175 -3.236472967977614 -4.670412359553865 143 141 128
194.931405924177767 -3.073891928638872 -6.545010176144530 142 140 127
192.327531646194245 -3.015044640821698 -8.625697939201331 143 141 128
190.422791805972167 -2.732237640496459 -10.156283471315618 143 141 128
189.392112647081547 -2.158284887950057 -10.999424697631639 143 141 128
185.302382342666590 -2.660393300033162 -14.248110875560883 144 142 129
183.747365781397917 -2.293629365279569 -15.503431496795912 144 142 127
181.143437966834426 -2.309822294674547 -17.583321221483601 145 143 128
178.539468495780966 -2.342181809013631 -19.663024607069076 144 142 127
174.449168032617649 -2.929072385277922 -22.910565317600629 143 142 124
172.544480991843386 -2.742905546733526 -24.440181343056707 141 139 124
170.202633462287110 -2.729597700711342 -26.313176389295705 140 138 123
168.385444121698072 -2.535828947567821 -27.773870380008759 133 131 116
166.918115384766736 -2.222173049492352 -28.959735003216906 134 132 117
164.751214901340546 -2.181901729325353 -30.694983895400014 138 136 121
160.747543031826240 -2.854882591756960 -33.872222372711207 136 134 120
159.542686613522932 -2.477623247853542 -34.851730900929283 138 136 123
159.037789041319854 -1.836659269183516 -35.281940706779324 138 136 121
157.745768652658967 -1.505993471816635 -36.330129564490875 137 135 120
154.704038660533428 -1.871864666012706 -38.751271238652606 139 137 121
151.749654427094072 -2.221985780794090 -41.103502062932762 139 138 120
149.145146650778202 -2.450567324582916 -43.180928113203237 139 136 119
148.290794235562771 -1.990039964118617 -43.885538134914270 139 136 119
146.736472230559258 -1.818949828145831 -45.139176860776900 137 134 117
142.031249718696756 -2.946943629979559 -48.862983318102778 137 134 117
142.315027912257221 -2.046852388406626 -48.675430269746926 137 134 117
141.898853071702490 -1.435630925050001 -49.036919686729505 138 135 118
138.768904230567188 -1.963022131604633 -51.525054044206485 137 134 117
136.601874265307401 -2.103696577639457 -53.258378427053316 134 131 114
133.909404376970258 -2.481080375360990 -55.403050893010629 138 135 118
132.004947350901659 -2.537823633545818 -56.930276561060253 136 133 116
128.436431563307281 -3.323974920399756 -59.760232871738907 138 135 118
126.531797879152990 -3.409558878709356 -61.287077155351227 138 135 116
125.503130839051053 -3.123623185584967 -62.128216268118734 136 133 114
126.051539425010262 -2.148908125788289 -61.735452978096731 137 134 115
124.410021421465700 -2.142518720759392 -63.056540974698578 136 133 114
121.016043889798169 -2.929600716708903 -65.748268438648296 137 134 115
119.286770512393701 -2.988452033876771 -67.137561894588572 139 136 117
118.083356478808213 -2.819584429789754 -68.115615373846623 140 137 118
116.178839392449817 -2.978092802596366 -69.641764789812385 139 136 117
114.624927845803839 -2.987221066243503 -70.893744799025086 138 135 116
109.739557559602602 -4.547645402773751 -74.748635723715012 138 135 116
108.623742376357924 -4.382276883718329 -75.657701289951916 140 137 118
109.174164882343092 -3.442066079875047 -75.265546282727286 140 137 118
108.058779701692700 -3.284807091225850 -76.174734085260980 140 137 118
106.768095260491208 -3.217671757774532 -77.220849404206433 140 137 118
105.916095373124421 -2.948478173639637 -77.924615372498806 140 137 118
102.256873576469843 -4.036776947034487 -80.818926968412853 140 137 118
102.896515086472547 -3.063372812761512 -80.358936817597538 140 137 120
101.255128838624159 -3.198962843150112 -81.678626380019693 141 138 121
99.701491558058706 -3.301555611280687 -82.929775520088072 142 139 122
98.674507973855157 -3.153313688008675 -83.770302641242466 141 138 121
98.349951296091959 -2.661763619349386 -84.063531150559896 140 137 120
97.059937479158492 -2.655436703764330 -85.109341362263820 139 136 117
94.891894161560785 -3.099463993105008 -86.839058397618118 139 136 117
93.074963269675749 -3.378893368342021 -88.295005163255553 139 136 117
93.892952374951747 -2.324970106674818 -87.699446944681256 139 136 117
93.042516538209796 -2.122215430292844 -88.403277260377934 136 133 114
92.192263513786330 -1.924447876872184 -89.107143697899204 137 134 115
91.517935244700880 -1.640306509651008 -89.674343254569521 139 136 117
89.701355349984780 -1.957540379741887 -91.130068795392589 138 135 116
84.368810446568546 -4.136123421816299 -95.318964322503092 139 136 117
85.716244899762231 -2.812021618803896 -94.314318717515164 139 136 117
86.800752655157737 -1.619009903190240 -93.515117160175663 139 136 117
86.391111406938677 -1.219247197551510 -93.877555574115405 140 137 118
84.574580831599732 -1.580003155766215 -95.332856714442755 138 135 116
81.262526138010472 -2.762812274643760 -97.948843480328065 137 134 115
79.885391194283613 -2.911200555170440 -99.062241567284900 136 133 114
78.948225202703284 -2.826677509691607 -99.834222341542130 137 134 115
79.331324940470026 -2.019308612086965 -99.582371056902218 137 134 115
77.250373471119104 -2.576554167072374 -101.241728236527166 137 134 115
77.898356198192147 -1.623548816681770 -100.785518520437023 132 129 110
76.081538716418819 -2.049665085332570 -102.240009619200123 137 134 115
72.943520407665233 -3.232966415068183 -104.717531958629479 140 137 118
73.504418672160824 -2.335793079479455 -104.329945512087392 143 140 121
72.832586803900028 -2.138505370473257 -104.897445310019748 141 138 119
222.368794370026592 -3.384122248645858 14.144190496132552 120 121 115
217.305261626410015 -3.933474920091660 10.142406641971888 124 125 119
208.912559200354622 -5.560997256399786 3.531746667459657 128 128 120
207.002176682836591 -5.182397668026498 2.002874531591431 131 131 121
205.442302474891022 -4.703202250185459 0.748720478139802 133 133 121
209.402402345977947 -2.446462006148863 3.819642334298607 135 135 123
205.214374562702915 -2.828354750446280 0.505885008140410 137 137 127
200.675641604478585 -3.351965992880858 -3.082072924426200 139 137 124
196.837721076436111 -3.670302572338085 -6.120539037271158 141 139 126
197.469132839261817 -2.509711767086359 -5.658538610054592 143 141 128
196.523338970035866 -1.880275867920479 -6.432000898963679 143 141 128
192.422395632331984 -2.337149320527175 -9.675788426364534 143 141 128
189.460731294914353 -2.425746568458885 -12.027228470395357 143 141 128
185.710059367510382 -2.807819012443343 -14.995919064530426 144 142 129
183.887821695494523 -2.534671757508338 -16.455015033588410 144 142 127
181.627293963643694 -2.428324415314401 -18.257012009661423 145 143 128
180.155851111473680 -2.053388291088464 -19.441539242393702 143 141 126
177.369286899345042 -2.162504911254458 -21.654817600122385 144 143 125
175.021087623195172 -2.129162982565002 -23.524980213440188 142 140 125
171.883626778928203 -2.400338903564320 -26.012158207013641 139 137 122
168.570634830544861 -2.756000774369501 -28.636210835565691 138 136 121
167.713255044215373 -2.214556534006423 -29.340205491406607 138 136 121
166.066649748791292 -1.975697078519737 -30.661252676023338 138 136 121
163.367489300518855 -2.146871223036770 -32.804847020592206 137 136 121
161.457774095469972 -2.032334516910094 -34.331320264557576 136 134 121
160.688608498683948 -1.489085738582333 -34.966675976398449 138 136 121
157.989388230565510 -1.701886177425475 -37.109813222999264 136 134 119
155.816547040991566 -1.724810372837368 -38.841569598535699 137 136 120
152.327394391886855 -2.281855643976651 -41.600992381025947 139 137 120
150.417688046551291 -2.230804671475750 -43.126816372899100 138 135 118
149.648973066987310 -1.733016352590583 -43.761919711128087 140 137 120
147.124972059214571 -1.950693457151546 -45.767113283465875 139 136 119
146.268738856314798 -1.503351106710209 -46.470687822863766 136 133 116
144.885959958655576 -1.277706853620970 -47.585235966371528 135 132 115
141.747336698691072 -1.788099496490974 -50.069395486369416 139 136 119
139.398747326368948 -1.988110276461057 -51.936969462358888 137 134 117
136.962267732355770 -2.239605523782181 -53.872825986988317 133 130 113
134.964795267678227 -2.320123591611028 -55.466167546899072 136 133 116
132.879471688502804 -2.450460144774718 -57.127827512986784 135 132 115
130.179242899566503 -2.858106729408109 -59.268476637424328 136 133 116
129.411462135596707 -2.445347877914992 -59.903151650168297 138 135 116
126.974649686112244 -2.765443065646619 -61.838142804232888 132 129 110
126.207116724009225 -2.366999605260248 -62.472789009028418 134 131 112
124.736812911566005 -2.284204074811369 -63.654854004571121 135 132 113
123.618098075974643 -2.053684057622107 -64.563203024164125 137 134 115
119.423358163630567 -3.210810259295883 -67.865769423362423 139 136 117
117.865091714621627 -3.202245011316021 -69.115848190415704 139 136 117
117.098042223549683 -2.843072386794268 -69.750321451653804 138 135 116
114.309071188314718 -3.415220348063999 -71.957682179257375 138 135 116
112.047429910051846 -3.761311826262627 -73.754489258479680 138 135 116
109.785658036655349 -4.121451194753533 -75.551089259445916 139 136 117
109.018868352257130 -3.796229322641197 -76.185337339156234 140 137 118
105.877405025987954 -4.593932021499625 -78.665180754430395 141 138 119
105.902460797956508 -3.909912871277174 -78.684208302591117 140 137 118
104.608218018413126 -3.855111380782682 -79.728494366229256 140 137 118
102.522141662508929 -4.188611027611421 -81.387702946726705 140 137 118
103.603969581595592 -3.003082779680072 -80.587142333790524 140 137 120
103.454297690591687 -2.409845445055296 -80.743364073909646 141 138 121
100.136165447083116 -3.369470862524937 -83.358740702702164 140 137 120
99.458611310999260 -3.047825968056210 -83.924783058303944 139 136 119
99.221514286447587 -2.511603017678538 -84.149452921423915 139 136 119
98.016132532872774 -2.460120622129184 -85.125356745263161 140 137 118
93.904553845832083 -3.876470484181572 -88.354179985314204 139 136 117
94.460579979173232 -2.958059025482364 -87.964481342598361 138 135 116
92.198181117027090 -3.470068990026839 -89.759218113957473 139 136 117
93.547913810519020 -2.146478621370660 -88.755666714799759 138 135 116
92.871727810680483 -1.857814614275939 -89.322024093249780 137 134 115
91.843251680921114 -1.755737388232199 -90.161361989306585 140 137 118
89.669030543981009 -2.257452374124930 -91.887529768622841 138 135 116
89.434067518020541 -1.754994802726409 -92.112872965346071 140 137 118
85.937144094956793 -2.975800484464973 -94.861745816859383 140 137 118
87.907040378043888 -1.314958367172442 -93.382337860447194 139 136 117
86.438256620843191 -1.478520311681998 -94.562594163958465 139 136 117
84.528398715017190 -1.888144865992789 -96.083603685191548 137 134 115
82.530155975440053 -2.357359726139653 -97.672575696882774 138 135 116
80.531718679924836 -2.839050838198384 -99.261326209351722 138 135 116
78.533078380918241 -3.333229392866595 -100.849851066126263 137 134 115
76.710768193132552 -3.742765022550835 -102.301885146006697 138 135 116
79.214312460405282 -1.769442153270646 -100.415835767870959 139 136 117
73.065660352268338 -4.595894527789957 -105.205369525408258 139 136 117
74.863842741933979 -3.012327899089143 -103.864736565386266 137 134 115
74.013155963896040 -2.908278506293146 -104.567430808557845 137 134 115
69.805384145532472 -4.710209920004005 -107.857125484616205 141 138 119
68.335864572136288 -4.979406964663399 -109.035942421029404 141 138 119
224.018824774335258 -3.165906469862868 14.239446481272751 117 119 113
211.034569330824155 -6.167068319726282 4.074847277490420 121 122 116
208.152478090001296 -6.081600035865755 1.794406877761105 130 130 122
210.559536816452351 -3.351438144715186 3.607965198725338 131 131 120
208.644320880577652 -2.981819791170492 2.081497801993208 135 135 123
206.201921836230866 -2.795821727861826 0.143969783689158 135 135 125
201.738297096613110 -3.289991721226495 -3.369363831855594 138 136 123
200.438278382986880 -2.760934311568199 -4.415768462848405 139 137 124
196.325915413332837 -3.182757476662661 -7.654453667684578 143 141 128
195.992837844388475 -2.351148543668537 -7.947106208589616 143 141 128
194.429401710163120 -1.941645050252541 -9.198838874729915 143 141 128
189.789348152838102 -2.601976937935632 -12.847776930621080 143 141 128
187.346797134558187 -2.526912741758244 -14.784090347093667 144 142 129
184.376723764149318 -2.651981980891128 -17.131132114037882 144 142 127
182.109947567634123 -2.546459013070049 -18.930131360333831 145 143 128
180.194888487665111 -2.329312261356859 -20.455104329600744 143 141 126
