ply
format ascii 1.0
element vertex 682
property double x
property double y
property double z
property uchar red
property uchar green
property uchar blue
end_header
97.054755916764805 -1.372692418617964 131.165618027947403 133 134 120
95.101280326129071 -1.217622824477591 127.553343563581421 134 135 121
92.526858482174376 -1.406807148349920 122.800505732927803 137 138 124
90.907505517179985 -1.124886144168222 119.803094598886616 136 137 121
85.901407651311530 -1.562916723462457 110.562320610601347 135 136 120
83.947459217053222 -1.527688211813102 106.951505937468653 136 137 121
81.754606290732625 -1.645383973100607 102.902262056204108 138 139 123
80.851300907524433 -1.075858881715974 101.222219033899677 138 139 123
0.424429243920557 -1.197571463468609 -47.430386139489030 147 152 122
-0.194262801160889 -1.188027340618822 -48.575669732238111 148 153 123
-0.669396208007967 -1.045281288041094 -49.458425745056900 148 153 123
-6.617614467483094 -1.135036268432496 -60.469255240466850 141 144 115
118.948899156050786 -1.077344951033959 168.912109729667662 125 123 111
107.929240228236367 -1.283293519953921 148.688453188875030 131 132 118
97.675599230051333 -1.604324753348261 129.873263058643118 136 137 123
96.575998942908868 -1.010872547179901 127.843445012043929 136 137 123
93.220147130777661 -1.593503768584374 121.694748387487692 136 137 123
91.832365741981519 -1.188246384777384 119.139579066442224 136 137 121
89.148350557118818 -1.481858581170141 114.218527473135481 133 134 118
83.544087082952586 -1.214246510625693 103.926343708194764 139 140 124
14.616395678567116 -1.125445746663389 -22.625734459735099 147 152 122
0.209795917265993 -1.333193242555934 -49.100052427343854 148 153 122
-0.123476595224119 -1.051224221445047 -49.719530642957864 148 153 123
-6.005905330888865 -1.041539794109574 -60.541139430987926 143 146 117
120.254206139988696 -1.026420112856161 168.619707802589289 123 125 112
106.046269180611773 -1.532886595452360 142.718578405615602 133 134 120
104.603440127305319 -1.044509414546329 140.078029219836395 134 135 121
101.278902293586000 -1.506177348343635 134.023965844377699 133 133 121
97.572599223540763 -1.049066772281461 127.256209121275077 137 138 124
92.128921707147896 -1.576958924828478 117.338825648855362 137 138 122
90.347828859227548 -1.393902385849190 114.087231327252141 135 136 120
88.856180228317427 -1.077691183672131 111.360950566046455 136 137 121
15.141212662242808 -1.214784696559168 -23.097603264953165 146 151 123
6.962553066166066 -1.136553698956016 -38.031776255727692 149 154 124
6.337585968922482 -1.069971233179484 -39.174645009348836 149 154 124
110.136385775539651 -1.312330407327884 147.632861215775534 129 130 114
100.843601714744835 -1.099474619689654 130.791400321179196 137 138 124
95.954126463516488 -1.274109583024952 121.935558750087097 138 139 125
93.824466507040910 -1.240140935894519 118.076240180551451 138 139 125
91.840212153524703 -1.154326875157018 114.479403052843054 138 139 125
15.907853820156092 -1.099347077009321 -23.132973369720389 150 154 127
7.541752283256272 -1.143170645642662 -38.308795064298579 150 155 125
101.753266850803954 -1.186122438728752 130.024534892927676 138 139 125
99.466665621174968 -1.174652425074031 125.907951425494190 139 140 126
97.326196414414426 -1.114614054802217 122.053535615487363 138 139 125
86.378798003404484 -1.305173986677518 102.349445912774456 135 136 122
84.920279057274229 -1.021378576654115 99.718508580882542 137 138 124
4.088688945499470 -1.079530739011270 -45.858803925554469 147 150 121
-0.282216656201328 -1.003166544433291 -53.745863365770873 148 151 122
-3.292783465162344 -1.037870900970968 -59.178512159416840 142 145 118
112.686142137465438 -1.179940959841253 147.187715955417190 131 132 118
102.514432093785373 -1.345436741550597 128.996882642370167 137 138 124
93.222884985257338 -1.509944271265361 112.380432154086805 137 138 124
91.904088276335258 -1.092023148399385 110.013848214262339 134 135 121
89.262447127943901 -1.386137953035592 105.294247970593801 132 133 119
87.355601656765188 -1.318245256252164 101.882280942353589 134 135 121
10.214509146757763 -1.093532188241339 -36.151318307397446 150 155 123
-0.137990238721372 -1.388583788934735 -54.697764575575633 149 152 123
-0.478051184023869 -1.126962653423961 -55.313785777192578 145 148 120
-2.185450524199524 -1.042874881285253 -58.377898315224968 144 147 120
106.517786987318033 -1.084432693274458 133.730537833098651 137 138 124
104.060298727664900 -1.117672504658833 129.363589701004997 136 137 123
101.898113133275984 -1.031410565757278 125.519293004036513 138 139 125
94.770970745263895 -1.245436158874107 112.856558252140360 137 138 124
92.214534792581873 -1.463185772138088 108.317127839467133 137 138 124
90.396574144328937 -1.321963222383273 105.083601565437476 135 136 122
10.505450362870917 -1.360618122236771 -36.952907647754785 151 156 124
5.305106021078274 -1.000752277984542 -46.219826821415950 150 153 122
0.104555652177964 -1.084792480976120 -55.482078084471453 148 151 123
-0.434524094949069 -1.018377234336107 -56.444315560879630 146 149 122
-1.022937188773639 -1.005917521104337 -57.493255626838476 144 147 120
-5.730233963556188 -1.129564217335645 -65.882481179851851 139 142 115
-6.170587046963291 -1.020618034464056 -66.670669176228387 139 142 115
99.087632758402464 -1.824158745181793 118.224984313311836 140 141 127
95.087346946500901 -1.612974223658447 111.156963826964983 139 140 126
93.854080243999974 -1.144588866970138 108.970660941372046 138 139 125
91.284695387019653 -1.386975671310738 104.437678843114412 137 138 124
89.754401747652011 -1.109844902317621 101.730287996021758 136 137 123
11.288996076458048 -1.193846712676297 -36.886034353580413 153 156 129
108.753789438044649 -1.065639359003508 132.882366245656328 140 138 126
105.376498510659644 -1.533404445428487 126.964461415360120 142 140 128
101.551550679919771 -2.258355111511194 120.265631489275620 138 137 124
100.063600195615180 -1.862880244004446 117.647624531604606 140 139 126
96.789161581339656 -1.272880427820561 111.891345171588029 139 140 126
90.782971880780494 -1.097106134266780 101.348951328357998 137 138 124
88.797341862466482 -1.073737551221913 97.864273981565702 138 139 125
7.067955794841069 -1.045191954184824 -45.621545166762900 147 150 123
1.271267980965334 -1.000395722445093 -55.819380231800096 146 151 122
-5.165637705376042 -1.030051809188916 -67.151336389983300 140 143 115
-5.710008400683378 -1.027544482251941 -68.110384858595808 139 142 115
109.122870999458613 -1.415101115855165 131.157371688312708 141 139 127
106.978024810692531 -1.281796521284097 127.415154530362145 143 141 129
104.333383842213635 -1.416556016047341 122.806207951003728 138 136 124
102.788037165454355 -1.036226650611435 120.104956150406167 141 139 127
95.852806445952709 -1.171932075937765 108.014758634803854 138 138 126
91.811970161302398 -1.084453905900516 100.967410727245124 138 138 126
89.616524241578034 -1.166081132884494 97.140753823434949 140 140 128
2.999656210366695 -1.062915048538795 -53.984978455404814 147 150 121
1.951869284937345 -1.458418377886515 -55.807686250669548 146 150 121
1.454819683464606 -1.340018125879187 -56.679707027546272 146 149 121
1.057923267305839 -1.130737009009429 -57.378858457536467 145 149 122
122.571055524281661 -1.728052622728375 152.109172250586653 127 127 115
111.041671189250351 -1.023311399934076 132.119992409896781 141 139 127
108.233370221950722 -1.199622606445534 127.257191270876064 143 141 129
94.846765262352520 -1.117893963763633 104.061133650363615 134 134 122
92.037831678504475 -1.489127521132112 99.200641586609208 138 138 126
20.309780511732313 -1.110914224546722 -25.127862059047686 150 154 131
8.243398552004223 -1.012329386553998 -46.073352338706030 147 149 125
3.438920877593816 -1.162914431648589 -54.415809592488216 147 150 122
2.184752064278271 -1.748685203167958 -56.581262021323568 146 149 120
1.534319990559482 -1.775037050403529 -57.710991797915625 145 148 120
1.487685084812625 -1.232132479202603 -57.805129093261087 145 148 121
119.870327539687594 -1.016471971175069 144.968591350025775 131 131 119
111.707213129229444 -1.229414096141074 130.916849866322991 143 141 129
109.288754149430318 -1.214274838554640 126.752450040308872 142 140 128
106.416039268577535 -1.445389792064533 121.810169534317964 140 138 126
102.587981460750370 -1.051168125835547 115.212166092492055 144 142 130
95.583711268175904 -1.260644283889551 103.155756183371523 135 135 123
93.164683640614655 -1.424442953625571 98.993470294474264 138 138 126
20.982185208934581 -1.077536302673194 -25.339022852175816 151 153 131
20.075941421969205 -1.132286334716480 -26.900375289819948 152 154 130
3.274189920914239 -1.232193955799741 -55.888314127404669 143 146 119
2.317254187794589 -1.541816296773701 -57.533651067973835 144 147 119
2.219846555654769 -1.045492033914337 -57.713878275454050 144 147 120
115.407478819891367 -1.191298443586335 134.910925115664838 137 137 125
110.749723731898797 -1.035609122925122 126.938559183239420 143 141 129
107.355830138004123 -1.508822918197775 121.139511982910221 142 140 128
105.787384823275289 -1.128717929521053 118.449312801164410 142 140 128
103.204667077339579 -1.265349589413316 114.032479405373493 143 141 129
100.976845381954647 -1.252976518369343 110.220343369375144 140 140 128
33.746764521957360 -1.024083969623681 -4.839971673012315 149 151 129
20.744410026419843 -1.098560459121928 -27.109656651329999 149 151 126
19.935281183744664 -1.079584920224656 -28.496509669937694 150 150 123
3.407481826757390 -1.022250395457569 -56.841112652170636 144 144 118
127.172204704576117 -1.234037567689255 152.563526347111178 125 126 113
124.577581224161207 -1.149888899009905 148.150116011053171 130 130 118
121.575256674173474 -1.278319651148005 143.047065576601824 132 132 120
116.483801513174498 -2.396664042617821 134.408423462158083 136 136 124
116.181725522984976 -1.348235333724468 133.876990267526054 138 138 126
103.511599482464760 -1.629461630151754 112.337367594100670 141 139 127
101.884368464713575 -1.317664249927709 109.565135530788353 139 138 126
91.810898619460161 -1.032248177856233 92.431251830528367 137 137 125
71.713442187390882 -1.101049924262121 58.257254766666591 145 143 128
34.427925775709753 -1.032894554358792 -5.165746190207358 149 151 129
21.413362526715886 -1.064848677603963 -27.319169361876362 147 149 123
20.498275001214623 -1.128449254632385 -28.876199882213086 147 147 119
19.583181149553894 -1.201626265401810 -30.433128801093517 145 146 118
18.974192271375955 -1.032316394069851 -31.473840019817629 145 148 119
7.849986362742456 -1.044980958449263 -50.430023478574526 140 144 118
6.730680997979576 -1.450304305386106 -52.329274900153081 143 146 119
128.815991308851352 -1.024566868650232 152.883577132125282 125 127 114
124.826455974345677 -1.553487040320587 146.150608578406917 132 132 120
121.246361054165206 -1.940254313833702 140.107172962091170 134 134 122
117.922134035349146 -2.248414920814499 134.494816305499626 137 136 124
117.004129519743543 -1.481587437621371 132.930633250035157 139 137 125
104.374796843627877 -1.718765483091254 111.592759529972426 139 139 127
102.637219138522752 -1.458170699898570 108.652126227865750 141 139 127
32.043278410669771 -1.083569596099049 -10.675950536226168 147 149 127
30.970081209905217 -1.157441109515478 -12.489812860725010 145 147 125
21.163295342020433 -1.094383128393512 -29.083835108585930 147 147 119
5.750485929046761 -1.043670900075706 -55.190305168533314 143 146 119
5.087421191580958 -1.058815700934904 -56.314106881848232 143 146 119
4.475659649410218 -1.033011321392166 -57.352014493504129 143 146 119
1.874816882084957 -1.138384812136876 -61.760498697227405 145 148 121
1.314409370574182 -1.095370362345859 -62.712292168102380 144 147 120
121.524451951374203 -1.119523717550180 138.191944879027432 137 136 124
104.004922164351939 -1.295740834766314 108.772162010646412 142 141 129
95.682639412626557 -1.115700877713258 94.792520953834924 138 136 124
32.452167737368029 -1.283212233198013 -11.423801191210146 148 150 128
31.682757209218622 -1.127409646585336 -12.720204859961655 144 146 124
5.675984279145112 -1.016794989210058 -56.485247100888188 144 147 120
4.855146464736094 -1.181496426340249 -57.864607908167727 144 147 120
3.062719997482503 -1.095045966834664 -60.888068080382624 145 148 121
112.396636177806982 -1.152414434157360 120.608940003983065 140 140 128
105.479373741485631 -1.082946093818122 109.062328991259506 140 139 127
98.303009220765858 -1.363029063861345 97.088975210219274 142 140 128
94.638566869106185 -1.099672840559432 90.968340183337261 139 137 125
85.037129511803315 -1.017534014950346 74.941036812694875 143 144 130
71.202914158455386 -1.046957509163672 51.849399730134962 139 140 124
34.511217137757399 -1.000360195615259 -9.418565011788473 146 148 126
33.117274672591151 -1.291776933853065 -11.741897908458782 148 150 128
26.877708851639142 -1.010187807640251 -22.173734620868686 148 152 125
13.835937800274763 -1.011538865768188 -43.981880031105675 146 150 123
120.702495496272860 -1.315142072143312 132.157364302323543 142 140 128
112.921716437647078 -1.411690318346706 119.251823415220287 140 140 128
111.314812753279554 -1.029147898433417 116.579997495981274 140 140 128
101.770188294694293 -1.215624867823505 100.749997796490590 143 141 129
99.124147194784527 -1.455198799696289 96.364517712705805 141 139 127
96.322200932505936 -1.801508466521202 91.722144153977951 140 138 126
95.390183220139335 -1.219796815878294 90.166570454069387 139 137 125
87.246352433470719 -1.344283584254849 76.658987660025218 138 139 125
78.792807500338157 -1.015179476347330 62.629748703761209 141 139 126
17.360088343027016 -1.088023351495911 -39.348077837280186 147 151 124
16.427350169526406 -1.222836989006416 -40.895931316309429 145 149 122
15.910678927728256 -1.016016553426238 -41.759475321079861 147 151 124
130.224795783842637 -1.206812868724504 145.559952754669922 135 135 123
120.737851235955176 -1.802941871062886 129.928293707619190 141 139 127
119.279983070810488 -1.287648050993378 127.516379884745930 141 141 129
109.325384662093072 -1.352493551852057 111.105246109474166 141 141 129
105.156559884271658 -1.145807203079515 104.228759273592317 144 142 130
102.915497034292656 -1.152543661751567 100.534013349474577 143 141 129
100.361240736791643 -1.339019996733589 96.325794940431621 140 138 126
98.120052818877497 -1.394255318069881 92.631608071542445 141 139 127
96.087567002318366 -1.366551867543108 89.280160641974277 138 136 124
79.672031651710569 -1.027739788326316 62.209260173073773 142 140 127
18.675523000800325 -1.141922081569900 -38.424798073034566 150 153 126
17.686125616047946 -1.311521405527113 -40.056046797987591 149 152 125
16.748977083223309 -1.447588377423514 -41.601777475033202 147 150 123
15.968588897948706 -1.461516190514144 -42.891182349974912 143 146 119
15.658505179221777 -1.085859348048132 -43.411859495930173 144 147 120
14.982658885048750 -1.024282730403918 -44.530336288429993 142 146 119
2.715148441943356 -1.175704625653388 -64.822739521551171 145 144 123
2.091836781503844 -1.193812512052401 -65.854669585204846 145 144 123
121.130268587151264 -2.125415889047905 128.302716474999102 137 137 125
120.032439149949212 -1.446391025209779 126.492888187345955 139 139 127
97.516518734314076 -1.141115778145929 89.591964468790877 138 136 124
32.550064261225643 -1.029176746652958 -16.905334828645152 145 148 121
19.787845151866946 -1.374603093261486 -37.845945225636655 150 153 126
18.898777705268046 -1.450288230986057 -39.304440385156397 149 152 125
18.167201768053189 -1.404936420665371 -40.506948182278308 148 151 124
17.645627396809758 -1.192480165526832 -41.368204559050525 145 148 121
16.914081011050229 -1.160789269247313 -42.570585874836468 148 151 124
16.340047591984131 -1.003974681191113 -43.517032160234095 146 149 122
8.346512201922081 -1.165260392944268 -56.652701427153062 145 148 121
3.073536268334777 -1.328393360219541 -65.325195982158476 144 144 123
2.188870223108040 -1.022959972935735 -66.789719801443340 144 144 123
123.254425150448313 -1.668905171024330 129.499005860374695 138 138 126
121.203240457261941 -1.414157583799907 126.154166829934354 140 140 128
118.730595095977236 -1.373915854908727 122.126290075660535 142 142 130
116.205204123016301 -1.383748755808161 118.013303199615081 140 140 128
114.153832147385458 -1.197572027194420 114.669259598749022 140 140 128
107.209203650359413 -1.149364849348037 103.357677037330603 140 140 128
85.426506911418144 -1.813346266655925 67.889700829612309 142 143 129
34.201793729780917 -1.021722906782040 -15.589274457376490 146 147 124
32.886728563295790 -1.271592515774569 -17.729051878998945 142 145 118
32.204316345767936 -1.063478820940278 -18.845895936021350 145 148 120
23.901229314302668 -1.211061272242745 -32.387912237893374 144 147 120
23.271652734302464 -1.040892865705501 -33.418783207968602 147 150 123
21.537922573073047 -1.102276806174772 -36.247083988205816 149 152 125
20.539221522744441 -1.253095384148042 -37.874075191090498 148 151 124
19.487780273192712 -1.457085715780129 -39.586147224793990 145 148 121
19.227452127338566 -1.021526476553899 -40.020384986805453 145 148 121
16.758848479120999 -1.142889718323898 -44.048531801610380 145 148 121
16.023908929662014 -1.125830926652759 -45.249139223910049 138 141 114
12.454917162955056 -1.059232147364351 -51.080835505481161 144 147 118
11.772815277582993 -1.039646777526136 -52.195887407585502 144 147 120
8.622460519858294 -1.406406798251757 -57.336526340093087 145 148 121
8.045953645383150 -1.328045795201777 -58.280981770739174 144 147 120
4.376279635257333 -1.173211481261587 -64.287138034693385 146 145 124
3.641587258608141 -1.283630643630668 -65.486551508997678 142 144 123
121.845720435400665 -1.620737035240917 124.962061957336317 139 139 127
120.314028477682385 -1.147914018266962 122.475043472174747 141 141 129
118.041391327870201 -1.032794052991204 118.794148255482412 139 139 127
110.270489734729765 -1.282366231691053 106.218033829719445 140 140 128
107.997600905453382 -1.265991694807820 102.538275451920015 141 141 129
103.557504435060793 -1.251496654390933 95.350106845926348 142 142 130
101.602007318597742 -1.147038782615364 92.182755984152323 141 141 129
98.746702956455422 -1.514619007796227 87.566127706045592 139 139 127
97.426237318987006 -1.132894120624710 85.422432531795437 136 137 123
77.076580758237924 -1.115237827735462 52.476786038197957 139 138 120
35.862845863405667 -1.024656148128840 -14.277567097676666 149 149 125
34.488682322173190 -1.301354006154344 -16.499654787668049 148 148 124
33.379336031025730 -1.396956182891957 -18.295999826602326 145 146 120
29.156861368343073 -1.034430697726060 -25.148424871980666 151 154 127
25.567138568116746 -1.063390503026850 -30.969219865660477 146 149 122
24.510790517966413 -1.218369702137590 -32.679448998984810 142 145 118
21.239086001977839 -1.174396500478197 -37.987980276324663 146 149 122
20.182754356781658 -1.377730364859433 -39.697719518861902 144 147 120
19.550310230040978 -1.244957253327363 -40.726833735848373 145 148 121
18.864898659361529 -1.162087550220636 -41.840953713280015 146 149 122
18.020537185359757 -1.217703577962282 -43.210183753361406 148 151 124
17.017212554866731 -1.414246513185885 -44.834492387564580 144 147 120
16.437824166215833 -1.265431203859956 -45.778294533273680 143 146 119
15.805465624280529 -1.167043882795861 -46.807095743522467 135 138 110
15.173127612321579 -1.074921721674031 -47.835842284802936 140 143 116
14.487813447422198 -1.034306054877351 -48.949573918803452 143 145 121
5.580292059121433 -1.123631870488629 -63.422478295134965 146 145 124
5.054279287524906 -1.030640268791404 -64.280381646700079 145 144 123
4.263175559316139 -1.189480382538654 -65.563168587523478 142 144 123
134.434058938932964 -1.385972298603142 142.993805442832638 131 131 119
131.938476648938490 -1.236999857836433 138.975782416793322 135 135 123
125.192644752996898 -1.794843137771869 128.129629049251861 139 139 127
122.590496115573032 -1.779593387557346 123.942245703533416 138 138 126
114.201614954425949 -1.037773676950155 110.432117955973695 140 140 128
111.705489449084169 -1.095429240506530 106.416481728144106 140 140 128
106.021834450273545 -1.622533457591933 97.279047859646425 141 141 129
103.419174194130022 -1.812613224632583 93.094022830439570 143 143 131
101.933064937950618 -1.476943553894635 90.697468410319459 142 142 130
100.606441711952897 -1.076846630685913 88.556529892719055 140 140 128
98.375843455176110 -1.146823592465545 84.968287594271231 137 138 124
34.931754846860187 -1.464747285967567 -17.153372815323848 145 145 121
34.189726507496871 -1.288278537747979 -18.352229871595085 146 146 120
29.734766417569617 -1.082627009809049 -25.535255442706415 150 153 126
27.718676201585751 -1.242955165424100 -28.781752082688939 149 152 125
21.144860874215752 -1.083031953446846 -39.385009263326424 145 148 121
19.341826257700546 -1.255904517821804 -42.289866306218215 146 149 122
18.653256669079738 -1.180308896565730 -43.402400622912779 146 149 122
17.751762893937851 -1.288156527830946 -44.854620004748398 144 147 120
17.116462035959941 -1.182861183006073 -45.882084728846678 147 150 123
15.420003059822832 -1.350844180926861 -48.616259753707510 139 141 117
14.837997045742014 -1.221276974381735 -49.558611505992076 142 144 120
14.256016059025271 -1.097421017960093 -50.500916442515205 144 147 120
129.949329117176745 -1.386424412514043 133.499106554379296 136 136 124
124.400449701664186 -1.461172470647892 124.625116834376939 138 138 126
122.213434670028249 -1.275609749436492 121.124252957003932 138 138 126
116.770961814786403 -1.465241751913017 112.422259031292043 140 140 128
114.744008252244342 -1.277431422707985 109.177375814752480 140 140 128
109.728472291545046 -1.422887923221892 101.157553100838925 141 141 129
107.220614607110406 -1.534035655592966 97.148080129038561 143 143 131
104.926366279117275 -1.566657930912726 93.479044411012893 142 142 130
103.166241993465377 -1.359684349649208 90.660608150645430 141 141 129
101.726589684905463 -1.011280717750985 88.352556693886498 140 140 128
30.419097481205597 -1.050108977207425 -25.752112917384011 151 153 132
29.352931425946863 -1.165451961199075 -27.458053146191531 145 147 125
28.233302884024923 -1.332362092363505 -29.248745183002939 146 148 125
27.541399618456850 -1.181139533986576 -30.360463146128353 145 148 121
20.883877444007680 -1.128310512566102 -41.033431768663775 148 151 122
19.871256112747673 -1.306086387410679 -42.653486071866666 146 149 122
19.019075380958867 -1.362306789720202 -44.018969184693901 144 147 120
18.594752652924626 -1.073759766855038 -44.705815884882611 143 146 119
17.903053120510634 -1.011433482142345 -45.816716259248125 146 149 122
16.091830402422076 -1.266963295446693 -48.716805309827066 139 141 117
15.186230083905158 -1.408203028947112 -50.166716413705018 142 144 120
14.655057721657499 -1.239828809966123 -51.022927385936896 144 147 120
13.378833953546462 -1.102792756931473 -53.074410128827822 145 147 123
4.818041169790888 -1.067201111215383 -66.827603039906336 142 144 123
4.233768388785506 -1.040294553894144 -67.767813641029221 141 143 122
131.523436925876183 -1.192732978116779 133.741794975335267 136 136 124
127.770379486736843 -1.637922905543651 127.781705408949335 137 137 125
125.895231098214438 -1.286092647457995 124.795087432740274 138 138 126
122.946874260513937 -1.436070160923876 120.109876361037067 137 137 125
119.783808843053322 -1.713648039267667 115.085259052906309 137 137 125
117.586531872427813 -1.579231873313907 111.589830929158040 140 140 128
115.818480667955981 -1.267638360332629 108.774109974069091 141 141 129
111.528341564784995 -2.159238255995323 101.966964707649453 142 142 130
110.404111630235121 -1.590609613613024 100.170902691199899 142 142 130
109.065210290068052 -1.136541357623473 98.035282427291008 143 143 131
101.560193709308749 -1.583461207830273 86.110013116147513 140 140 128
90.627490940241017 -1.020127226067534 68.719169443255112 140 141 127
31.906450721638237 -1.113723202146920 -24.689260637484836 151 153 131
30.674253777591048 -1.340415003131778 -26.647202743653509 150 152 131
29.871719885094777 -1.254422714532531 -27.927041715971740 148 150 128
28.693234232912545 -1.462648888421696 -29.800010311117205 139 141 119
28.159276644823606 -1.188649463085733 -30.655976094164146 145 147 123
27.303074545587663 -1.168507007259733 -32.020321439848942 145 148 121
25.536994761781173 -1.195665349130712 -34.833498572810356 146 150 127
20.776262372361714 -1.051002831012766 -42.423910358030355 148 151 122
19.973909088388183 -1.061607269265126 -43.702841414211292 145 148 119
16.979571569178034 -1.003205102469137 -48.479059327139282 143 143 117
15.908639112057585 -1.278414822757845 -50.181073737007097 145 145 118
14.891439014406373 -1.518726806490506 -51.798293858478985 145 145 117
14.196653490922074 -1.494405210857782 -52.907326703937684 147 147 121
13.663100613997329 -1.338707926667515 -53.762268356049617 146 146 122
13.075839862551291 -1.234490749449991 -54.701845319403759 146 144 119
12.488606895593506 -1.135965510063891 -55.641376984786319 147 148 122
11.686431760533083 -1.230626833760011 -56.919528027048187 149 150 124
6.394098212512660 -1.820670705974642 -65.356649787414057 145 144 123
5.972696674856266 -1.054815578628985 -66.049807147164955 142 144 123
5.116936146047834 -1.269966433218179 -67.411941746383405 142 144 123
4.314945853051697 -1.443617441658192 -68.689368135949110 142 144 123
135.847949301705626 -1.032675494796144 138.322848621072922 133 133 121
133.047950748341464 -1.022493327506017 133.897591505382962 136 136 124
127.609445392898849 -1.015708001427542 125.302536604052676 137 138 122
124.539716505449590 -1.210492051358401 120.454132951268377 138 139 125
120.553540670512220 -1.851142006663060 114.164142854944998 137 138 124
119.316417666918753 -1.273856971848855 112.200281621323967 142 143 129
116.516005864560114 -1.432508069057283 107.776960088142431 142 142 130
112.367875652550524 -2.249799364469361 101.233690013966509 143 143 131
111.130615742655394 -1.732867372954591 99.270515520044455 143 143 131
102.838951477769925 -1.438274796818669 86.161918615789403 140 140 128
101.278074390458144 -1.162137700303529 83.690886783572950 140 141 127
38.565879534251522 -1.020599667598280 -15.459872011056774 144 143 123
32.271715455910496 -1.322060821882857 -25.416151935160599 152 154 132
31.519446248746988 -1.186838142674232 -26.609685228870347 149 151 130
30.497428729319722 -1.262139939746127 -28.226299245022602 149 151 129
29.853100854496162 -1.061335080175110 -29.250428602619081 141 143 121
28.507370169744647 -1.401963209646477 -31.374601522370995 144 146 122
27.917031717953236 -1.175906050983929 -32.313960284565553 144 146 122
26.517343096577378 -1.581183960502617 -34.522513324645900 145 147 124
25.873079640234621 -1.412721905457864 -35.546340579088167 148 150 128
25.228840888986127 -1.250571653417589 -36.570114681803744 148 150 127
24.584627069928629 -1.094727927641247 -37.593835795751062 146 148 124
23.026448669766765 -1.017240375079685 -40.064113871100858 143 146 119
16.686508873351087 -1.103380025860134 -50.111570145908047 145 145 118
15.664682215454434 -1.342484221989235 -51.726589369181568 146 146 118
14.534896375849286 -1.683215852772297 -53.510632957581635 147 147 121
13.944930314054787 -1.574567268339829 -54.448961324438699 146 146 122
13.624914154288248 -1.239983976985598 -54.964464033950975 146 144 119
12.981028701485741 -1.187959094225392 -55.987273577683879 148 148 122
12.229193283610201 -1.235912145767547 -57.179128874885890 150 150 124
11.801313661135225 -1.008312498533829 -57.863646607011503 147 147 121
8.366545442281449 -1.095101219621870 -63.314540539517196 146 146 122
7.452852774058002 -1.337315946339611 -64.759540904703158 145 145 119
6.647170950299540 -1.490349515722364 -66.035413504263317 145 145 119
6.219538675836361 -1.305863978919046 -66.719605771632558 143 145 123
5.683932688613183 -1.224600308622601 -67.572799040235111 143 145 123
5.202369231658849 -1.098539701295994 -68.341448302532456 141 143 121
128.571363438357537 -1.079438056322584 124.621296543913701 138 139 123
125.541721305188361 -1.250430776429784 119.864329514098529 139 140 126
122.187108111176073 -1.598326250098832 114.599495165271122 137 138 124
119.103168991104667 -1.856653672726051 109.758543722921274 141 142 128
117.697842580803680 -1.372956720636304 107.543537116904844 142 142 130
115.263602951775241 -1.382472956541597 103.719517145532279 144 144 132
113.424985510476162 -1.136248108144904 100.827368823843244 145 145 133
111.369717760460318 -1.011591606494294 97.596681091610975 144 144 132
102.498367866791170 -1.042144674589656 83.660161843420582 139 140 126
33.284874957044494 -1.049464131526998 -25.127637747914321 149 151 129
29.395019490196461 -1.203654701204919 -31.246996779164590 140 142 120
28.422582022094133 -1.266157392524623 -32.776602584629245 143 145 123
27.395951324813723 -1.379934532416616 -34.390613626277172 148 150 128
26.586147773743733 -1.335935850059387 -35.666542557567226 148 150 128
26.155805907145748 -1.004173127570541 -36.350954563404883 147 149 126
25.237632814179662 -1.059176390844479 -37.795738570391762 146 148 124
23.618166097867487 -1.023992526755970 -40.347119957177455 147 150 123
17.195239843175841 -1.154504206694444 -50.465277936132964 145 145 118
16.060330826479543 -1.484772692798340 -52.246978316577838 146 146 118
15.088096476653021 -1.688862783205346 -53.775223862903175 147 147 121
14.603917692566711 -1.488012547943380 -54.543391808876606 146 146 122
13.744134189469676 -1.006927920445458 -55.910768532560780 148 148 122
12.125227590895946 -1.202040426061845 -58.460047321528293 146 146 120
11.586981533224247 -1.074310872814783 -59.312455886153373 145 148 121
8.191061286401165 -1.146675845079712 -64.671224141290878 145 145 119
7.110508418862949 -1.543805541521513 -66.367381196229019 144 144 119
6.789458930327115 -1.260825703524155 -66.881858384531256 143 142 121
6.305701815346737 -1.129574600385668 -67.649511636729017 143 143 122
147.138676603758142 -1.023476917753839 151.434742477289944 125 125 113
131.650879580433127 -1.403276232582804 127.253178748330726 138 138 125
127.519600982860709 -2.025689594604844 120.810699828024298 138 139 123
125.781597551934325 -1.628128000743276 118.090578093343737 139 140 126
122.574876875837575 -1.906681024745978 113.086855348970943 138 139 125
119.422479530205550 -2.192710438910477 108.168080352668937 140 141 127
117.629927717234708 -1.886974589201262 105.364140700575604 141 141 129
116.925282157028150 -1.095178839840581 104.251924865877243 143 143 131
109.588962164342433 -1.260622753921351 92.797348736633268 143 143 131
33.974810435450394 -1.017342270112794 -25.347172277418508 148 150 128
30.176224503826518 -1.087680392589631 -31.289339706996174 135 137 116
28.168112509637950 -1.262100335920361 -34.428649162167972 149 150 129
26.759005797332122 -1.011238441735008 -36.639450596445840 147 149 126
25.727773453722591 -1.151151562170795 -38.250991195485710 145 147 123
24.805457624244482 -1.215598385753795 -39.693696124215052 144 147 120
23.992066500798259 -1.202946398784170 -40.967586105894640 145 148 121
17.921365531745138 -1.024671900626952 -50.481413750981034 146 146 118
16.454522952687981 -1.627015774435394 -52.766670953843771 146 146 118
15.913668373828870 -1.465599013865653 -53.618178370222012 148 148 122
15.427321619943598 -1.263288662969761 -54.385324196578466 145 145 121
12.015495294482207 -1.174144455846926 -59.738145533335626 146 149 122
8.227312316598045 -1.008497740061931 -65.687718810812868 144 144 118
7.359898913100309 -1.215738994545655 -67.044360132209988 142 141 120
6.710488923313633 -1.232937367556867 -68.063814206639734 143 142 121
141.299693019639619 -1.417636406190866 140.042212221374086 131 131 119
138.625165642321633 -1.312927983796225 135.888533773674396 133 133 121
127.923842946471694 -2.327851198088478 119.290115540390246 139 140 124
126.615039434226262 -1.740481327962498 117.249583323211624 139 140 126
124.322667983790240 -1.605290922506496 113.688781218091407 140 141 127
119.079601644598483 -2.824647067183015 105.567144676017023 140 141 127
117.934583203307824 -2.226391716816550 103.780722847346766 143 143 131
117.335969152698482 -1.387661407146326 102.839016550736488 145 145 133
110.239551652072393 -1.431451368775271 91.822714070964139 145 145 133
108.110783092387848 -1.379366884487503 88.517077009449082 144 144 132
102.270717923707835 -1.079622495346955 79.445958062010732 143 141 128
99.431387523918474 -1.465546534635186 75.043594487003219 140 138 125
97.411728961407277 -1.465171591145285 71.908009618959170 141 139 126
95.829229117561184 -1.261669108172429 69.448069703917810 142 140 127
37.390457612280002 -1.129650779862110 -21.326247000101148 146 145 124
36.573171744719090 -1.006748618910819 -22.599408609972045 149 148 127
34.555856069602896 -1.065362116483837 -25.735507109657988 148 149 128
30.849515175213952 -1.054021137711615 -31.500927243039627 140 142 120
29.704198955794283 -1.239479352418226 -33.279139458244458 135 137 115
28.887050393144037 -1.185967572915666 -34.551652484258966 150 149 128
25.563963025166373 -1.094073092674758 -39.725236774206508 146 146 120
19.247003666034274 -1.027159140379707 -49.563544499222871 144 144 118
18.156559580983924 -1.301877710630826 -51.256229668823352 146 146 118
16.956688814647777 -1.678211035995708 -53.117237287299787 147 147 119
16.249261209847745 -1.654287015674434 -54.220218111948043 148 148 122
15.487141124971103 -1.683200600444234 -55.407349242505745 146 146 122
15.381682563532607 -1.163618476720619 -55.583964317851326 146 144 119
14.838515142975552 -1.017549412014997 -56.434207297145520 145 145 119
13.369212412988205 -1.070793825182958 -58.723939728828157 147 147 121
12.388323339419571 -1.321338815403551 -60.247566701360512 147 150 123
11.626357481928096 -1.390643219790382 -61.434355850773642 150 149 127
8.528451339000199 -1.209038444740098 -66.273153960377527 143 143 118
7.930859771108956 -1.170602536515783 -67.207111576907920 143 142 121
6.566885763914541 -1.832304125387369 -69.319251983324961 141 140 119
6.462043320432301 -1.360065888071699 -69.495674472982671 141 140 119
3.420076470078186 -1.366904065126278 -74.248435125517915 142 141 120
137.482716217253682 -1.065132246964336 131.887312694897588 138 138 126
134.631317078829682 -1.082314240255015 127.486927115965102 137 138 124
131.011458030454747 -1.461672268929184 121.905873794880279 138 139 123
127.611062414379774 -1.780524069132046 116.662642638717330 139 140 126
125.198549537369445 -1.694217995014769 112.938101201398865 141 142 128
122.566436632720766 -1.730545866217895 108.876442457699909 143 144 130
118.781627892947029 -2.316503737100113 103.043850484781302 145 145 133
117.850929256271229 -1.629725416694236 101.597423124491229 146 146 134
116.481103648321536 -1.156057539381659 99.476395175541853 146 146 134
113.793907774442658 -1.313816062756568 95.331478997297893 147 147 135
111.051770485303877 -1.524261901363286 91.102530055873842 145 145 133
108.968268658626130 -1.446554348179939 87.885832678250125 144 144 132
102.772441564594644 -1.310551508481689 78.321441180952377 144 142 129
100.194764357544329 -1.561619480632713 74.346809898768043 141 139 126
98.440447321278711 -1.423737879170099 71.637165553577148 142 140 127
97.015470976383256 -1.135859580397179 69.433575068685826 142 140 127
37.217712825576982 -1.014927458581512 -22.907670664847103 150 149 128
36.067192250698298 -1.138670237815083 -24.684028402219866 151 150 129
34.971610474644123 -1.233570054492215 -26.376106682818460 150 149 128
34.150701141596556 -1.137462782727030 -27.647259025965724 150 149 129
31.523294071823713 -1.020358248483447 -31.712748381766062 145 145 120
30.537655135370173 -1.081155952252641 -33.236056200315716 135 135 109
29.552030275619472 -1.151526153157099 -34.759272218589899 145 146 124
26.214055688306772 -1.058101615763412 -39.925750263483565 144 146 121
25.118622505748860 -1.259387760185748 -41.616804542786014 143 146 119
24.462774338512872 -1.124743634084991 -42.634741606314748 143 146 119
18.993367318883102 -1.081540484557063 -51.104529239451011 148 148 120
17.788140323427953 -1.456379654613799 -52.962989836367683 148 148 120
17.132526404043645 -1.385212368233560 -53.980385564266442 149 149 123
15.817381919024555 -1.872814437879067 -56.006819055609583 146 146 122
15.491599019883679 -1.539507878679205 -56.519549834726433 146 144 119
15.385736369578183 -1.022802186760182 -56.695941986785613 144 144 118
12.759703325413966 -1.468475978773959 -60.756295711699664 147 150 123
11.719464772315618 -1.776907367064881 -62.361793127803423 149 148 126
11.064065031545582 -1.759685546436182 -63.378736030238258 146 145 124
138.577629421944039 -1.081781656795620 131.363681351561382 137 138 124
127.724378259814685 -2.206384743987469 114.728215280887781 140 140 127
125.521527313506667 -2.026994352664491 111.345849670625569 142 143 129
123.318630510010053 -1.869445279260333 107.963730821942704 143 144 130
121.556754232580658 -1.534346241079140 105.255672733663971 144 144 132
117.754896934351407 -2.148910289704483 99.431531190430974 146 146 134
116.213469706139435 -1.756951676505336 97.060861288155195 147 147 135
114.837419990324790 -1.303100389961514 94.943014913197715 147 147 135
111.531608235166630 -1.773139538601946 89.877809179346883 145 145 133
110.486310826510277 -1.198460876357497 88.265641607015226 144 144 132
100.846307828343527 -1.712436996522492 73.482371751494696 144 140 128
99.470064765637005 -1.382367188609233 71.365892017969571 145 141 129
45.069472432781907 -1.074431574647696 -12.140799117013387 144 146 125
44.079232578648202 -1.009999240633859 -13.663194928004572 147 149 128
35.495750773002527 -1.321622016976413 -26.847665011708102 150 149 128
34.891879919364087 -1.064612127742828 -27.780868531249297 148 147 127
33.956968319137246 -1.057027928525650 -29.218289137930100 147 146 125
33.022074703383240 -1.058486698203141 -30.655625264499434 149 148 126
31.811292250246169 -1.274718069196062 -32.513060779257103 151 151 127
30.986793386158240 -1.212769271480921 -33.782144292725405 138 138 114
30.107133539830699 -1.200455111976356 -35.135186952021400 140 141 119
26.809455071537911 -1.064891063924366 -40.210517400362420 146 148 123
25.929902162462326 -1.093865204251481 -41.563186216861538 146 149 122
24.939984558271263 -1.217937775127316 -43.083795815437952 142 145 118
24.170856313050436 -1.177196534693448 -44.268291258216294 138 141 114
23.236167652114077 -1.275407845350361 -45.704729511959329 137 140 113
22.467086229981234 -1.250212698352491 -46.889087330993078 143 146 119
20.380802413542412 -1.038962021931359 -50.105828440704869 143 146 119
19.446219201014927 -1.177757227607072 -51.541899390186160 144 147 120
18.401240727768453 -1.416521780349292 -53.145846360474053 146 149 122
17.466683777932730 -1.573815779910034 -54.581739456558665 147 150 123
16.587349644867842 -1.694041524808307 -55.933573636144700 145 148 121
16.039295727239775 -1.544805962735764 -56.781511526337653 144 147 120
15.712130062037104 -1.214364515549400 -57.293551302873027 142 145 118
14.395368192892462 -1.127942915007624 -59.325119757196433 146 149 122
13.240072310681725 -1.520739110562017 -61.096423501934908 148 151 124
11.753452181475112 -2.210771655351281 -63.371316569056461 146 148 126
11.260799821727545 -2.052038130530248 -64.134997257020331 143 145 124
11.375655580642189 -1.367348220104645 -63.975273945758232 140 142 118
142.494026711864990 -1.133091622017460 135.144421602541627 136 137 123
129.047525079148784 -2.101830997855273 114.648444578256232 141 141 129
126.447163028394129 -2.091578014563352 110.681975739672055 143 143 131
124.234394673005838 -1.934418604528575 107.304583418578119 143 143 131
122.686125979963919 -1.500060787929186 104.936750013326304 145 145 133
118.978042331128719 -2.063439601534651 99.288938372155968 144 144 134
117.097417801548119 -1.823051322654471 96.416946176254612 144 144 134
115.050619738557245 -1.678418091310617 93.292859829187620 144 144 134
113.612975781062815 -1.267938467865371 91.094067489718157 145 145 135
111.455352474140071 -1.213222007853902 87.802207348127723 143 143 133
105.148426733734155 -1.095265379295613 78.180291936237637 145 143 130
103.156822825799864 -1.042611439531904 75.141606568556426 145 143 130
101.165191506827867 -1.009550840203710 72.103135998317640 144 142 129
50.334359633499972 -1.036067733673272 -5.458610557202121 144 146 125
44.640617049950293 -1.094679605010010 -14.152605447121175 145 147 126
36.296012528724006 -1.209355083663398 -26.899086457758784 148 147 126
35.412343526171455 -1.153088846613847 -28.250663571272781 151 150 130
34.584119998888525 -1.064726226171911 -29.518237109382142 150 149 128
33.645070207128001 -1.066067879853919 -30.953586141129904 146 145 124
32.706039568650823 -1.076447692383037 -32.388851301433419 147 147 124
31.822455774660270 -1.054446324101765 -33.740116472923972 143 143 119
30.883464596814818 -1.082618311873470 -35.175217367260586 130 132 110
27.404861138396370 -1.071659761360312 -40.495287948263325 147 150 124
26.632278689000330 -1.014429724759177 -41.678300639066578 146 149 122
25.693410837044553 -1.094520720515247 -43.112926103655042 140 143 116
23.815729159186276 -1.281704185888016 -45.981924938975936 141 144 117
23.043241124809569 -1.256396269460698 -47.164654207181513 143 146 119
20.119902167996599 -1.093047699808185 -51.643341200281327 142 145 118
19.458453179434471 -1.012687688106979 -52.658040076426090 145 148 121
17.969293446632420 -1.008821386828520 -54.938860855300106 146 149 122
16.975204481676244 -1.225880308338550 -56.456517733965228 143 146 117
16.258414704263558 -1.219525928470062 -57.554838874191091 141 144 116
15.652573265065072 -1.126231917211043 -58.485414462579143 144 147 118
14.880384315190327 -1.180013529204211 -59.667472703538124 141 144 116
14.052757068242883 -1.288517664745685 -60.933305051699421 143 146 118
13.058754395188615 -1.547921542406925 -62.450567334208699 144 146 124
12.397564629451267 -1.529107388022783 -63.464756699237000 141 143 121
12.124693871482222 -1.178912079306099 -63.892115424785260 140 142 118
8.930423542120607 -1.100133134160797 -68.794613684906068 139 141 119
8.380442985151475 -1.022494992760721 -69.640892889223778 139 141 119
4.909717531446830 -1.376785190579127 -74.960972591826277 143 145 124
132.264171939753737 -1.177874830056051 117.423597512793009 141 142 128
126.537360802931005 -2.521808577776997 108.758652969174165 143 144 130
125.371560951772977 -1.900853270811904 106.981939233694987 143 144 130
124.761979783500095 -1.042281677883398 106.045275332286792 145 146 132
121.538035743233394 -1.373581660213516 101.161194022156536 144 144 132
117.424031010892165 -2.143758561656805 94.933690118115635 144 144 132
115.479350958873852 -1.950771317482254 91.981970902326594 144 144 132
113.701517967366499 -1.698881972035800 89.282402970535969 145 145 133
110.201399364139817 -1.220943757216440 83.967818304786618 141 140 128
107.477815626796314 -1.476925695096756 79.841321018645658 144 140 128
106.033642935156990 -1.136688916742679 77.646375048104034 145 143 130
103.476874600543326 -1.357668246689016 73.772290200426625 144 142 129
45.312320556743231 -1.103565971088724 -14.473854630533822 144 146 125
34.932923939581073 -1.275407494282994 -30.237229495482097 150 149 128
33.989713042898998 -1.277985805561771 -31.670575139360636 146 145 124
33.213536946092049 -1.166179524810881 -32.852430422258237 146 145 124
32.437388783748460 -1.061780037178440 -34.034222827064951 144 143 122
31.438572110019294 -1.131515757933475 -35.551134457772491 136 138 114
30.662474869292879 -1.043000514737159 -36.732787718798818 145 147 123
29.830728989908138 -1.004103916144146 -37.998166997123803 148 150 126
23.675096795837234 -1.218421912306294 -47.356463798595570 142 145 118
23.121988543065825 -1.022482682950577 -48.202464456490048 141 144 117
20.738890300556918 -1.053530836164461 -51.829010883193007 139 142 115
20.018838404937497 -1.018277793512206 -52.926068905703772 143 146 119
16.581911395858938 -1.410975815742607 -58.151063432412485 140 143 114
16.029109480721047 -1.271808547871528 -58.996626258861454 144 147 118
15.476349420462796 -1.137773972111707 -59.842156275163063 140 143 114
9.444619783817032 -1.103990104709378 -69.040563702680970 139 141 119
6.292977718670187 -1.122861953192816 -73.851591124689776 141 143 122
147.219880409370347 -1.366339955810808 137.874640156220835 131 131 119
129.356649234540043 -1.757835911255537 110.949535410216100 142 143 129
126.062647163574070 -2.064483117361617 105.987856973502858 145 146 132
125.394445712479325 -1.232402578874542 104.968650615273930 144 145 131
119.644248248741263 -1.599015306696999 96.304833954068016 145 145 133
116.852881455658562 -1.785791357175893 92.099192593566301 144 144 132
114.843669815620203 -1.635855342027166 89.067929331297194 145 145 133
112.890300013280580 -1.479280442215303 86.120742072828335 145 145 133
110.489921122829927 -1.554071292189875 82.502912914419795 139 139 127
108.033633407145715 -1.679069227847678 78.801488268197886 144 140 128
107.197648187565363 -1.042765017937960 77.531987659036162 144 142 129
46.095813906174769 -1.036676333159912 -14.627645922116187 145 147 126
38.848351212083173 -1.011698289230065 -25.572396762701459 149 148 127
36.729882886059627 -1.128351876983178 -28.770365630030994 153 152 131
35.502931480939182 -1.323663295042145 -30.620281313167169 151 150 130
34.723311778970270 -1.203792431414115 -31.800572199961834 147 146 126
33.887804465284304 -1.132470588620967 -33.064485790337841 147 146 126
33.108241648518799 -1.027688095861058 -34.244648578637737 144 143 123
31.769515659475019 -1.347111315869910 -36.261531908671202 136 138 114
30.654474422094296 -1.511550952232045 -37.943585041374746 140 143 116
30.098665760184346 -1.264407975156429 -38.788820898691455 148 151 124
24.419322197664698 -1.092170082371475 -47.381221598586222 142 145 118
23.695994269730392 -1.028502910386442 -48.477004859374091 139 142 115
21.302448930563841 -1.059197750714607 -52.098557067672743 141 144 117
17.351056573811292 -1.229718385007643 -58.077450083244457 142 145 116
141.104350818224532 -1.917289526178239 126.505163596303902 135 135 123
138.974408250548805 -1.612710436531945 123.308348007292693 139 139 127
137.349436223227826 -1.114487377658523 120.865692932300590 140 141 126
133.648243076952610 -1.523680133754977 115.323856668698340 142 143 128
129.722525264451122 -2.066270141194803 109.447369821051780 142 143 129
128.097419136679065 -1.636829527940048 107.005486911521899 145 146 132
126.191710953948288 -1.347797953306818 104.144993939428559 143 144 130
122.546396586826916 -1.857877715829944 98.688322824974421 144 144 132
120.584493578272017 -1.639825307220348 95.744585004227901 147 147 135
116.826836994895714 -2.263917543840784 90.121113838783089 147 147 135
115.033208014482597 -2.014744003686463 87.429130609089128 147 147 135
112.622262686329535 -2.071906796342951 83.816174943809159 146 146 134
111.221404862434881 -1.674896608427943 81.710781776704778 142 141 129
109.708295041163865 -1.345149182293801 79.438064179933548 143 139 127
107.633979035134757 -1.300868597777722 76.328175302699066 143 141 128
101.467001048657977 -1.260940287579265 67.083548089390803 139 140 126
99.897679268805874 -1.043499970576685 64.728019249498459 139 140 127
50.072425985835082 -1.083813895649194 -9.988884089421703 149 151 130
49.008357073993878 -1.035630306878870 -11.586651960693445 149 152 131
47.551277387417215 -1.260930005841001 -13.769601918036358 145 148 127
46.711828342844129 -1.083454690931488 -15.032722488882541 144 147 126
45.142469066169355 -1.410010426496314 -17.382633765774301 145 148 127
44.471508522189353 -1.136781180838818 -18.394767646324368 145 148 127
38.368650609252626 -1.112914204301515 -27.559045470732542 144 143 122
36.855515511650097 -1.499026810235394 -29.824382268466138 147 149 127
36.016288422429398 -1.412492111032607 -31.086672924549902 150 152 130
35.457890888410461 -1.129595774449412 -31.931038301613967 148 150 128
34.337916729403929 -1.263291091499027 -33.611048008243671 148 150 128
