ply
format ascii 1.0
element vertex 686
property double x
property double y
property double z
property uchar red
property uchar green
property uchar blue
end_header
-96.962583405115851 -54.342659703234453 -13.818507972177059 82 84 83
-96.965882674352187 -53.787553536414819 -13.933502484640286 42 44 43
-96.920917300303572 -52.989597416612234 -12.965497564372328 16 17 19
-96.905019363937157 -52.334304113727484 -12.647271691032728 5 7 11
-96.894027874366785 -51.702183699211112 -12.437318945103215 7 11 14
-96.902453515864437 -51.169499003180533 -12.660489108106418 11 15 18
-96.896452178371177 -50.561560730500517 -12.558759056514532 13 17 20
-96.866347784387827 -49.824526042216519 -11.915594254185038 9 13 16
-96.841157937670559 -49.110106474920862 -11.380704445408384 11 15 18
-96.835399186700570 -48.497833280666661 -11.278902962780705 11 16 19
-96.844240911496584 -47.964460782192965 -11.501881152856271 10 15 18
-96.867688400598794 -47.512438373077408 -12.049611272776986 9 17 19
-96.867037767878813 -46.927761426798597 -12.055940906764590 10 18 21
-96.861641812542828 -46.315655746025229 -11.953964139648775 13 21 24
-96.836984912416881 -45.592493428875535 -11.418909364565792 12 19 25
-96.831780891492841 -44.977996985176240 -11.316865386008999 16 20 31
-96.865391367997134 -44.588025788207688 -12.080812613134867 22 26 35
-96.879747712994046 -44.088078307496836 -12.411667452230233 19 24 30
-96.884529639144148 -43.532264005245032 -12.525959955901726 11 16 20
-96.889417861958862 -42.976874444472649 -12.640197235535879 10 15 19
-96.894414472088926 -42.421905857207513 -12.754378329758083 11 19 26
-96.914039186382269 -41.955891354963157 -13.193222394767105 15 23 31
-96.914419359408285 -41.372787030305034 -13.199042707034749 19 27 34
-96.934269776425467 -40.909780221519611 -13.637747836934636 18 25 31
-96.930042772172882 -40.297158869944418 -13.535217155685956 16 24 30
-96.916259657873027 -39.622635253127015 -13.216177506000463 9 17 20
-96.917114188133311 -39.038957240788854 -13.221776792648711 9 17 19
-96.918093245159170 -38.455124727058703 -13.227318096479564 12 20 22
-96.928872822899137 -37.933984212795842 -13.449243314390856 14 22 24
-96.925270861656060 -37.318676844483100 -13.346441263228485 7 15 17
-96.936308625193121 -36.798572222213622 -13.568232302982722 9 17 20
-96.937808149851321 -36.214896054578155 -13.573523007533396 13 19 25
-96.949112558361392 -35.696082651173811 -13.795173194082139 14 20 27
-96.950886344531170 -35.112592943833931 -13.800330773536245 13 19 24
-96.928639981422350 -34.363572834351707 -13.264388973053258 10 18 21
-96.921041738488555 -33.711645768651024 -13.053016789374539 11 19 21
-96.928085942916582 -33.159272913493268 -13.166191602328581 9 19 20
-96.935277945391306 -32.607243786556090 -13.279292171036445 7 17 18
-96.923307901152000 -31.918891208981314 -12.959527503288882 7 17 18
-96.916327432223241 -31.263115694672283 -12.747899392658496 7 17 18
-96.899859453160175 -30.536590599452726 -12.319820565492847 8 18 19
-96.917332497865388 -30.052564965203594 -12.649020494566827 9 19 20
-96.920493009691157 -29.464161447880741 -12.653565249535035 11 17 17
-96.962388894853021 -29.159830414808152 -13.523526113250682 11 17 17
-96.932136700330645 -28.322441878805940 -12.770606125839947 8 14 14
-96.930986724542507 -27.697485086311627 -12.666730379611238 9 14 15
-96.905936033727258 -26.889895800953838 -12.021874156920006 9 15 16
-96.929226752432683 -26.445136128167039 -12.458745631347199 10 15 18
-96.928623157714725 -25.817730078988649 -12.354633709716779 9 14 17
-96.947448297061896 -25.338258452700451 -12.683139924656956 9 14 17
-96.961640316340620 -24.822688475205805 -12.903375301899587 8 13 16
-96.971208154692064 -24.270186565574239 -13.015344145457533 7 12 15
-96.985768019747255 -23.755956363804554 -13.235389755556980 6 11 14
-96.976509842066662 -23.051047996658276 -12.914498157202161 7 13 13
-96.977062856527809 -22.421311114205455 -12.809856910142798 6 12 12
-96.997007211675665 -21.946092472859590 -13.137783917969728 6 12 12
-97.017141472036869 -21.472204682444463 -13.465606376676362 7 13 13
-97.037468007732841 -20.999641460118923 -13.793323217077102 7 13 13
-97.034051828630382 -20.330002892103462 -13.580132661787246 4 13 10
-97.059569528570449 -19.898639679851549 -14.015800859527133 5 13 10
-97.075718254831315 -19.388669091303782 -14.235042517533202 6 12 10
-97.111188483748109 -19.041484210859821 -14.886800739509198 6 12 12
-97.132519122595582 -18.574891241020016 -15.213975765596047 7 11 12
-97.139742378154409 -17.986384243681758 -15.216577983060063 7 11 12
-97.113820574072733 -17.108076766375170 -14.462007550924625 5 11 9
-97.121534070560017 -16.516832531347095 -14.464403414571478 4 10 8
-97.105683122359792 -15.715674236233216 -13.925938754054613 8 14 12
-97.104383024156007 -15.037850091596976 -13.711820131168309 9 15 13
-97.112850639722026 -14.443398945011758 -13.713888237184506 8 14 12
-97.126317151935964 -13.891246991811784 -13.823988366252763 7 13 9
-97.182729374405028 -13.726355737038087 -14.907287110112890 9 15 13
-97.196651412034754 -13.176931399733908 -15.017141240662994 10 16 14
-97.206089057046199 -12.584025885659523 -15.018729377945590 8 14 12
-97.244177250435442 -12.253780040967106 -15.669060812687150 8 14 14
-97.282476805399028 -11.926411215402045 -16.319261518172794 7 13 14
-97.311546196496536 -11.513081057509865 -16.753044975749589 10 15 16
-97.303117135110924 -10.743919355950403 -16.321559237929989 10 16 16
-97.342121620090694 -10.421775176266584 -16.971368927407525 9 15 15
-97.371932980233382 -10.011963273560529 -17.404761214368335 9 15 15
-97.397285971967349 -9.558329347445207 -17.729878566674614 11 19 21
-97.399417852401811 -8.876734198376612 -17.514156913814674 12 22 24
-97.397175302389726 -8.147355068327496 -17.190160953086405 13 22 24
-97.395264748705756 -7.415718256019129 -16.866029405910410 11 19 21
-97.398369847864842 -6.728477815504388 -16.649900278369358 10 15 18
-97.434510112108086 -6.368171914848393 -17.190614134073826 13 18 21
-97.414910150617644 -5.443289134496533 -16.433498777103836 16 21 24
-97.432989946523747 -4.893963412801428 -16.541362835246161 11 17 17
-97.446724562755932 -4.296776991131744 -16.540939381757937 19 25 25
-97.446845690587367 -3.554697846850117 -16.215943373277781 26 32 32
-97.359189165387733 -1.891258458897220 -13.836105103481799 27 33 31
-97.337028892079914 -0.895778138196754 -12.970082401936764 8 14 8
-96.985323012534366 -150.194449152341718 -13.596990995772046 193 197 200
-97.053396486733021 -149.301360330224213 -15.236501164754230 184 187 190
-97.102234127353256 -148.499618446991605 -16.440837870972786 178 179 183
-97.136651715004106 -147.765445996911126 -17.318800900223266 154 155 159
-97.156628112125034 -147.096390808479754 -17.870425606075401 126 127 131
-97.157294891247233 -146.509965367082685 -17.987001877812446 131 132 135
-97.162875439571494 -145.904442238859332 -18.212282886211085 57 58 60
-97.163670194919959 -145.319475277961828 -18.328782921687775 78 79 81
-97.169379009278160 -144.715950195356612 -18.553982001168123 72 74 74
-97.160583295639640 -144.170184901025607 -18.452948791846637 73 75 72
-97.146979422389947 -143.642521470299954 -18.243170573105942 66 68 67
-97.152857075612815 -143.040481626475042 -18.468273592343337 70 72 71
-97.139347258785847 -142.511808174446401 -18.258460773989100 69 71 71
-97.130741542244650 -141.964294888651665 -18.157354663661749 68 69 71
-97.117314325955121 -141.433788522540340 -17.947521196598984 65 66 68
-97.118524918962322 -140.850493759362934 -18.063805083993884 60 62 61
-97.124651051548511 -140.250801052509928 -18.288765071295586 59 61 60
-97.121086425117070 -139.685626641985635 -18.296288000488659 60 62 61
-97.122434246844975 -139.104051003838663 -18.412488542316453 57 59 58
-97.114078094747228 -138.555359470502282 -18.311275169508576 56 58 57
-97.110631507087007 -137.990263715833066 -18.318740819713867 52 56 55
-97.097468155832260 -137.456418302764604 -18.108815491010660 47 51 50
-97.103846435687558 -136.860140757141323 -18.333619697952940 48 52 51
-97.115144778264025 -136.249901011805548 -18.667072768610126 45 49 48
-97.121603611198196 -135.656109397373086 -18.891812850297043 44 48 47
-97.103684627217717 -135.136054981575427 -18.573161757405472 45 49 48
-97.090670553025419 -134.600132256859155 -18.363186397879531 46 50 49
-97.082564877514358 -134.049155391816242 -18.261876721998561 44 48 47
-97.079371024930595 -133.483938550661946 -18.269222711013583 42 46 45
-97.071313963569978 -132.932174787789705 -18.167897878224267 42 46 45
-97.082841489207198 -132.327209321243089 -18.501187017689659 42 46 45
-97.074832757569183 -131.775469832672059 -18.399838814259084 41 45 44
-97.066843420201792 -131.223197633120520 -18.298486816137739 42 46 45
-97.063767530288260 -130.658039280596370 -18.305775770162853 40 44 43
-97.080298329802261 -130.044566466267923 -18.747617815880233 38 42 41
-97.077267373494408 -129.480512117575500 -18.754873909756327 43 47 46
-97.059555607748109 -128.951077573314620 -18.436220238746216 43 47 46
-97.051653980970045 -128.397488002297081 -18.334839840545897 40 45 41
-97.068277440106570 -127.788390669410674 -18.776592519188938 47 49 46
-97.089830947216541 -127.170749821103541 -19.326933507396888 45 50 45
-97.091791245994557 -126.597633359966494 -19.442753967744807 55 57 52
-97.069233568820181 -126.075959451010860 -19.015479795113208 53 50 44
-97.017227674382653 -125.611559602956262 -17.936550688476586 63 42 37
-96.994661623728959 -125.083915294945044 -17.509341978005551 80 50 42
-96.981916172988363 -124.535372198287547 -17.299368017769439 95 59 48
-96.993735795348215 -123.940283105871629 -17.632415756683514 99 61 48
-96.990830862570803 -123.373287614109273 -17.639641835997708 101 64 49
-96.983018180664317 -122.814842363497092 -17.538268868825071 103 65 46
-96.994875161665533 -122.222745728088725 -17.871267932629905 118 76 60
-97.006746141689575 -121.632279779073400 -18.204243513876008 129 87 71
-97.013711066880077 -121.051178095382653 -18.428610858930199 133 90 73
-97.001003154691148 -120.501011993188953 -18.218635646790972 135 92 74
-96.988293124359870 -119.949758951542819 -18.008672636377554 138 94 76
-96.990350382468776 -119.376662179929170 -18.124446509039728 143 97 80
-97.007186604969050 -118.784166582140543 -18.565926512419509 147 100 83
-97.019108991613933 -118.200219075737039 -18.898810403310023 146 101 84
-97.026112763757482 -117.624004471464630 -19.123108858951554 145 102 84
-97.033122037925892 -117.048875464464629 -19.347393507845140 147 104 86
-97.054926932916757 -116.458150581592747 -19.897337173398910 143 100 83
-97.066881155627286 -115.880718737708790 -20.230138765037225 143 98 79
-97.059109923504337 -115.324983963264060 -20.128718068137346 143 98 79
-97.051333662343694 -114.768704384998344 -20.027305385051307 140 95 76
-97.058359087037715 -114.198458792714860 -20.251532040147936 138 93 74
-97.065386739525948 -113.629298450876277 -20.475746458447446 135 90 71
-97.067477654146742 -113.065153722156509 -20.591412082075095 132 90 72
-97.074507021382743 -112.497892231341538 -20.815606134217603 130 89 71
-97.101302397702369 -111.918168120999084 -21.473908019052175 128 87 69
-97.103396097574972 -111.357279360908336 -21.589538794904115 129 88 70
-97.105487189315753 -110.796932662451354 -21.705165238764664 130 89 71
-97.077902657110499 -110.252559628473591 -21.169670664925746 129 88 70
-97.060191769943160 -109.700868089916483 -20.851245676029691 130 89 69
-97.052362563974327 -109.143488272773283 -20.749869646869882 131 90 70
-97.064322418420232 -108.578536713845864 -21.082540078462699 131 90 70
-97.071332684110871 -108.016699627269574 -21.306687432601251 132 91 71
-97.073388918124692 -107.457162071703152 -21.422322223364688 130 89 69
-97.060578938793370 -106.900992674566069 -21.212457634727144 130 89 69
-97.052710954529573 -106.343065997509228 -21.111105786074518 131 90 70
-97.049789025520852 -105.784197262036457 -21.118256343542527 131 88 69
-97.061733520894393 -105.224948280121879 -21.450875423372992 133 87 71
-97.068718920607068 -104.667184499919983 -21.674992744721379 135 89 73
-97.060818867376213 -104.109257662591943 -21.573656239402453 137 90 74
-97.052907656305592 -103.550787811025600 -21.472330661474132 132 89 69
-97.040021339732775 -102.990815059458455 -21.262541742149068 131 89 71
-97.032086155584906 -102.430988001338662 -21.161241603267598 132 93 77
-97.019172878985813 -101.869115008948512 -20.951485141660044 134 97 82
-97.021150000693140 -101.311481689824390 -21.067138178217419 135 101 88
-97.018151943521318 -100.752346161595469 -21.074327901369600 132 101 88
-97.015145515805727 -100.193212030774987 -21.081521614576957 131 101 90
-97.002185590948187 -99.628899086201557 -20.871812584989925 127 100 89
-96.989211579451350 -99.063501126351952 -20.662121463010152 131 107 98
-96.976223571075764 -98.497018318028680 -20.452448203979515 132 111 106
-96.953267646755975 -97.922640331237815 -20.025907060966631 138 121 115
-96.885485584925362 -97.312998713420498 -18.623443610472606 110 99 97
-96.792757371750042 -96.676552648324446 -16.678895800312489 106 99 97
-96.640190475744518 -95.979685049609770 -13.433289941061560 108 109 107
-96.577220037733582 -95.347374841750806 -12.139616850330583 100 104 103
-96.519190995636265 -94.713310828275340 -10.954456750454938 106 111 112
-96.530925383392059 -94.143767485348221 -11.287282310078865 89 94 98
-96.517724835192567 -93.549322254783092 -11.077998560630675 27 32 39
-96.569368374704993 -93.026316329519304 -12.278123765196767 71 78 84
-96.591096287218363 -92.474188351571797 -12.827706961572090 29 37 44
-96.597857785493972 -91.906414326692754 -13.052034437077737 4 13 20
-96.579652726642749 -91.307761873655963 -12.734329250505255 10 18 26
-96.586408821783522 -90.740809611390006 -12.958650852036726 11 22 28
-96.613152719207136 -90.202695548438243 -13.616549051077754 20 31 37
-96.619918846199752 -89.639010123737506 -13.840832226205492 21 32 38
-96.601689933225131 -89.039012985048601 -13.523152292888824 18 29 35
-96.563444758599431 -88.406381188301140 -12.771948455783786 18 29 35
-96.565196718323222 -87.834138908037957 -12.887859586438196 26 36 43
-96.541929366754118 -87.220966551387917 -12.461866759091492 30 35 41
-96.563699404950825 -86.682727072371904 -13.011286841387829 26 31 37
-96.525398118573165 -86.041143465155514 -12.260201993434805 37 42 48
-96.557197164968215 -85.523303897785311 -13.026332015887931 31 36 42
-96.553946743737612 -84.943596600884604 -13.033854224690089 24 29 35
-96.580768072320652 -84.421813582118588 -13.691547277288038 27 30 39
-96.547450642851629 -83.784189711230411 -13.048896294638382 30 33 42
-96.544206368371533 -83.204489694157346 -13.056415487921242 31 34 43
-96.545981879189995 -82.635260192448754 -13.172284339769533 34 37 46
-96.572853725642545 -82.120276686509868 -13.829883233990557 39 42 49
-96.604768097161980 -81.619566173296889 -14.595781767340185 40 43 50
-96.611605264441081 -81.066242266063625 -14.819924300733874 42 46 49
-96.638544460710648 -80.560226195622420 -15.477398668714869 39 43 46
-96.625318370404898 -79.962855846003535 -15.268157248242687 47 51 54
-96.607069216846568 -79.352300341605172 -14.950595680514255 0 2 5
-96.553632335266244 -78.653523794535985 -13.874763710325368 0 1 4
-96.525317414667114 -78.012521887608528 -13.340613201321929 8 12 15
-96.491968885044358 -77.355888533747873 -12.698172771036980 9 13 16
-96.468677263718007 -76.722363298568155 -12.272401056662090 11 15 18
-96.445386925777441 -76.086662118585608 -11.846651126412752 6 10 13
-96.457338704211864 -75.544882646802492 -12.179086899608109 6 10 13
-96.494492974706532 -75.074728959183645 -13.053023031413005 7 11 14
-96.491389381554143 -74.494743924576852 -13.060477857059567 8 11 16
-96.458071329368053 -73.827493658706544 -12.418132131682199 8 11 16
-96.414674231057091 -73.127347313973019 -11.559229033447224 7 10 15
-96.416647024574658 -72.558626867675386 -11.674998265965456 5 8 13
-96.418643326708803 -71.990441810720114 -11.790750741010555 2 5 10
-96.385354154228310 -71.313381521891699 -11.148492179175491 1 2 7
-96.352071207785869 -70.633051332230224 -10.506264297557010 0 2 5
-96.333937151357105 -69.997970131553302 -10.188900123068777 0 3 7
-96.341062716330441 -69.443471995463341 -10.412916774921541 7 12 17
-96.338120943237854 -68.856614283541873 -10.420364930326315 8 15 21
-96.330156108692648 -68.252754114631344 -10.319532231023004 64 72 78
-96.322218010667385 -67.648335309237353 -10.218692491386150 116 122 128
-96.299146529024483 -66.990761161740053 -9.793063010476885 176 182 188
-96.255876159909860 -66.259781335481364 -8.934416669943516 195 200 205
-96.258126479387172 -65.687112241037326 -9.050093780412851 197 202 207
-96.316049074788879 -65.316783333124675 -10.356502409846826 192 198 202
-96.348496853611422 -54.506003364225158 -12.115143566576336 79 81 78
-96.448349101831766 -54.397777868855918 -14.285666311093735 124 126 123
-96.441630923482222 -53.795176672337114 -14.184224256504280 136 138 135
-96.389258604846901 -52.973004453628704 -13.109153176688437 140 141 141
-96.352186429993395 -52.219127079923560 -12.358636222145293 136 137 139
-96.350749795374355 -51.635485638853815 -12.365331217771853 103 104 108
-96.359553408854566 -51.102064218623433 -12.588328143746509 57 58 62
-96.358271383035358 -50.518820721353080 -12.594945078817773 15 16 20
-96.326568424133484 -49.781356207530287 -11.952549448876056 8 9 13
-96.284772815040512 -48.988616842294753 -11.093833310163404 7 8 12
-96.263390851605308 -48.296376408464688 -10.667752407034811 5 6 10
-96.267515700775093 -47.734407855873080 -10.782422602871861 10 12 16
-96.281900145913099 -47.226453930882776 -11.113346413309074 10 14 17
-96.296377040848071 -46.720041034865019 -11.444210133494948 10 13 18
-96.300776192150067 -46.160515454142129 -11.558723957395500 11 16 20
-96.284925214814251 -45.491042455715352 -11.240621577746055 13 18 24
-96.284428511600822 -44.903441159556181 -11.246907674187753 15 19 30
-96.329810135583301 -44.569022174542908 -12.226369567724419 22 26 37
-96.349861113159207 -44.097320667679675 -12.665068249035642 23 27 36
-96.349667862932989 -43.512930903253633 -12.671176116698888 13 18 24
-96.334318418686934 -42.841536987699129 -12.352853578303410 12 17 23
-96.339423381297522 -42.285322029566991 -12.466995666591799 11 19 27
-96.334463703492688 -41.670510796193142 -12.364838035412561 16 24 33
-96.314355443025832 -40.965680209364407 -11.938277393919378 22 30 37
-96.319795054057735 -40.408799454866184 -12.052266240926542 23 31 38
-96.335523191740307 -39.912979859856684 -12.382422328701978 22 30 36
-96.346282179100641 -39.388055620802973 -12.604396344760318 13 22 27
-96.336817641270812 -38.740581835061967 -12.393871150314965 9 19 21
-96.337648407640387 -38.154156326079537 -12.399510086890245 12 22 24
-96.364029297367040 -37.724676549765746 -12.945604835363213 14 24 26
-96.380364336334580 -37.234382172084743 -13.275413709806628 9 19 21
-96.381574635893642 -36.649660143564340 -13.280853544224811 8 18 20
-96.377834194900842 -36.032525888613826 -13.178136546361969 11 18 24
-96.348817518446282 -35.252092305258913 -12.534898110323780 13 20 26
-96.360601575768868 -34.730504025032509 -12.756347397725818 12 19 25
-96.352199096101785 -34.077572942820879 -12.545370292989901 13 23 26
-96.369343398726670 -33.590039415347832 -12.874763599655438 14 24 26
-96.376469482730670 -33.036731185321479 -12.987908869984409 11 22 23
-96.388819729560851 -32.517654567695487 -13.209061440461852 7 19 19
-96.391162373996835 -31.931148053257594 -13.213977933582271 6 18 18
-96.368279250885223 -31.172257546977857 -12.678442357854692 6 16 17
-96.350639083147968 -30.445111620036364 -12.250930692265598 8 16 18
-96.348388283774582 -29.820493429423149 -12.147578090867484 11 16 19
-96.361518018085476 -29.300868395865844 -12.368363402326708 13 19 17
-96.374806928039121 -28.782105015955366 -12.589063695270141 13 19 17
-96.352775418997240 -28.013542598710657 -12.053220268129024 13 19 17
-96.361333933615882 -27.458477446002938 -12.165698353449670 14 20 18
-96.364997222688345 -26.867347824242167 -12.170030642668905 13 19 17
-96.378964522554895 -26.349222099784186 -12.390399832495490 12 17 19
-96.388041966999992 -25.795019538926745 -12.502620784474658 13 16 20
-96.407417610655045 -25.315461001286380 -12.830864534663107 11 15 19
-96.421908353620509 -24.799813633534658 -13.050957800134739 9 12 16
-96.421411364216169 -24.171772041754203 -12.946801420847009 8 12 16
-96.416056171068462 -23.504870259533980 -12.734510312118886 8 12 15
-96.400801861943307 -22.759984150534756 -12.306039868553654 6 12 12
-96.426154541898498 -22.321092349987296 -12.741864506830069 5 11 11
-96.441595534721856 -21.806411087983545 -12.961493231415091 5 11 11
-96.482448447248842 -21.488097211876415 -13.721238097171522 6 12 12
-96.493224308613392 -20.936959171449903 -13.832614987669814 6 12 12
-96.499165663769247 -20.346363788062231 -13.835851958699379 6 10 11
-96.520425576758768 -19.875264858296255 -14.163107201903358 6 10 11
-96.546915741409379 -19.445698688152387 -14.598291678001914 6 10 11
-96.578629313439635 -19.058490813396222 -15.141400163621427 6 10 11
-96.580376218353081 -18.429006000992981 -15.036185168778331 6 10 11
-96.587377188406563 -17.839645134171640 -15.038902516173749 6 10 11
-96.579548232431350 -17.125889285818221 -14.717418254622686 7 10 9
-96.582003804489631 -16.493296895153797 -14.611896223710744 6 10 8
-96.569665456395029 -15.734065672257779 -14.182178455847321 6 9 8
-96.587647243739269 -15.225216878442254 -14.400531636517599 6 10 9
-96.580833655591420 -14.504811004197325 -14.078630078535497 6 9 8
-96.579291251015093 -13.825026914480848 -13.864647548886609 7 12 9
-96.612992054862247 -13.444735613556754 -14.406734153847538 6 11 9
-96.651897874578424 -13.110071003883778 -15.056719923524582 4 10 8
-96.691009631022865 -12.778298843836891 -15.706577400339654 4 10 8
-96.720361712094487 -12.361721032664629 -16.140259049728542 4 10 10
-96.739983170145535 -11.858651737036890 -16.357768326274822 6 11 14
-96.769801889470187 -11.445027490666021 -16.791196334996698 8 13 16
-96.740219070233678 -10.496907655278601 -15.928237048714408 9 14 17
-96.780493649090232 -10.173333176091827 -16.577453852426089 9 14 17
-96.766432804416937 -9.354877539964807 -16.038310862738342 8 13 16
-96.812157653474628 -9.079435155646459 -16.795283712956319 13 18 21
-96.793759940989688 -8.211848081893457 -16.147862315612599 14 22 25
-96.760888996936075 -7.202051227766598 -15.176252044589347 25 30 34
-96.728415442524891 -6.186614768215660 -14.204509715015007 32 36 40
-96.691415449681415 -5.118862887536761 -13.124612442061505 25 28 31
-96.758286979935448 -5.030596683101236 -14.312977633713018 21 24 27
-96.756458825385550 -4.286833417989850 -13.988931490744221 16 21 24
-96.754983733658847 -3.540755304192130 -13.664740271631445 19 25 25
-96.763682231840264 -2.887924781525128 -13.556439967520646 32 38 38
-96.802124335050280 -2.522318442797375 -14.096107191425205 36 42 42
-96.762524197406435 -1.385192823728444 -12.907309032650886 4 9 7
-96.406796697798299 -150.433367358094216 -12.651848962480301 191 196 199
-96.519336327559259 -149.368891055821592 -15.158721931853421 178 180 184
-96.545540249853843 -148.670293876642177 -15.818530386480404 178 179 183
-96.576923005725305 -147.954507367012781 -16.586897128209841 166 166 171
-96.613488247135052 -147.222344899513416 -17.463812037503146 142 143 147
-96.624675288976931 -146.594417567160434 -17.797500421268921 146 147 151
-96.635932566728528 -145.968170882300655 -18.131137904667298 57 58 61
-96.626866640014683 -145.421291581253740 -18.030245431385538 76 77 79
-96.633151307198446 -144.816461543197875 -18.255182457410058 78 79 81
-96.624192035416314 -144.269396448071575 -18.154240873246408 77 79 78
-96.615280885994082 -143.721827538536644 -18.053281453525472 69 71 70
-96.611521558464418 -143.155418456449155 -18.060910236151187 67 69 68
-96.592489788683778 -142.643233410141249 -17.742710492798722 68 69 71
-96.583712075965252 -142.093870132102552 -17.641705707752550 63 64 66
-96.574976452675372 -141.543995869203883 -17.540686047091896 60 61 63
-96.581618148667260 -140.941868044385700 -17.765424456520066 57 59 58
-96.583195257257174 -140.357832122889704 -17.881540633231424 57 59 58
-96.584816744942600 -139.774367631933785 -17.997629697113979 58 60 59
-96.591598346101804 -139.175041493475476 -18.222272337224496 55 57 56
-96.588186773389452 -138.609146623361369 -18.229729462095463 54 56 55
-96.584811810380941 -138.043274970113032 -18.237168834026733 51 55 54
-96.586594177718098 -137.461809025226387 -18.353160361596679 48 52 51
-96.593537255511791 -136.865562752470964 -18.577694049233855 48 52 51
-96.590268495599474 -136.300567825751386 -18.585073589381324 41 45 44
-96.571650280927116 -135.779993230146573 -18.266762360528077 41 45 44
-96.558180948154401 -135.243275753738430 -18.057012975924948 41 45 44
-96.554993825872941 -134.676972184438881 -18.064366931425127 43 48 47
-96.551833949428612 -134.110683038756292 -18.071707704140692 45 49 48
-96.543567125488764 -133.558121117368216 -17.970491436896907 44 48 47
-96.545590921719949 -132.978143761114922 -18.086352142920873 42 47 46
-96.557913039690732 -132.372380282486148 -18.419269366476726 41 45 44
-96.544579429611773 -131.832751107183697 -18.209485024181532 38 42 41
-96.541538790299498 -131.266790521015480 -18.216765372233738 44 48 47
-96.548798729639287 -130.676127889055493 -18.441089999173698 44 48 47
-96.561225035413344 -130.074476199975493 -18.773915054926221 41 45 44
-96.558248201586835 -129.509897482887936 -18.781150654380070 45 49 48
-96.539854248688357 -128.979945753652032 -18.462828663009986 44 48 47
-96.542051376984006 -128.403295196121007 -18.578572203157961 38 41 38
-96.559708115353729 -127.794202261642141 -19.019830519282635 49 51 48
-96.582538421914052 -127.176561843891804 -19.569560686578086 38 40 37
-96.584794348788748 -126.603455920200005 -19.685239610990664 52 51 46
-96.561306526614231 -126.081805576911449 -19.258410173965615 62 53 48
-96.501747198910337 -125.627355405075690 -18.072133301976521 64 41 35
-96.478247709374259 -125.099461060417084 -17.645373719220089 83 51 40
-96.465057460688840 -124.550661307686880 -17.435615190686036 94 57 44
-96.477655230758685 -123.955300420900684 -17.768293464118898 100 60 48
-96.459317251795341 -123.414511025647428 -17.450056252550809 102 64 49
-96.451296948330338 -122.854988438606625 -17.348793700385130 105 63 47
-96.463924168776416 -122.261802190222397 -17.681435500213439 114 72 56
-96.466238901908099 -121.686262576107808 -17.797111343112334 125 83 67
-96.473724043735388 -121.103529036948927 -18.021246615818796 129 86 69
-96.470886957398591 -120.536811536379645 -18.028437376125368 137 92 73
-96.478385441439897 -119.955706240288762 -18.252549505638513 144 99 80
-96.485890859595003 -119.375686427333903 -18.476647144472167 152 106 88
-96.514080078037509 -118.770151802859573 -19.134547900600836 156 109 91
-96.526773472021262 -118.187010821126549 -19.467054642259626 155 108 90
-96.534302386545718 -117.611604904112767 -19.691093547361930 153 108 89
-96.531488657487529 -117.048953898405756 -19.698231275152040 153 108 89
-96.544197655589500 -116.469611091512775 -20.030691455332487 149 104 85
-96.546560114855069 -115.902479689146972 -20.146257916265029 147 101 85
-96.543744864402100 -115.340909610638349 -20.153385245358550 145 99 83
-96.535747281785291 -114.784085778788878 -20.052084043974048 143 97 81
-96.543283865027590 -114.213286842505553 -20.276071858421062 138 92 76
-96.540458200802220 -113.651982413254572 -20.283201434966344 134 88 72
-96.547993672881617 -113.082809608310768 -20.507173042403082 138 94 78
-96.565898070071654 -112.507398601393760 -20.947966174396242 134 93 75
-96.594179236937833 -111.927379592479227 -21.605560297665363 133 92 74
-96.586160804552108 -111.372445971873660 -21.504249613844934 135 94 76
-96.578133098731755 -110.816967259396108 -21.402948977308313 133 92 74
-96.544146213638342 -110.273817284624201 -20.759645792662354 132 93 75
-96.536091942805612 -109.715890227794404 -20.658383066774917 133 92 72
-96.528027347567559 -109.157418401918434 -20.557130887629114 134 93 73
-96.540728464133949 -108.591363271111717 -20.889458061584037 134 93 73
-96.537843420761391 -108.031401117183449 -20.896602228195576 134 93 73
-96.540146925916702 -107.470221732378107 -21.012135625465618 134 93 73
-96.542444684558788 -106.909584945049176 -21.127666186619479 134 93 73
-96.549936217343330 -106.348818036876835 -21.351572288346091 133 92 71
-96.547022233846505 -105.789939843068012 -21.358719142067827 132 90 70
-96.533694078763958 -105.231320368750048 -21.149127666808766 131 89 70
-96.520351009194101 -104.671614024338950 -20.939554514289171 132 89 72
-96.512198288906760 -104.111234895451176 -20.838364126692909 135 92 75
-96.509240105902734 -103.550998262366647 -20.845546108405301 138 95 79
-96.511480697973823 -102.991719407241590 -20.961090039972447 138 97 82
-96.498085475588866 -102.429297679926663 -20.751569787981140 133 96 84
-96.500308402111813 -101.870292091236038 -20.867119357817302 128 96 86
-96.502524666151544 -101.311830973829970 -20.982666510446109 130 101 92
-96.515162462715068 -100.758002654484471 -21.314898119760784 128 102 95
-96.501721838115870 -100.194227174082172 -21.105413522893713 128 111 101
-96.472614913993525 -99.621604238807166 -20.570938046555142 156 142 135
-96.469576346718497 -99.060561958097438 -20.578166776762970 187 177 171
-96.492628321356619 -98.515175885923028 -21.127047148533336 193 186 181
-96.442585899163461 -97.924873639698703 -20.159333585057993 153 148 145
-96.199259777014092 -97.193737676772386 -15.183757211257841 167 166 162
-96.075949312554727 -96.528364722937667 -12.699843179679903 123 124 121
-96.010046329222845 -95.896890441650370 -11.407564403966404 100 103 102
-95.985917984887010 -95.294812864282179 -10.981869268471399 103 107 108
-95.914709110512547 -94.647716466873064 -9.581430734214194 114 118 121
-95.890526607783286 -94.038853338284582 -9.155831354996423 24 29 33
-95.908179453423543 -93.470254707818412 -9.596674705175730 26 33 41
-95.978171073053801 -92.959592952513432 -11.120471841124242 87 96 103
-96.022023204515975 -92.427303517662040 -12.102702218581726 55 64 71
-96.013531284252949 -91.838714633198606 -12.001964480276655 24 33 40
-95.994553994024486 -91.236804224268184 -11.684662262324764 24 31 39
-95.996519628285498 -90.659918411463238 -11.800518970026161 18 27 36
-96.003723831668751 -90.090514244253029 -12.024651436799701 24 33 42
-96.010929103199572 -89.522200737234783 -12.248772165861823 28 37 45
-96.007647760088474 -88.940022536717819 -12.256334601837779 20 29 37
-95.993871125682702 -88.342349650934310 -12.047359673932704 19 29 35
-95.995826322532423 -87.767657111911333 -12.163198798387015 24 33 40
-95.940045983038772 -87.102292536238664 -11.088144004224915 28 33 39
-95.952485551269334 -86.542834864078472 -11.420528391050993 30 35 41
-95.907163084558562 -85.887815195676822 -10.562081870909708 38 43 49
-95.940614488664252 -85.365067237240737 -11.327471935632929 44 49 55
-95.911028748733045 -84.733574601010943 -10.793831498541579 60 65 71
-95.939248044201292 -84.205529167893360 -11.450920230750398 54 57 66
-95.935939109178506 -83.621211284283248 -11.458517891435292 38 41 50
-95.969447990324767 -83.108256076995318 -12.223779657632292 78 81 89
-96.002980697248091 -82.599106746845052 -12.988990849853877 129 132 139
-96.057588099397279 -82.136713111456515 -14.187074239945133 147 150 156
-96.070120525925873 -81.592224575045805 -14.519260118845636 192 195 201
-96.056338756025852 -80.992963790918978 -14.310303992778699 211 215 218
-96.153165972298453 -80.635219604512827 -16.373983438524760 201 205 208
-96.128878408266218 -80.015844834471238 -15.948542521880285 193 197 200
-96.078234855957490 -79.333819080350693 -14.982060693136390 203 207 210
-96.027571929012751 -78.646904199099836 -14.015638459393642 211 215 218
-95.982163848634798 -77.967738755090224 -13.157481441135417 197 201 204
-95.952565629851733 -77.322958502762503 -12.623983749991652 146 150 153
-95.928239441942623 -76.688643070806492 -12.198715102616120 126 130 133
-95.930301727230585 -76.119422609551350 -12.314446669483260 124 128 131
-95.948217524735583 -75.591919980171241 -12.754741202607732 132 136 139
-95.971439815986813 -75.080584879265118 -13.303189591741187 133 137 140
-95.941870014758578 -74.429273846610485 -12.769745530339321 162 165 170
-95.907017785255192 -73.760701542220417 -12.128147358538456 171 174 179
-95.851024588310324 -73.029615667926279 -11.053870896993601 192 195 200
-95.847886232192280 -72.443929304504110 -11.061401039765343 204 207 212
-95.834191289720692 -71.827525268651627 -10.852579839856332 204 207 212
-95.825800666835178 -71.225654194170644 -10.751930361487325 201 205 207
-95.759229289131213 -70.448344251142757 -9.461472503078170 200 204 205
-95.724400744924793 -69.761527755721545 -8.820050796935789 198 203 206
-95.710754546726065 -69.137209323867410 -8.611287744787603 195 200 203
-95.760669661862650 -68.712358717883262 -9.700370574719699 192 197 200
-95.768267584259817 -68.157044846088496 -9.924169649177429 190 195 198
-95.704999149522280 -51.096151273319592 -10.240912284611881 113 114 114
-95.815416599804095 -51.034522713219729 -12.516759911934997 105 106 108
-95.824678286195166 -50.501379420269927 -12.739534834495345 117 119 120
-95.759399245902941 -49.609634513033221 -11.449636662872024 132 133 134
-95.688855583712197 -48.685316347723138 -10.051733476307589 145 146 147
-95.666361070787289 -47.989918207894391 -9.626217316895492 137 137 139
-95.675937635475407 -47.451278509458149 -9.848898180020768 96 95 98
-95.696267423658497 -46.967192154383731 -10.287590962757434 42 42 46
-95.711357016719901 -46.458144575811843 -10.618188690370829 11 12 16
-95.726539824544716 -45.950636655300627 -10.948725975887072 5 6 11
-95.720484379664796 -45.334289774585592 -10.847108363110152 9 10 16
-95.709189681606162 -44.689428937280738 -10.637431814654065 13 16 25
-95.745995585031849 -44.296624158770022 -11.399879527972018 27 30 39
-95.761567511364845 -43.793880196786297 -11.730181622709438 30 33 42
-95.771907382475135 -43.263975135745383 -11.952407412648029 16 19 26
-95.745010925719129 -42.532342215916032 -11.418511225949032 16 19 26
-95.766228403941810 -42.060933293035681 -11.856648845635362 21 25 35
-95.776885116192872 -41.532576452258766 -12.078707123249359 20 24 33
-95.739642865003518 -40.737196193283843 -11.328698742689625 20 24 33
-95.729185151552869 -40.088107244899035 -11.118665305737437 25 30 37
-95.750847194908147 -39.619723376381756 -11.556559108583940 31 36 42
-95.767291016019087 -39.122787507390171 -11.886384306229274 22 27 33
-95.751851149999794 -38.442131569872068 -11.568200363945095 12 17 23
-95.736534815733549 -37.759685382976741 -11.249975752429918 19 24 30
-95.780006809733933 -37.421015995532301 -12.119536073011318 21 26 32
-95.812933753680369 -37.023183906608296 -12.773032330959268 18 23 29
-95.813991748058569 -36.436694133576509 -12.778563223936203 14 19 25
-95.783192149705570 -35.656617933974601 -12.136174052892414 14 19 28
-95.757864146431857 -34.905593764945770 -11.601727127292975 15 21 30
-95.769990069809054 -34.381139359209030 -11.823042369615990 14 21 28
-95.792910925685121 -33.923711274413975 -12.260221187481875 11 18 24
-95.805309779944167 -33.401621963419281 -12.481381515498185 12 21 26
-95.817849068494013 -32.880434267355888 -12.702465379455788 12 21 25
-95.825204264004626 -32.326263459598636 -12.815509922571238 12 23 25
-95.832706366837783 -31.772435970909477 -12.928480651771480 11 22 24
-95.803085355130918 -30.977947324095833 -12.285676003475373 10 20 22
-95.784279359368952 -30.249354845062943 -11.858736956104565 11 19 22
-95.781607282821639 -29.623275591238308 -11.755600931720039 12 20 23
-95.789740079182948 -29.066922147949128 -11.868295940217905 16 20 23
-95.792713781466460 -28.475356138003864 -11.872962617356109 14 18 21
-95.785217242603323 -27.811945378193403 -11.661659986230944 16 20 23
-95.804478513044415 -27.327570762125145 -11.990008026487573 16 20 23
-95.813272022616829 -26.771888984020578 -12.102380038262794 14 18 21
-95.822236640239026 -26.216497401823226 -12.214667205401327 12 17 20
-95.820752094086956 -25.587584958985151 -12.110992233983978 11 16 20
-95.856618778554804 -25.218093556971823 -12.762790405215583 12 17 21
-95.876722373863814 -24.739268710023040 -13.090678353581154 11 16 20
-95.865165774532429 -24.035436423826095 -12.770875235623947 11 16 20
-95.848506969880134 -23.291650723265274 -12.343065370847825 11 16 20
-95.832057758998758 -22.545356303345255 -11.915181060638787 11 17 17
-95.858214225598132 -22.105002756880356 -12.350636216624764 8 14 14
-95.884550380548674 -21.666543319756268 -12.785985913300550 6 12 12
-95.916362373685544 -21.269082351030995 -13.329152854846939 7 13 13
-95.943061478261029 -20.834670465952851 -13.764287254179692 7 13 13
-95.932924526194938 -20.124491016677474 -13.443870316375040 7 11 12
-95.960016709086830 -19.691888332268885 -13.878798045377238 8 12 13
-95.971450009613747 -19.140496812496696 -13.989863028424082 10 14 15
-95.993654316990060 -18.670288881128418 -14.316657305096385 9 13 14
-95.979120232261039 -17.915971348623810 -13.887939391028823 8 12 13
-96.001751980703162 -17.446405354422133 -14.214522573578733 8 12 13
-96.008778861959044 -16.854137485995050 -14.217257448371612 9 11 10
-96.010768430978629 -16.219870149327225 -14.111975592776702 9 11 10
-95.991943620273418 -15.417108601310712 -13.574950120976183 8 10 9
-96.025992864036382 -15.032773359514435 -14.116911659790645 8 8 8
-96.039220560998331 -14.481038947186804 -14.227121739298923 7 7 7
-96.047432300768904 -13.886712451014901 -14.229310972329273 6 8 7
-96.097879974111478 -13.635934433952668 -15.094629441795774 8 10 9
-96.138024874209719 -13.302619167968768 -15.744008550192859 7 9 8
-96.173133327027855 -12.928642788488389 -16.285356738052286 7 9 8
-96.192748089196812 -12.425487250458216 -16.502870105621980 8 10 9
-96.181216808042123 -11.658277884742908 -16.072848362732742 11 13 13
-96.217028063133611 -11.287913372212760 -16.613823153632694 8 9 11
-96.185172467311205 -10.339057498141750 -15.751958732294582 8 10 11
-96.190187281343043 -9.699910713421392 -15.645279836465505 8 10 9
-96.174639218154837 -8.878732805768607 -15.106876348725905 14 16 15
-96.201081274395420 -8.418370758447416 -15.431541952236756 20 22 21
-96.118534371598216 -6.997345233583796 -13.490199508608612 39 40 44
-96.067650130725156 -5.842126068011844 -12.196126987183533 41 42 44
-96.048341141834612 -4.957760283211583 -11.549314253050426 16 17 19
-96.107185044281906 -4.769117903685826 -12.520835286882203 10 11 13
-96.119614143885684 -4.162608063084534 -12.521132358708797 15 17 17
-96.085789083785158 -3.130594936631060 -11.550207216783519 31 36 33
-96.021381653093783 -1.807908946473875 -9.931751308406035 48 52 49
-96.071035133537336 -1.527191545599717 -10.686899013230544 33 38 35
-96.182788544875109 -1.826522376796828 -12.736674215177800 80 85 83
-96.186503870155420 -1.120744675296656 -12.520443970891620 129 134 130
-96.216288403585281 -0.656306466281815 -12.843552502752146 183 185 181
-95.968026352369264 -149.499716423488337 -14.755966773498585 186 190 193
-96.006465818985561 -148.757974610469063 -15.632083664893116 166 168 172
-96.018318897940503 -148.123202943631867 -15.965523870960141 170 171 175
-96.056935650142890 -147.388912277045506 -16.841479251144563 171 172 176
-96.074282047593911 -146.738897271372338 -17.283307264737260 169 170 174
-96.086358968535833 -146.110801592704036 -17.616571666265003 65 66 70
-96.082471148196205 -145.542656097834879 -17.624279793179653 67 68 70
-96.083982832395122 -144.955400408012224 -17.740460411388227 69 70 72
-96.069507889873876 -144.425371119771711 -17.531123262161231 70 72 71
-96.081822654129752 -143.801248624125407 -17.864232982293998 65 67 66
-96.067441831121855 -143.270478552335248 -17.654858431871645 60 61 63
-96.063806893671000 -142.702525557105190 -17.662443598983600 59 60 62
-96.038799806751015 -142.205778077847867 -17.236084635315592 54 55 57
-96.035248113967072 -141.636801681260067 -17.243640512848543 53 54 56
-96.042454935777954 -141.033355804898321 -17.468122135388626 52 54 53
-96.055069189339164 -140.414047387081098 -17.801039027142849 49 51 50
-96.067733033459845 -139.796396039025524 -18.133915137891904 48 50 49
-96.075082065789772 -139.196834176881111 -18.358288747297621 46 48 47
-96.066381131910589 -138.646869413094436 -18.257253422912925 46 48 47
-96.057712323404232 -138.096382787853372 -18.156208101642051 50 54 53
-96.049074291715684 -137.545372951262152 -18.055153442524272 45 49 48
-96.061942028087529 -136.932450676953948 -18.387883333187460 45 49 48
-96.064108966033103 -136.351327071770328 -18.503687359622035 40 44 43
-96.050192355631836 -135.815173890848371 -18.294146142526330 43 47 46
-96.041671860286669 -135.263417286317150 -18.193042941282357 41 45 44
-96.038550756791111 -134.696871331869318 -18.200367808613748 40 46 44
-96.040832263237576 -134.116350104730429 -18.316110825290338 40 46 44
-96.037763332889654 -133.550100906190238 -18.323407678509142 41 47 45
-96.034717884091847 -132.983862688818249 -18.330693185200147 41 47 45
-96.031694707196124 -132.417634487402438 -18.337967933990285 41 47 45
-96.034075072323731 -131.838513879341605 -18.453649239736876 44 46 45
-96.036478215320898 -131.259944871829788 -18.569313970727279 46 48 47
-96.044288274532448 -130.669568499262340 -18.793372475594481 50 52 51
-96.057508340544359 -130.068199015279731 -19.125814894291125 48 50 49
-96.049200825937632 -129.515724409349758 -19.024617194541008 46 48 47
-96.040905921132747 -128.962711510639195 -18.923419003222847 52 54 53
-96.038013509281910 -128.397888264054757 -18.930616732557866 46 48 45
-96.051311337182128 -127.800069662863805 -19.262985399213306 55 55 53
-96.064629747253349 -127.203884263591846 -19.595327408060911 38 38 34
-96.061782523576056 -126.640700527691394 -19.602486643221482 39 35 29
-96.021170629285919 -126.148811531726295 -18.850966300339906 55 43 37
-95.964355631047113 -125.682859619307706 -17.774353828655791 69 42 35
-95.929118496029062 -125.172909985180851 -17.131307011503537 86 52 43
-95.920875205482773 -124.612852624718755 -17.030156640284673 96 57 45
-95.934243362224151 -124.015860207535979 -17.362483157536531 99 59 47
-95.915206210557130 -123.473455502400085 -17.044597054989424 101 62 47
-95.923188746735676 -122.886647073002351 -17.268536320835381 103 61 45
-95.931180832673789 -122.300924503681969 -17.492459840805907 104 65 49
-95.933774403616781 -121.724298793687709 -17.608013468382126 109 67 51
-95.947190410420731 -121.132735830105048 -17.940261206234680 117 75 58
-95.938976543869373 -120.572673044141681 -17.839096814524879 134 89 70
-95.952406156763104 -119.983280054203647 -18.171315706641820 151 106 87
-95.955018933967679 -119.409364290194347 -18.286832251172967 160 113 95
-96.000945711843258 -118.782766517912265 -19.269040887991167 162 115 97
-96.019819130127118 -118.192962808133530 -19.709518594935446 160 113 95
-96.033284988679327 -117.611439707141827 -20.041639138533213 160 115 96
-96.014248706867946 -117.066571393284605 -19.723777979012311 158 113 94
-96.027717471081957 -116.486673408207736 -20.055880404416968 152 107 88
-96.035770176562821 -115.913697458642929 -20.279643716845470 147 104 85
-96.038402236075683 -115.346828477200702 -20.395078500713453 145 102 83
-96.030185693934655 -114.790002526724138 -20.293882070622885 143 100 81
-96.021961391534205 -114.232630637892555 -20.192694972631585 143 100 81
-96.024581012653343 -113.666297360258369 -20.308130192716050 141 98 79
-96.043479687043856 -113.088696835776361 -20.748470203708848 144 101 83
-96.073240428147088 -112.505938720194166 -21.405384698735446 140 97 80
-96.086720156035909 -111.936616593229246 -21.737373016535201 138 97 79
-96.073043114799859 -111.384527267293564 -21.527881229118350 139 98 80
-96.053920047949788 -110.834198332446917 -21.210117796177485 143 103 85
-96.034780744745731 -110.282237238425452 -20.892378931287027 138 100 81
-96.031931871709830 -109.721726463967656 -20.899511441360204 139 98 78
-96.023637292222233 -109.163248169824456 -20.798369352472207 139 98 78
-96.026207908070063 -108.600699958452950 -20.913789054922034 140 99 79
-96.012452567971479 -108.043166128641374 -20.704390768426094 137 96 76
-96.004123436496641 -107.483325210152188 -20.603279235267252 137 96 76
-96.006667121618989 -106.921045098376183 -20.718709061599981 138 97 77
-96.020091856804768 -106.357956188724714 -21.050659526083308 134 96 77
-96.011733139534755 -105.798112802784019 -20.949562172066152 134 95 77
-95.997914507337470 -105.237857879216477 -20.740222173878294 134 96 79
-95.973183234236373 -104.676237107159892 -20.314399035217093 134 98 83
-95.986578252494638 -104.115320552842135 -20.646341355031922 136 99 85
-95.978166626529173 -103.553303151349368 -20.545291690587476 134 101 90
-96.002457167755452 -102.996469908504253 -21.093697367825854 134 104 93
-95.988573119062821 -102.433770792337668 -20.884413823967407 130 106 96
-95.980128123984812 -101.871483680717233 -20.783382899453926 121 104 94
-95.966212605582143 -101.306884657852066 -20.574133967290919 149 137 127
-96.012323148501636 -100.763654682629678 -21.555396544926538 177 168 159
-96.047529679766740 -100.220690794421941 -22.320155055553442 182 179 172
-95.548048546633396 -96.530215997040528 -12.841511155589473 202 205 204
-95.451849335969143 -95.877417896216272 -11.009651063369262 184 188 189
-95.454081052479708 -95.296143822406918 -11.125425648809511 126 129 133
-95.319474372200290 -94.596460328754006 -8.536409978861741 158 158 164
-95.272382393788860 -93.964218581019310 -7.678575522472585 70 71 79
-95.301925275165857 -93.401856433794421 -8.335384294897068 15 20 25
-95.408167080338231 -92.920784710252804 -10.506688190798599 95 102 107
-95.415833224102954 -92.345374653627317 -10.730661488513846 52 59 65
-95.423497510789687 -91.771055535030271 -10.954624445075751 28 35 41
-95.414713152857900 -91.178662443926001 -10.854065766559074 56 61 67
-95.433338271361748 -90.619030468047569 -11.294351686452956 60 67 75
-95.430027098412125 -90.033849639157594 -11.301959300483702 35 42 50
-95.421222693154931 -89.441470007438113 -11.201410073994509 20 27 35
-95.434363695687736 -88.878451701347657 -11.533495548448542 18 25 31
-95.431038442251051 -88.293827953846687 -11.541104164217415 19 26 32
-95.400250262311388 -87.669117089751822 -11.007969162117064 9 16 21
-95.341976472181187 -87.000244178804024 -9.934143339250028 9 12 17
-95.322131348486224 -86.385874327311868 -9.617384541155218 6 9 14
-95.318762845997981 -85.796379042356122 -9.625063992304405 3 6 11
-95.348379127252699 -85.261518088623291 -10.281554566878953 0 1 6
-95.312019460775787 -84.617401764386699 -9.640425810069786 35 37 42
-95.303144940512937 -84.018271259821475 -9.539979616484516 169 172 179
-95.299769507802708 -83.428521470198135 -9.547665002772533 205 208 215
-95.334922983370845 -82.910116628053203 -10.312196096464533 202 205 211
-95.382044960373989 -77.796558460911314 -11.894313916118932 189 193 194
-95.400828745930625 -77.264171899043617 -12.334243479505346 188 192 193
-95.369944952192299 -76.615341932783124 -11.801402488753467 193 197 198
-95.316966277131101 -75.909990079019394 -10.836277881991919 190 194 195
-95.457315341942518 -75.680048702732421 -13.653833280493586 188 192 194
-95.315949776947988 -74.750509995864064 -10.959558168084413 188 192 193
-95.298408713657736 -73.548493493526593 -10.758604942495595 186 190 193
-95.505331068450602 -73.524233411410918 -14.872501345423615 189 193 196
-95.292337997259509 -51.067430706225423 -12.877519068845828 105 107 104
-95.112649585040430 -47.327096680932257 -9.565357093901184 150 149 149
-95.100369185721831 -46.681096742467730 -9.356163826889741 151 149 150
-95.093753861918742 -46.060961781759879 -9.254853050880854 151 151 151
-95.137446098290170 -45.686044382556034 -10.124681127261340 161 161 163
-95.158915468844000 -45.205030740627258 -10.562797108718030 144 143 148
-95.146997669354036 -44.558922733304719 -10.353431487598414 77 78 83
-95.151916950751470 -43.996025738771507 -10.467731186700121 87 89 94
-95.168096913076809 -43.490382061445466 -10.797772247329704 106 108 113
