ply
format ascii 1.0
element vertex 681
property double x
property double y
property double z
property uchar red
property uchar green
property uchar blue
end_header
73.934241989282199 -2.458481398238494 -67.285723287909548 141 138 121
72.352906260192682 -2.704136890242288 -68.854725623422382 141 138 121
71.833924236403845 -2.352275034771829 -69.386080487445241 141 138 121
70.859784456699373 -2.266390720013244 -70.362104910268840 139 136 119
69.582175741852780 -2.363404959824151 -71.634503707704312 139 136 119
68.684107640356387 -2.247834373367765 -72.536367251418028 138 135 116
67.786147743776027 -2.138461893782436 -73.438218759764965 140 137 118
66.660570493533143 -2.169891080221780 -74.562306218807123 143 140 121
65.762809236154595 -2.073740199134750 -75.464116658912047 143 140 121
65.092915646255619 -1.847500010542312 -76.143700629906192 143 140 121
63.891682369137769 -1.945706995586973 -77.341766012511641 143 140 123
62.614575246630508 -2.098312956320803 -78.613832536492566 143 140 123
62.856280371127127 -1.334623809510447 -78.404747820827112 143 140 123
60.592104693179778 -2.104644450230350 -80.639414275775920 145 142 125
60.606338819652365 -1.486225428548630 -80.652589530747122 146 143 126
59.101680027315453 -1.809315962064675 -82.146617887273095 146 143 126
58.584556705529380 -1.527077055328444 -82.678145283976050 145 142 125
56.776094510200679 -2.058484117315698 -84.468126366866699 143 140 123
54.815613505810148 -2.698683873424120 -86.405980084566750 142 139 122
53.842843966560608 -2.725983172724245 -87.381494969929122 142 139 122
53.706075085346825 -2.226431042660144 -87.542925116830133 139 136 119
53.569550559337642 -1.727408358259219 -87.704466712573179 141 138 119
52.597195438821359 -1.768683740875899 -88.680035991590501 142 139 120
51.168836452382905 -2.112795338526889 -90.099490648430788 143 140 121
50.576714068328826 -1.921021544177019 -90.705066432892863 145 142 123
50.592992670363913 -1.333787785327910 -90.718898752388839 145 142 123
49.392947810715810 -1.549133567715456 -91.916326901351738 142 139 122
45.379221163561382 -3.640843293242335 -95.850163713052098 143 140 123
46.232405406431511 -2.512749606042235 -95.050488431273067 142 139 122
212.280428491187592 -1.413077643207390 68.282344989864583 168 168 164
209.628285276862101 -1.140905315040842 65.668258634093718 185 184 180
204.925885041905104 -1.566773762414220 61.049003600815468 189 185 182
200.147481210477622 -2.051680811790791 56.355857256638615 182 179 172
195.748698993479934 -2.442270599991665 52.034424803004754 171 168 160
190.286700474746738 -3.227830287303085 46.673672618421364 175 171 161
187.786313705995212 -3.029143372295809 44.209460691379974 174 174 164
186.652909948055708 -2.371126220321994 43.082020589283530 174 174 164
184.380408814594546 -2.122897819468796 40.840855654805893 173 173 163
179.753609689330631 -2.729539664703937 36.298152986106885 171 171 161
177.329212151337941 -2.576808433477660 33.908920001399537 172 172 162
174.145341476107433 -2.717342189734847 30.777446236925840 171 171 161
171.645011132262624 -2.629783092536437 28.314351210857069 171 169 157
169.372551373894169 -2.475633437864612 26.074134882472464 167 165 153
166.644391427913803 -2.508158402451893 23.388692187942411 162 160 148
164.144101887607690 -2.474087541264565 20.926128222883960 161 159 147
160.960208087565860 -2.718451589703767 17.795734298598092 163 161 149
159.675277470411714 -2.254814877864113 16.521067212236971 163 161 149
157.326961914887704 -2.213303543787912 14.207440595097779 162 160 149
155.662333532465624 -1.920564371155377 12.561884327766052 157 157 147
153.541969491290217 -1.819923196869904 10.471174489126810 155 155 145
151.117768950065795 -1.855641424831131 8.083787066793064 149 149 141
148.769552336988909 -1.878035703942083 5.770770928506238 152 152 144
147.257034819062852 -1.577669211152193 4.274084602995003 149 149 139
145.440688693096888 -1.412564836985658 2.480705623387678 149 149 139
142.788662561340089 -1.605833236629604 -0.128645729054057 150 150 140
141.352273935438575 -1.311130064208644 -1.550834675239742 149 147 135
139.688015566365209 -1.122452112461282 -3.195496801266756 148 146 134
136.656139216248590 -1.525608888993199 -6.175263049362854 144 145 131
135.219903975680040 -1.267950013535465 -7.597144059008059 145 144 130
132.339993150324290 -1.643069333834411 -10.428180927036408 145 144 129
129.688027352320773 -1.939584568174954 -13.036498371402558 145 143 128
126.808077356324503 -2.354929888692618 -15.867102433902716 144 142 127
125.827951002578899 -1.951104507619170 -16.843535627340771 143 141 126
124.163954490171534 -1.858901221346631 -18.487329962502770 143 137 125
123.867997607307046 -1.164076924042696 -18.796332919419484 146 140 128
122.052151466767711 -1.159340461406759 -20.588300342865807 147 141 129
119.628309973483255 -1.444916020930348 -22.973287625471983 148 142 130
117.204464955901003 -1.747733940266389 -25.358095737794798 149 143 131
116.680873851450684 -1.187129458093014 -25.889394326147681 145 142 127
115.245261225070948 -1.056096691958679 -27.310269766131910 143 140 125
111.833292891358710 -1.865306104546758 -30.658316032958254 144 141 126
109.637543948319973 -2.122115700182762 -32.820141457521771 146 143 128
108.126001516975322 -2.067638192179039 -34.314763202266846 141 138 123
106.386441134237131 -2.133617317958655 -36.031638674763030 139 136 121
105.027064429188528 -2.027567258155438 -37.377869073730210 139 136 121
103.743790902734645 -1.893947056709237 -38.649931880874789 141 138 123
102.004380830701109 -1.993848791700231 -40.366530079038967 144 141 126
100.417084654412619 -2.030677995350880 -41.934830510933892 147 144 129
98.221495589904890 -2.382440813383783 -44.095755019620128 146 143 128
96.710312241138141 -2.405646927466304 -45.589748911692567 145 142 124
95.655481149294147 -2.208427342430249 -46.639175802162782 145 142 123
94.524693003338598 -2.057359255905750 -47.762648922666841 145 142 123
93.317936527479347 -1.953263524688460 -48.960154429412995 144 141 122
91.730954234682713 -2.054317132084611 -50.527943928043157 145 142 123
90.296143865384821 -2.087346261823432 -51.947514393553604 146 143 124
88.937458751120630 -2.090588074027863 -53.292950651039348 142 140 123
88.111351953674344 -1.822228090300353 -54.119954089048377 141 139 122
87.361444172516400 -1.519119094622782 -54.872909679377273 142 140 122
86.307338149879897 -1.384007889685445 -55.922044127714145 144 142 125
83.883769765670209 -1.994079904606422 -58.303821859737127 145 142 125
81.916682256919898 -2.373815182317958 -60.241196140118802 145 142 125
80.406153094190756 -2.518248958541708 -61.734255135323309 145 142 125
79.428363168964040 -2.380591107727326 -62.709066272056248 145 142 125
78.070149467553463 -2.460191903250072 -64.053942050460535 144 141 124
77.168648452420697 -2.295095170856322 -64.954673097557588 144 141 124
76.038913661990051 -2.264165414422384 -66.077413495550189 142 139 122
74.680899828497161 -2.369891670706199 -67.422115967589320 143 140 123
73.094559899482604 -2.614766311863341 -68.988732348701006 144 141 124
72.421799671741809 -2.349067236301729 -69.667351100123710 143 140 123
71.216231296426741 -2.394220656885265 -70.863888693601893 140 137 120
70.619857775731901 -2.095506734237243 -71.468531537329426 141 138 121
69.262171385696433 -2.243913206142036 -72.812951328296094 140 137 118
68.437592676281767 -2.089705254395885 -73.639510774171356 141 138 119
67.460818069009093 -2.030875967671433 -74.613996213522967 141 138 119
66.407976421439898 -2.023943370451673 -75.662416127757410 144 141 122
65.279049257981058 -2.069741259349046 -76.784753095526980 141 138 119
63.540785609888118 -2.489055541946184 -78.498611865163156 142 139 122
62.488132238303777 -2.506816766444305 -79.546867664071385 144 141 124
61.130805223176083 -2.716941281469293 -80.890824083939833 139 136 119
60.764039779243433 -2.331507944375287 -81.273626636295347 143 140 123
60.549872659684652 -1.854681857960026 -81.508654685607610 145 142 125
59.954889018300506 -1.614514588686164 -82.113359792718796 146 143 126
58.750345044376445 -1.757362345336585 -83.309381839432518 145 142 125
57.698294040141008 -1.813286622006926 -84.357532977348228 144 141 124
56.798776152764916 -1.780602088097730 -85.257849760689282 144 141 124
54.755820527208598 -2.477517690285262 -87.266522982548139 141 138 121
54.313857828943583 -2.170311606654762 -87.723405078688216 141 138 121
53.338328344166925 -2.207432784436665 -88.697498514041484 143 140 121
52.591657998231440 -2.104050898610065 -89.449946990807831 143 140 121
51.006190947047713 -2.548623027374931 -91.014925367122459 142 139 120
50.564788091474085 -2.259838665840188 -91.471885666047314 144 141 122
50.199858300434002 -1.923888548660444 -91.855057032813733 145 142 123
50.445456663558815 -1.188471831209663 -91.647543806844851 142 139 122
50.233609265319473 -0.753630340888551 -91.883249434346169 143 140 123
213.540060563186387 -1.351472381337330 68.011683845130904 161 161 156
211.412752383073155 -0.904136376105298 65.920727354697419 184 183 179
205.247887826973283 -1.804824628683761 59.899678985040822 188 184 181
200.301816484640085 -2.342725939974117 55.065571930084019 183 180 175
197.184073341895896 -2.299261864010602 52.011427883535987 174 171 164
190.409434760840725 -3.524258615934252 45.398560508226069 179 175 167
189.043889980550887 -2.934818912448496 44.050305122875443 177 175 166
185.773700102977870 -3.017755784565078 40.848674410341800 175 175 165
182.884440340400602 -2.990077561898256 38.017963844376879 173 173 163
181.138046033168223 -2.577196337314935 36.299428547788921 171 171 161
177.867840225488550 -2.723171254950840 33.098454338433811 170 170 160
174.673809570153850 -2.864824809760556 29.971852600265578 171 171 161
173.079881101079764 -2.444010387948253 28.402014278768377 171 169 157
171.028819449335344 -2.203331037712848 26.387567816200232 167 165 153
168.215796050924325 -2.261319583310304 23.632126730936079 166 164 152
165.021764910426640 -2.482721010908347 20.506346109784630 160 158 146
162.894558656944668 -2.321480878361185 18.418285786539940 161 159 147
159.624307602249843 -2.613737418527599 15.218838973428092 163 161 149
158.182997024289932 -2.221289704630313 13.797998538568010 163 161 150
156.513124973197307 -1.928350573257914 12.154948766078689 161 158 149
154.843307256615304 -1.647237249034526 10.511994729119550 155 155 145
152.487628934635410 -1.650782291637343 8.202354222134943 149 149 141
149.446035115498120 -1.946333937673609 5.226129144245249 152 152 144
147.014157413773802 -2.016627672775559 2.842770352243804 150 150 140
145.496921856816357 -1.730597222246130 1.348488688517961 150 150 140
144.055971654610744 -1.423883240705208 -0.071641648491720 151 150 138
142.233972747714290 -1.285726971785792 -1.862038966693120 149 147 135
140.107117434045904 -1.288263372222117 -3.948581344213466 148 146 134
137.522921315817939 -1.499205365745929 -6.479341534524792 143 144 128
135.853490718950184 -1.338551384723302 -8.121240819695146 143 144 128
133.574251754812622 -1.451834377779795 -10.355461180687229 143 144 128
131.218793090083636 -1.614315791592972 -12.663570759036133 146 145 127
128.634629786531150 -1.893439544763023 -15.193644818672112 145 144 126
127.270308096102951 -1.653523313793556 -16.538887505332099 144 143 125
126.134790714016958 -1.321632356291006 -17.661959476130392 145 142 127
125.456840093733874 -0.792908525679901 -18.340802607487973 145 142 127
123.177792167939131 -0.991378268339123 -20.574237490560620 145 142 127
119.983734965186528 -1.622141988557223 -23.695791871894812 145 142 127
118.085939980865533 -1.681430058585525 -25.558755097615688 145 142 127
117.789581921812513 -1.014399535969468 -25.867280037933682 144 141 126
116.273217053104943 -0.917279566171677 -27.360033685455249 144 141 126
113.002857673595344 -1.653603336403831 -30.554857669267676 144 141 126
110.342549002467891 -2.124819678571972 -33.157385625463149 144 141 126
108.139823252281786 -2.397002044008443 -35.315715129759752 137 134 119
107.004918894098111 -2.172471674005455 -36.437975252631134 135 132 117
105.793829236948767 -1.992739862009494 -37.634186340476759 138 136 121
105.040501916757066 -1.598631552411336 -38.386442736705476 142 140 125
102.837921783538619 -1.920611691521263 -40.544329310159526 142 140 125
100.864194754285194 -2.145120502992101 -42.480125090687011 145 142 127
98.509028542262499 -2.573408495846680 -44.785638496760384 144 142 127
97.298243956441993 -2.444805800980181 -45.981469231996357 144 141 123
96.392732024035368 -2.170610006868738 -46.881404481466774 144 141 122
95.258428023178084 -2.019042852833369 -48.003200766189735 144 141 122
94.124213670908205 -1.875382853833147 -49.124958546170660 145 142 123
92.532232592153676 -1.975659755715633 -50.690364637753021 146 143 124
91.856053598527112 -1.611771686494897 -51.368358571932106 146 144 125
90.645790010773396 -1.531703655137315 -52.563938959184213 142 141 123
88.901354292660514 -1.741234726008194 -54.277004435663287 142 141 123
86.622655359579042 -2.246150030527983 -56.507451877540433 140 139 121
85.412539767184171 -2.197202502074989 -57.702782726294913 143 142 124
84.049831275936242 -2.238680687984963 -59.045900627819776 144 143 125
82.381822553153071 -2.454774934414404 -60.684602073911236 144 141 124
81.248243215089076 -2.391811442095715 -61.805832992829892 144 141 124
79.885700509542403 -2.462193977447377 -63.148732678676851 144 141 124
78.141442490287744 -2.752603606092586 -64.861050642055545 145 142 125
76.702622783751991 -2.885824821596347 -66.277671726903208 145 142 125
76.103845726625323 -2.559980874258187 -66.881443990013480 142 139 122
75.352482133360112 -2.323991418370613 -67.633012229679395 143 140 123
73.913882406742644 -2.481950624904677 -69.049483911597065 144 141 124
72.628078143200668 -2.563035806319597 -70.318125952428773 144 141 124
71.953409653001913 -2.303019772908185 -70.995773299224737 143 140 123
70.744150585913374 -2.355805952669175 -72.190466710584531 141 138 121
70.069729440621884 -2.106801383813973 -72.868119039799922 139 136 117
68.937040845080219 -2.129889681341072 -73.988890312586477 140 137 118
68.262873256681189 -1.891603046668429 -74.666553617469361 142 139 120
67.588850553886118 -1.657833471637348 -75.344239738764458 144 141 122
66.074355771077322 -1.928311298643663 -76.834104160182079 142 139 120
64.636297227482913 -2.163727056834814 -78.250037443005880 141 138 121
61.822477378900587 -3.237035990085436 -80.994646306434788 140 137 120
61.683798113822320 -2.711102999685593 -81.155434083691290 139 136 119
59.175550696473266 -3.628756596261297 -83.604394449700607 143 140 123
60.413270894201020 -2.269753352961348 -82.436762294104085 145 142 125
60.428133066405579 -1.654972321122822 -82.450200556343702 146 143 126
59.831540344922530 -1.418742357181610 -83.054095356389297 145 142 125
58.470382861447945 -1.663132632876829 -84.395866578642057 144 141 124
57.491643243951003 -1.677299640157520 -85.368660576313516 142 139 122
55.748122324341878 -2.180517318001997 -87.079140625480022 141 138 121
54.234024447360582 -2.550545815293257 -88.568170200225836 143 140 123
53.408424307828213 -2.492075648971557 -89.393255520314085 142 139 120
53.348034831227054 -1.948411936277247 -89.480820490334281 142 139 120
52.140153214579684 -2.145107501035885 -90.674691537670014 141 138 119
50.549679580265092 -2.598437489230751 -92.237184632729338 140 137 118
49.877559677398565 -2.463886679869009 -92.914759738389705 144 141 122
50.966044243672258 -1.178937336547597 -91.896689264089503 141 138 121
50.677156670656288 -0.794281602896713 -92.205881433765228 142 139 122
211.138888003371761 -1.338859545440636 64.171616915538152 183 182 178
205.260002261756540 -2.143240935288498 58.456201466048782 185 181 178
201.903106103601033 -2.150608613006665 55.184413984340438 181 178 173
196.329752335548022 -2.926797575470473 49.765978426838984 175 172 166
192.972771979324619 -2.989706703400714 46.494802941246462 177 172 166
189.080746710156404 -3.260072954128669 42.705714373965350 178 177 168
184.195042612221641 -3.902629356274171 37.954663988554813 174 174 164
182.672394207464322 -3.401719083119960 36.460759946702041 173 173 163
182.831405927726053 -2.316520219162603 36.595236557552511 170 170 160
179.550821038764951 -2.459534597804271 33.399197190790858 170 170 160
175.658695830121303 -2.846557583185655 29.611357240585335 170 170 160
173.754006464503902 -2.536738773957536 27.747892860713137 171 169 157
172.460905267778912 -2.015310901262333 26.476539678161828 168 166 154
169.868304531671924 -1.985940937279710 23.947326576534266 166 164 152
166.129006963843068 -2.405138474011356 20.308423365473345 163 161 149
162.619009297762688 -2.764007763095115 16.891779533192306 162 160 148
160.255736430060779 -2.709409637021925 14.585173734005366 163 159 148
157.968934728282363 -2.642044841708657 12.352711862342375 163 161 150
156.370247786889706 -2.322946567454066 10.786196993096382 162 159 150
154.771618869896400 -2.015128552376671 9.219770478551055 156 154 144
152.943672209212764 -1.809526279446874 7.431524289772938 149 149 141
150.809928602592151 -1.739172552425426 5.347526953291123 152 152 144
147.988047057788947 -1.961621504402469 2.598016448478461 151 151 141
146.160204134419473 -1.799363103943624 0.810166792378311 150 150 140
144.408875241372925 -1.618601212760255 -0.903618494365105 152 150 138
142.810537061109187 -1.386840179460414 -2.469401203644139 149 147 135
140.524010110982232 -1.453867079047236 -4.700611154327163 148 146 134
138.466924665199997 -1.440395167046023 -6.709837094174475 142 143 129
136.180439759089154 -1.538927428733070 -8.940742858051635 143 144 128
133.588052832924262 -1.784682947919897 -11.467226240813233 143 144 128
131.531034014729244 -1.817507756692267 -13.476007499665485 145 144 126
129.550528226019452 -1.831540571614829 -15.410726880071223 145 144 126
128.334927465397982 -1.523698141003476 -16.606098578433233 145 144 126
126.660472992146609 -1.427511547150652 -18.244930863160278 146 143 128
125.750998884904462 -1.001798242160558 -19.144530267625925 146 143 128
123.005742011962838 -1.408101164707503 -21.817946366609874 145 142 127
121.484431962799349 -1.278994046723375 -23.308663516537251 144 141 126
119.351174956921398 -1.440176451713154 -25.390510323425900 144 141 126
118.365498141097859 -1.088048844744770 -26.363756043671714 144 141 126
116.232316080956153 -1.275238032819599 -28.445371003460679 143 140 125
113.793104704944483 -1.620566758677231 -30.822390317495206 142 139 124
111.353878542423573 -1.983138490159720 -33.199225066795378 142 139 124
109.450253348085880 -2.108719967374807 -35.058716748685470 139 136 121
107.546654022085562 -2.247711577455134 -36.918082768665215 136 133 118
106.637886440090369 -1.920839001361982 -37.817002755111361 138 136 121
105.346595658601231 -1.785954127058454 -39.085243152840917 141 139 124
103.749260274125106 -1.809750851562005 -40.648875011805188 142 140 125
100.774357340737396 -2.523179407631096 -43.541844478961480 144 142 127
99.100514658598357 -2.612302756628631 -45.179061954126126 143 141 126
98.498293245516749 -2.177837829636557 -45.782304539463922 144 141 124
97.283851191225338 -2.055550455297510 -46.976320547553428 145 142 125
95.380547023797973 -2.290820376248123 -48.834836729362905 143 140 123
93.706913642694204 -2.422304513790486 -50.471718292548729 145 142 125
91.880197873963112 -2.644221991950417 -52.256152660252269 146 143 126
91.814412917708481 -1.967870156693914 -52.342502276802776 146 143 127
91.366004925734245 -1.491154705544589 -52.798045811599110 145 142 127
88.926939768990181 -2.061667366821634 -55.172817145060094 142 139 124
86.181516249644346 -2.811207682122913 -57.842620406064157 142 139 124
84.967572039377785 -2.765890935581440 -59.036082283690064 144 141 126
83.677120258775318 -2.770009891828743 -60.303293220310593 143 140 125
82.846263847426670 -2.535509284559033 -61.127675927737613 142 140 125
81.096413507344053 -2.805226145787755 -62.837531545051263 143 142 124
79.116775914190484 -3.212715023960696 -64.768616226320802 143 142 124
77.520125884583678 -3.423681446571480 -66.330649324976775 143 142 124
76.383142854509899 -3.391601445885896 -67.449934030010894 143 142 122
76.242207071950958 -2.812925406707524 -67.610185207736237 144 141 124
76.024867485957330 -2.277851011590040 -67.844295139083300 144 141 124
75.041499914984342 -2.176061126684653 -68.816068742218079 144 141 126
73.138686529236480 -2.602842406182910 -70.672848389680155 142 139 124
71.695647639148220 -2.780475644487342 -72.086993876317166 143 140 125
71.172320891314328 -2.439722277692177 -72.616155893994943 142 139 123
69.422828227871321 -2.811476076917310 -74.325132305125152 139 136 118
69.206349692842863 -2.303619573048112 -74.559373992874811 140 137 118
67.610250040404935 -2.604693474914701 -76.120742868531721 143 140 121
66.780787120197687 -2.465436116923013 -76.944811830733443 145 142 123
66.794812858649863 -1.832046706397372 -76.958041491322803 143 140 121
65.582279225011519 -1.929533813142264 -78.150708232172207 144 141 124
63.219564988762301 -2.725309821922256 -80.448827950570006 140 137 120
61.700290611627409 -3.028907162549467 -81.936064914653571 142 139 122
60.641189601631297 -3.063854421621206 -82.981059280958874 143 140 123
60.886107694462751 -2.309964023651350 -82.773410774887338 145 142 125
59.213601313869631 -2.731635115084066 -84.407844451160656 146 143 126
59.765834321834561 -1.790700458786710 -83.905704147933676 145 142 125
59.090864862448697 -1.608036821939193 -84.582411285025785 144 141 124
57.265081555899044 -2.149172135815711 -86.364005869896459 143 140 123
55.746177645728764 -2.510276581243410 -87.850828114587244 141 138 121
55.685423835166716 -1.960200552713974 -87.938284793677582 141 138 121
55.010911659675202 -1.800481222418117 -88.614974516543811 142 139 120
54.106263531582357 -1.792470112213130 -89.512583034365946 142 139 120
52.741101096959824 -2.086803552905257 -90.851924211630774 140 137 118
51.452718479404240 -2.341033536821969 -92.117550510307609 136 133 114
50.164351475383953 -2.604245710927297 -93.383091820250343 143 140 121
50.719047446986735 -1.671269462086823 -92.882047870499491 140 137 120
50.890149660978551 -0.986148816848720 -92.749237104319405 140 137 120
213.540366882114768 -0.902817902430883 65.013729184416690 173 172 168
207.566114143565926 -1.727121735184240 59.233283166162124 180 176 173
203.355211839335936 -2.009194353694705 55.153429239278125 179 176 171
198.914232898890418 -2.398135532253939 50.852166583536103 175 172 167
194.473189427703431 -2.818514474004064 46.551258403769168 173 168 164
190.492143520992556 -3.112948844675397 42.694145864680081 176 175 166
186.587727803897053 -3.409054608510236 38.911249794955381 173 173 163
185.367083077306177 -2.795704112633735 37.715146364634023 173 173 163
184.990010252869126 -1.893446120101596 37.331954891972174 171 171 161
182.235844826645007 -1.840643873127591 34.658074814198130 170 170 160
177.257800302615180 -2.607403139382289 29.841619369668933 169 169 159
174.426902187913583 -2.629275373191748 27.094357724068288 171 169 157
173.283163076145115 -2.052214196516220 25.972695340339499 169 167 155
171.142519041163553 -1.852458159767651 23.890667142152694 168 166 154
166.624427635125272 -2.556811417520858 19.518682635690993 167 165 153
164.100312825547064 -2.540441192859786 17.067698799329946 156 154 142
160.655848265436987 -2.892553115062566 13.730493481729951 163 159 148
158.285127841490691 -2.856097301191465 11.427637315855719 164 160 150
155.914424560242992 -2.836368122494902 9.124945124631722 163 159 150
154.387468585469492 -2.502938530113041 7.634825772291805 159 156 147
153.013984949592299 -2.119618159292709 6.292489998078594 149 146 139
151.870694418358369 -1.654185805087137 5.171762066506830 154 153 145
149.270014171296481 -1.783012536778324 2.648042573285608 155 153 141
146.515913051153973 -1.992445330573826 -0.023168951287289 153 151 139
144.528941510314922 -1.907308749506974 -1.955815938448524 150 148 136
142.695438961645777 -1.772811237987943 -3.740672292429139 151 147 135
140.478389670226107 -1.810936767140666 -5.894558728292481 149 145 133
138.184640741326945 -1.896898427494515 -8.122118804081197 144 143 130
136.504694839965623 -1.739089145764041 -9.758958321706416 145 143 130
134.210995713489808 -1.855189387852196 -11.986231991241596 145 143 128
132.838052971433854 -1.591000432264534 -13.327600247701440 145 143 128
130.467679339058833 -1.769450729170374 -15.628410180917001 144 142 126
128.327513043080614 -1.863852637651656 -17.707639012302877 145 142 126
127.645364682287706 -1.330043937584902 -18.384526300105023 146 143 128
124.891374760125800 -1.722415715268838 -21.053907938548861 143 140 125
123.135008734413290 -1.686980262180475 -22.763787560257640 145 142 127
121.608924648111170 -1.559840564858774 -24.252200575532669 146 143 128
119.545665165646838 -1.688031527248128 -26.257014670262663 146 143 128
117.635928514795253 -1.760284853591248 -28.114131585751466 143 140 125
115.649468157037845 -1.881448990476428 -30.044899564220316 142 139 124
113.893304111525609 -1.909261182882847 -31.754224772776610 140 137 122
112.213942050912920 -1.913345404938840 -33.389677146651962 139 136 121
110.381097862492680 -2.001833874617106 -35.172553151195984 138 135 120
108.087679367941718 -2.322739151558583 -37.397852912973178 136 133 118
106.408419113401635 -2.364861977229630 -39.032962440068729 139 137 122
105.420173673380177 -2.084480934623596 -40.004240815873374 142 140 125
103.126803282836718 -2.446983072070545 -42.229135413061215 142 140 125
101.754798403281669 -2.373361052287099 -43.568990738523922 144 142 127
100.459647878356520 -2.271338688529100 -44.835046377894002 143 141 126
99.932468553167652 -1.795938837960616 -45.363751319668751 144 141 124
98.714301500689686 -1.670676348544700 -46.556015925748113 145 142 125
96.805041133159420 -1.902968689726079 -48.411713331568848 143 140 123
94.742188012010942 -2.226793438728577 -50.414708071315886 144 141 124
92.832937324661856 -2.486446527978785 -52.270128470177411 145 142 125
92.306269009615065 -2.046447102317629 -52.798713483095298 145 142 126
91.549315503005374 -1.729607704434788 -53.548439756446271 145 142 127
89.486579311358184 -2.100720439575162 -55.551003675869168 144 141 126
86.655594294617913 -2.890756098724495 -58.290316655803167 143 140 125
85.514703090178941 -2.805042703404128 -59.408283779091192 143 140 125
84.681226089101756 -2.563246239768402 -60.231487905289413 143 140 125
83.617360777614493 -2.450936522630899 -61.275718836123701 143 141 126
81.938855033473686 -2.678327140242760 -62.909282263955021 143 142 124
79.645590236042452 -3.252053258734952 -65.132053141979128 144 143 125
78.505034283086459 -3.210472435678619 -66.249726369690762 143 142 124
77.595129704642147 -3.049644263653534 -67.146393242468378 143 142 122
76.992784839559434 -2.724419273154901 -67.748452307248215 143 140 123
76.390593802597905 -2.403189221054327 -68.350543840966111 143 140 123
75.634812116425991 -2.172364705534385 -69.099945314803563 143 140 123
74.110380790676459 -2.381492995111107 -70.585687629746076 142 139 124
72.509087785855968 -2.645031771025159 -72.144958391331983 143 140 125
70.984692819100957 -2.875732958038883 -73.630496039622216 144 141 126
69.998583920819357 -2.806843249240570 -74.600619543128772 142 139 122
68.474261794905942 -3.056896473135625 -76.085992837990716 142 139 120
67.257582179680981 -3.138092558150542 -77.276843847130920 142 139 120
67.271581290343178 -2.505211824050174 -77.290055533014822 144 141 122
66.439717953966095 -2.371609891761017 -78.112917930211040 143 141 120
66.223387207639405 -1.877914682883557 -78.347084550245683 142 139 120
64.314756740682029 -2.397242899420351 -80.200128693881908 140 137 118
63.098518816954552 -2.513554570706502 -81.390829544350424 139 136 117
62.497904376175271 -2.265847997991943 -81.992918502169488 145 142 123
60.666199161635902 -2.771427241078538 -83.772046063054944 144 141 122
59.680994170555479 -2.771643049213865 -84.741890654866751 145 142 123
59.850388954815671 -2.067648985557113 -84.608457333732588 142 139 120
58.942445346322884 -2.029433563054917 -85.504800213187139 143 140 121
57.726677909581909 -2.189215123688787 -86.695278685608884 142 139 120
56.972890892495968 -2.067967732304375 -87.444506469914359 140 137 118
56.912211172173983 -1.515050001318473 -87.532027844592534 141 138 119
55.696730292710754 -1.694147486159363 -88.722444576522349 141 138 119
55.482455809474899 -1.243522800200454 -88.957151559242163 139 136 117
53.959071722910565 -1.633246505861817 -90.441535910480155 139 136 117
52.743774440342591 -1.835032891618877 -91.631806926280319 140 137 118
51.066284990498303 -2.344852380635572 -93.262949363566037 142 139 120
50.236229352260580 -2.314067561427658 -94.085618209160032 141 138 121
49.406286473953912 -2.288860801854644 -94.908283580948478 141 138 121
213.258899410617516 -1.337103322042943 63.268251532333437 167 166 162
209.111648194067811 -1.562325410241651 59.268220837133555 177 174 171
205.964278919088713 -1.486456108766185 56.227916267431567 180 176 172
201.663104201829071 -1.818043897811827 52.080899153117031 173 170 165
196.977264007016345 -2.309760283016613 47.565258544220654 177 172 168
191.368273647517896 -3.149274350342124 42.164523247030814 175 174 165
189.066911963335997 -2.888903779637514 39.937040115638382 173 173 163
187.457906040150590 -2.403800300414218 38.373753036942901 174 174 164
186.541302430711937 -1.686619233492501 37.474564137795795 172 172 162
183.932335603062114 -1.576784496420151 34.952352253932617 170 170 160
178.092265891204022 -2.643984570502159 29.331931558523706 168 168 158
175.021643918690700 -2.749476276338157 26.367637067266514 171 169 157
173.489705598449575 -2.313980039581043 24.878850628675821 170 168 156
170.111344522239079 -2.570913289301918 21.619900793993025 168 166 154
168.194787685591564 -2.306823100331857 19.762584479243742 166 164 152
165.816628666949669 -2.229884114422112 17.462870197947638 159 157 145
162.361290863576500 -2.578750565173348 14.130833195386373 160 156 145
159.213692695606198 -2.833998676003989 11.094046485170765 161 157 147
156.835537481168330 -2.813775171600752 8.794914184899056 158 154 145
155.380784783329830 -2.449836281090716 7.380797869753906 161 158 149
153.772197287840754 -2.156699834210741 5.819286629782596 157 154 147
152.702341888276862 -1.660764197603690 4.773972482245654 154 151 143
150.170423390730917 -1.758504444667093 2.327896499869240 153 151 139
147.561552647382712 -1.905175301503034 -0.191721009459059 152 150 138
145.337482284086150 -1.913199271424582 -2.342558439073599 151 147 135
143.036471464772148 -1.968515458357653 -4.566959900632412 151 147 135
140.196722022273633 -2.263606321760133 -7.307174724747199 149 145 133
138.511465238541263 -2.095421936710389 -8.941580330600715 146 144 131
137.057173036107741 -1.841564173457155 -10.354783824826399 146 144 131
135.064142370326152 -1.827202709484558 -12.283803623549403 146 144 131
132.455342558740938 -2.091102444810080 -14.802248370652990 145 142 127
130.847245912560794 -1.940328175022482 -16.362529025845731 143 140 125
128.777323343994141 -2.002286284613808 -18.364837291049867 144 141 126
126.553458278303495 -2.146470784004169 -20.514371365604433 144 141 126
125.253442930888539 -1.896721544667362 -21.779620317512581 141 138 123
122.952645883252714 -2.103242689269137 -24.002567618121333 144 141 126
121.575761114001182 -1.909813331341558 -25.341321658197671 144 141 126
120.352941946109738 -1.656074323873820 -26.532683181550709 143 140 125
118.668218259721939 -1.622160077573423 -28.165961709356907 144 141 126
115.905518506290349 -2.096962587137463 -30.830328093443256 142 139 124
114.759882544380062 -1.840032729949231 -31.947787758074440 140 137 122
113.152289452843206 -1.807300066507282 -33.507094250529377 138 135 120
111.236702205763962 -1.931057231016960 -35.360882105957472 135 132 117
108.396956463701486 -2.507326931533789 -38.098204385325630 138 135 120
107.097524278836659 -2.366264238211545 -39.362613554981323 140 138 123
105.567102630888854 -2.345643835783133 -40.847855039019919 143 141 126
104.113762471407867 -2.298273280369575 -42.259388510770123 142 140 125
102.737514132643796 -2.223327210695396 -43.597227409003267 142 140 125
101.438368329504470 -2.119979658990672 -44.861385361795641 143 141 126
99.908186045195180 -2.140359515638356 -46.346319320315018 144 141 124
98.686221622634761 -2.017341959786648 -47.536744169334298 143 140 123
97.618431434576550 -1.825202858542745 -48.579919176623804 145 142 125
95.549094402632363 -2.148248379977451 -50.579820056651954 146 143 126
93.787962850181614 -2.328443819175353 -52.285200269606122 147 144 127
92.720376444710070 -2.164412017629622 -53.328183443230870 145 142 126
92.115263574227143 -1.768383580098160 -53.929647119164088 144 141 126
91.895637674586524 -1.175558075572159 -54.163257747080081 143 140 125
88.362129154289434 -2.323005212144959 -57.560536839360566 144 141 126
87.294864006942220 -2.192475992961016 -58.603328842860378 142 139 124
85.842289783018259 -2.274252596781949 -60.013899358967763 143 140 125
84.698106721447786 -2.201042451007225 -61.130162966858876 143 141 126
82.320556159185031 -2.800468043311015 -63.423206171221182 144 143 125
81.022271342303640 -2.831095571927133 -64.686396944083100 144 143 125
80.417957190357285 -2.491805926383364 -65.287658683337384 143 142 124
79.968010084271768 -2.071761534044492 -65.741882567541040 143 142 122
79.132682935553916 -1.867877295637224 -66.563811339870028 145 142 123
77.372078283733671 -2.184833181039450 -68.268035876304424 145 142 125
76.382690692160395 -2.082001335354510 -69.236940247644640 145 142 125
74.776381061643477 -2.333828670689563 -70.793931624434151 142 139 123
73.170081604480870 -2.596858831571266 -72.350812551810264 143 140 125
71.718068528796564 -2.783006180024159 -73.760577178806187 144 141 126
70.343228932814085 -2.934924792901187 -75.096754782612692 144 141 124
68.968426942521305 -3.096380855895113 -76.432852203087009 144 141 122
67.053556297386578 -3.581532717825803 -78.283262861259459 142 139 120
67.685042788083479 -2.589892852348643 -77.708700201782989 144 141 122
67.390846852772725 -2.138528203654812 -78.016039537506629 143 141 120
66.247917801008469 -2.191766722387035 -79.131601459764539 143 140 121
65.027874667246536 -2.298858966479172 -80.320576810991327 142 139 120
63.653505487691348 -2.506921376461440 -81.656401544096411 139 136 117
62.819541339384131 -2.398618391800167 -82.477998505289179 143 140 121
61.985697485598351 -2.295927197973057 -83.299595249986481 141 138 119
60.765917589642044 -2.434437786134007 -84.488373128478429 140 137 120
59.700622185940560 -2.486564062064969 -85.530227285817205 142 139 122
58.944305075955384 -2.355257164256081 -86.278348229905163 143 140 123
58.651521601618171 -1.941212707085818 -86.585979126637653 142 139 122
58.513445355065528 -1.432331119228084 -86.746879867237539 142 139 122
57.525891462278466 -1.457754540737576 -87.715341277896584 141 138 120
55.765858939093334 -1.977982582724938 -89.417747136286010 142 139 120
55.396517542392644 -1.626931105750939 -89.798963451908719 140 137 118
54.795572744966293 -1.426191719192657 -90.400410911398779 139 136 117
54.117514171313687 -1.278990033406131 -91.075275199137451 140 137 118
51.120915116255006 -2.634475893283296 -93.951256297684466 141 138 119
50.211005821434668 -2.655347500621636 -94.846050587056794 141 138 121
49.687727107904493 -2.429817681378819 -95.374049530322509 143 140 123
213.426037830346871 -2.751330816915474 61.983402705163854 141 142 137
212.583550483368413 -1.895447761471740 61.158187995779855 162 161 157
210.352228430743622 -1.497939654745942 59.006645404096417 174 173 168
208.120930313010632 -1.116108144584289 56.855252729126533 179 176 171
195.401586023596394 -3.176448303530871 44.669635543322840 175 172 165
193.170188849710058 -2.870716285901870 42.519073586782923 178 175 170
190.707306298336960 -2.660141174856798 40.147656284447891 174 171 166
188.861811549469564 -2.252710075452561 38.365727515406149 175 172 165
186.939186468716684 -1.885260361055277 36.510250296318077 174 171 163
184.553550943784956 -1.695168245608722 34.212948007998165 172 169 160
178.694970970049781 -2.763132427078674 28.601390423764570 171 168 159
176.618006807439770 -2.507336039593612 26.599180026349615 170 167 158
173.769268807824403 -2.547389893771511 23.860640073093805 169 166 157
171.383621964941938 -2.437038345163349 21.564164008955430 169 166 157
168.689254731672349 -2.458112444142631 18.973296011904608 164 161 152
168.156114622436860 -1.687624430709310 18.444405198086002 162 159 150
166.002128190705662 -1.534367013831451 16.369238590423492 159 156 147
160.914923887175547 -2.516816738035790 11.496366135555689 161 158 148
158.374953278965762 -2.552899036850730 9.053507579084908 160 156 147
156.220964938126485 -2.456620137627970 6.978928393238959 156 153 144
154.684582985484781 -2.132970926099211 5.493419070775019 158 155 147
153.611462304635609 -1.636568624430881 4.449662218994575 153 150 140
151.071599281950995 -1.733804862605253 2.007381682196268 154 152 140
148.840557520202424 -1.724346432436892 -0.140300609421274 153 151 139
146.763951386957558 -1.667714886978327 -2.140632183086495 151 147 135
144.919003842102484 -1.530602231882096 -3.920040209108521 151 147 135
142.379198249157980 -1.693864192655837 -6.361668584166495 149 145 133
140.225462860331191 -1.713846842023117 -8.435172042863712 144 142 129
138.380618375654308 -1.618944511123440 -10.214194880450123 144 142 129
136.226940752372826 -1.667971344684707 -12.287427007607761 145 141 129
133.764396961363332 -1.864201434633247 -14.654818921444303 144 140 127
131.687976286339733 -1.911142793034719 -16.654173089756881 143 140 125
130.383857634158346 -1.636793762826583 -17.917712252735043 144 141 126
128.384745498410439 -1.676181001190292 -19.843269434677524 147 144 129
126.385662503862022 -1.729535151598334 -21.768696789227931 144 141 126
124.618317040581260 -1.693652655421395 -23.473328487277485 144 141 126
122.542058278445381 -1.808790517895282 -25.472058133285174 144 141 126
121.392731455882100 -1.519064471176954 -26.588089690485390 143 140 125
119.780023369516059 -1.448608747703237 -28.145337489354119 145 142 127
117.472128405076887 -1.708833407955854 -30.364336373628873 144 141 126
114.855218659378281 -2.128285009968186 -32.877300182544758 142 139 124
114.169671978981725 -1.665000294306061 -33.551835787097218 136 133 118
112.248110733465950 -1.787432219750866 -35.402779343501919 134 131 116
109.940258864396029 -2.106230325336599 -37.621195918556026 140 137 122
108.327791508842822 -2.109388704737951 -39.177801135279054 141 139 124
106.638103224739879 -2.160900978142435 -40.807825278473615 142 140 125
104.948455602007883 -2.224174611879809 -42.437747808338401 142 140 125
103.490680499609184 -2.186140900196671 -43.847063509775580 140 138 123
101.414713432362959 -2.461930080347791 -45.844279036901412 140 138 123
99.725171218753417 -2.561032092815352 -47.473883194628200 145 142 125
98.731270648150911 -2.325267847351814 -48.441996912240484 143 140 123
97.351008225407227 -2.290254203553212 -49.777504441937026 146 143 126
96.048109315380728 -2.225730725761889 -51.039467285562836 145 142 125
94.899888295789765 -2.091529766742087 -52.154426957257812 145 142 125
93.829064074982412 -1.925611143284194 -53.195880593130113 144 141 125
93.531450646342989 -1.368127164395684 -53.502677351334938 144 141 126
92.770132618890088 -1.053466693374585 -54.250293224086050 144 141 126
90.462543246408799 -1.552786953235130 -56.466977171387924 144 141 126
87.768276446448823 -2.271868894237463 -59.050708270022824 144 141 126
86.775164544497599 -2.107993745591859 -60.018459293427071 144 141 126
85.472819078530350 -2.115982946217215 -61.279940493367548 142 140 125
84.170539520085484 -2.132959838905570 -62.541360708411446 143 142 124
83.023014744107343 -2.075273155865654 -63.655865860784161 142 141 123
82.494376148129803 -1.688648276065704 -64.182958887044748 143 142 124
81.501772892012809 -1.559738629894437 -65.150593327390425 143 142 122
79.967748348496301 -1.736186053757638 -66.632082680404267 142 139 120
78.046919545408912 -2.137947365072762 -68.480501357064270 144 141 122
75.893944030249443 -2.682765822269526 -70.548965938094454 143 140 123
74.514677479175418 -2.807782684294750 -71.883302614995330 142 139 122
73.831905877259146 -2.548428622001431 -72.557066646919537 142 139 122
72.917112888615222 -2.425740929043915 -73.451002321902536 142 139 124
72.621596401455392 -1.954652042450927 -73.757912941637358 145 142 125
69.617229311210593 -3.046406225768711 -76.632892561412092 145 142 123
68.547836280105074 -3.037356488387622 -77.673416143283475 144 141 122
68.639742557245853 -2.358192864163080 -77.613515878685433 143 140 121
68.577084562413162 -1.768832741452256 -77.700465973463764 141 139 118
67.198414410814621 -1.956747095497992 -79.034440530347041 141 138 119
64.890563337398433 -2.706197575688276 -81.248424564806186 142 139 120
63.976514617437360 -2.638859698064841 -82.142146551921343 139 136 117
63.604709345548955 -2.251772026067784 -82.522555096758111 140 137 118
62.768378943752339 -2.147976090510890 -83.342973657071809 140 137 118
62.009632220589111 -2.002664226039061 -84.090076442700763 140 137 120
60.553793347599367 -2.289023170464252 -85.496979293080159 142 139 122
59.407864659038225 -2.394745018135979 -86.610565962106222 139 136 119
58.881873809767157 -2.124586943169191 -87.137726809985423 140 137 120
58.666034532936393 -1.664775501060832 -87.371779764709174 141 138 121
58.062937945048731 -1.448693325009094 -87.972355746058071 138 135 118
56.607414958624091 -1.773448261121771 -89.379014486256466 140 137 118
55.306914558375411 -2.010119290931489 -90.639024422364713 139 136 117
54.859208562095105 -1.712598177650165 -91.093059252155541 140 137 118
53.791435852371905 -1.815125445762681 -92.133209472053181 139 136 117
52.568644412680911 -2.024825262720151 -93.319813851850796 139 136 117
51.500983476584977 -2.142479796922235 -94.359861831319392 143 140 123
50.123144728746183 -2.469475464239790 -95.692802495085630 146 143 126
214.910042948391720 -2.614986238615099 61.937209589719828 130 131 126
213.368382094647302 -1.981091778688935 60.451032165253309 149 148 144
211.052700225436809 -1.609333534134356 58.229253192009708 171 170 165
207.188862856452204 -1.761931219392773 54.536326263815056 177 174 169
199.925528697813945 -1.992688265902131 47.592720544359310 175 172 165
194.900360230880665 -2.618254129986738 42.797355657969803 179 176 171
191.423403876923317 -2.749173264524410 39.473417454692708 174 171 166
188.565754852568887 -2.690324965827549 36.738122455583891 175 172 165
186.095197914949864 -2.516295105536762 34.370752731948187 174 171 163
183.469813731664431 -2.414173935698088 31.856474254369544 171 168 159
179.605672273115573 -2.771745309971912 28.165802698731028 170 167 158
177.522244757429803 -2.515740437551083 26.166682201232874 170 167 158
174.432304470416028 -2.639941727697460 23.211822112565216 170 167 158
171.806918075847506 -2.615383091563015 20.698343082980386 170 167 158
170.420426726396045 -2.150453478371836 19.361390109425685 164 161 152
168.724275175887726 -1.810948325507415 17.730433031926310 162 159 150
165.324613901975425 -2.126010701828747 14.482271491114744 160 157 148
162.621846348344860 -2.199487158722355 11.895961582325413 159 156 147
160.383712001518091 -2.113303949388802 9.750882592402718 161 158 149
156.751658567194170 -2.583339919392965 6.282915230848857 158 155 146
155.055636615090350 -2.321185544807882 4.652692364335508 157 154 145
154.056682652173009 -1.795644621056806 3.684013355364158 156 153 144
151.973551140844052 -1.708909991579522 1.686493634040943 155 153 141
150.277704986209415 -1.481092995355833 0.056540118506035 151 149 136
148.349555676568286 -1.359265638179707 -1.793766014104392 150 148 135
146.111625207874056 -1.377548049256552 -3.937867221516967 150 148 135
145.113046336624336 -0.900388442713652 -4.906227659853727 147 145 130
142.487893772029224 -1.106606469295722 -7.417443052774757 144 145 131
139.785270365402340 -1.363653496751754 -10.001932336895862 144 145 131
136.927699762242725 -1.705108296617776 -12.733144331546868 144 144 131
134.767321673410407 -1.769245262465052 -14.803015442770004 142 142 129
132.606963640645233 -1.848446104051387 -16.872741088706476 142 142 128
131.298845978029419 -1.573334911499272 -18.134374984120115 142 141 125
129.835855261313554 -1.374978030736532 -19.542845840464395 143 140 123
127.985531936720989 -1.357391079271121 -21.318451773774569 143 140 123
125.902797441181065 -1.455873873479383 -23.314254890103172 147 144 127
123.432648912850098 -1.742233537950618 -25.677080974684202 146 143 126
122.512288273685101 -1.346899814070033 -26.571159587304095 145 142 125
120.972095627499499 -1.239628661347907 -28.052618598980303 145 142 126
117.029569319103345 -2.243363211225972 -31.809998713882067 145 142 126
115.954396220289482 -1.951318043588703 -32.850670145302502 144 141 126
114.956827614324268 -1.630613724293447 -33.817903418220396 141 138 123
113.339311341479032 -1.607274386003602 -35.372366004536644 142 139 125
111.334293647200070 -1.778104941093933 -37.293744975429973 144 141 126
109.251775731499109 -1.999757795993280 -39.288383851501067 143 141 126
107.246780372396543 -2.198776840123589 -41.209483349187849 143 141 126
105.474360400959725 -2.299510081844670 -42.910281165509474 143 141 126
103.934548602366007 -2.299485591372981 -44.390818429597573 140 138 123
101.774551467158830 -2.613833080044994 -46.458296245122739 140 138 123
100.002210407353701 -2.752044082396640 -48.158746035081123 141 138 121
98.229894506560655 -2.902564141170433 -49.859081157723381 140 137 120
97.388108074429212 -2.599922569096085 -50.678936389854726 142 139 122
96.546445938585009 -2.302981841267043 -51.498792403250178 145 142 125
95.704908948534239 -2.011737337042454 -52.318649651873159 145 142 125
94.398165846324503 -1.963878617502806 -53.578601908406966 144 141 126
93.091494833372892 -1.925016198794836 -54.838496048750869 144 141 126
91.862459645126478 -1.854980752257508 -56.024992896235432 144 141 126
90.090519348193155 -2.076490007056059 -57.724776979020106 144 141 126
88.473738924048220 -2.228865286556432 -59.277782873999911 144 141 126
87.089724249060382 -2.269453365262403 -60.610717132575758 144 141 126
85.938518239082285 -2.195765674665535 -61.723625901630101 143 141 126
85.330522022291518 -1.839113247952478 -62.323304877512754 144 143 125
84.101929029801809 -1.821073180806287 -63.509478055371261 143 142 124
83.028609920393194 -1.727255741437866 -64.548995971380094 144 143 125
81.722570829542818 -1.767898833081528 -65.808374030933038 143 142 122
80.261372322713555 -1.902838715818905 -67.214271483323245 141 138 119
78.334514665346560 -2.305483000435965 -69.059796887873290 143 140 121
77.028599199490955 -2.375843890395408 -70.318928188972990 144 141 122
75.256973710131092 -2.716134326679696 -72.017640200250185 143 140 123
74.339301433139070 -2.587276314829531 -72.910261947748893 143 140 123
73.654660596162344 -2.332470509885199 -73.583084926529580 143 140 123
73.358397988601737 -1.860552280358127 -73.889647141665591 144 141 124
71.276350648346948 -2.416291944531703 -75.881072216058556 144 141 122
69.660175943903155 -2.717280007214631 -77.432838139233212 144 141 122
69.441964319638387 -2.216527708895113 -77.666177595876178 143 140 121
69.146310021371391 -1.762371182399743 -77.972847993961125 142 140 119
67.374987117405126 -2.178660222418789 -79.670922469246733 142 139 120
65.448254607312890 -2.699289870974058 -81.515293261202345 141 138 119
64.531447377951821 -2.631693121952650 -82.407698251569229 140 137 118
64.080942654479330 -2.290885943897888 -82.860839745074344 139 136 117
64.096869947674222 -1.671812012712532 -82.874831746514303 139 136 117
62.636519624422391 -1.947552237005191 -84.279685638372968 138 135 118
61.875663798799295 -1.806727624482281 -85.025733247076005 139 136 119
60.726300842991250 -1.909381191131351 -86.137708557780797 136 133 116
58.955104890747805 -2.403648090236090 -87.835041101059204 135 132 115
58.116774400266067 -2.331245959106064 -88.654179673601817 140 137 120
