ply
format ascii 1.0
element vertex 683
property double x
property double y
property double z
property uchar red
property uchar green
property uchar blue
end_header
151.720499426917343 -1.328076034287619 66.323503615073975 163 161 148
147.438176274138868 -1.995889802757951 61.173198955556757 160 158 145
144.869556268300499 -1.999059833041690 58.078554080673001 161 159 146
142.498680796160500 -1.941821902316135 55.221263743951909 158 156 143
140.984691101649219 -1.547124388323903 53.391734051322317 158 156 143
138.482014797264014 -1.580886467060606 50.376715719942837 158 156 143
136.111177274280124 -1.579247937502829 47.519979541042517 155 153 141
134.201758903815687 -1.399211503943973 45.216677876387394 153 151 139
132.556025384034058 -1.120717070304350 43.229652345027603 149 147 135
129.789740016299248 -1.345626382444931 39.899275720793980 150 148 136
127.616715543279440 -1.331513148824861 37.280354703202988 149 147 135
125.311874883339073 -1.393984189918366 34.503564648178042 144 142 130
123.732153241422452 -1.149500588009235 32.596168236214453 144 142 129
106.088122270527052 -1.200328052480471 11.327354207952567 142 141 123
104.376867438446624 -1.164245022270955 9.263310225240389 140 139 121
94.373817262670499 -1.106217551997029 -2.802412672068755 137 138 122
92.662818591615149 -1.167118242567146 -4.865580899178923 142 143 127
90.622186284071702 -1.414538384922122 -7.323428010668493 143 144 128
89.043124791037172 -1.435225270958850 -9.228410702551798 144 145 129
87.134422397509510 -1.644051703003745 -11.528052127295723 146 147 131
85.951060746542836 -1.479979238590541 -12.959084778565170 143 144 128
84.372121771975912 -1.539086405227957 -14.863730603614499 145 143 128
82.265703324795169 -1.897977435966950 -17.399817310465778 146 145 127
80.752775397575732 -1.948898916871372 -19.225267968754139 144 143 125
79.701487593579316 -1.757327571306035 -20.498049585659913 144 143 125
78.188653065341654 -1.831025027378673 -22.323310481146876 146 145 125
76.412078858178702 -2.064846916161598 -24.464186516716381 145 144 126
75.360949275353136 -1.903756756018686 -25.736730067933991 144 143 125
74.243932971334928 -1.788680325313337 -27.088138880061848 146 145 125
72.929126130630991 -1.795954768875793 -28.676242613157314 146 145 125
71.614368984125463 -1.813917874752745 -30.264260096016159 144 143 122
70.695379142213810 -1.612724884252453 -31.378713875087726 144 143 122
69.182866715959918 -1.766159607175553 -33.203308087315406 147 144 125
67.406568070465809 -2.087308811068719 -35.343417046718855 148 145 126
65.564335760978906 -2.462066560695052 -37.562290632498417 146 143 124
64.579600600377475 -2.339712847209375 -38.755339429101582 144 141 122
64.122623962656093 -1.907964424365336 -39.317179769851947 144 141 122
63.269961668378983 -1.719440978949338 -40.352375121447380 148 143 124
62.219476756247886 -1.658403485774790 -41.624197188552216 146 141 122
61.235021536770944 -1.565359764449067 -42.817078205556385 143 140 121
60.316601983331822 -1.439487994707962 -43.931029489515026 141 138 119
59.464224331232046 -1.279965823583911 -44.966062488267141 142 140 121
58.479974253497389 -1.209881332034090 -46.158805313491825 141 140 120
57.033960089566037 -1.438751564786874 -47.903576685958967 137 136 116
56.247761160484202 -1.260861682957150 -48.859599542114182 137 136 116
55.197720588761257 -1.257735870335375 -50.131038066126933 145 144 124
53.949793339599680 -1.390253392594830 -51.638988691725956 147 146 126
52.371987555717126 -1.746212232951141 -53.541120987911370 145 144 124
51.586052282796942 -1.599675019308483 -54.496947247506682 143 142 121
50.536236567643343 -1.632263213062549 -55.768125719922693 144 143 122
49.684457473922762 -1.542821052172049 -56.802723698201220 144 143 122
49.030738057332314 -1.328879723931297 -57.600777624838230 145 144 123
48.245113350530715 -1.208164342712934 -58.556486661107215 144 143 122
46.014070002721596 -1.431327771564338 -61.256068124907159 147 145 124
44.832619082958985 -1.601239673975342 -62.684576994568118 146 144 123
43.387175743095995 -1.961226544905920 -64.428271797888868 145 143 120
42.337824453287610 -2.060463454106792 -65.698986401088575 147 145 122
41.816648823482367 -1.802625211551828 -66.339182904151528 146 144 119
41.559649724829924 -1.364954393995822 -66.664176121549332 145 144 123
40.840629111961931 -1.252758465579706 -67.540801748128473 146 145 125
39.989644008812178 -1.239248883493240 -68.574997956595610 145 144 124
38.544477197512506 -1.653602226586054 -70.318265428823821 144 143 123
37.429478381594620 -1.844350963538421 -71.667491388259492 145 144 125
36.974872866194289 -1.570646746144910 -72.228839237399370 145 144 124
35.661877445148448 -1.919411168499095 -73.814294419548645 144 143 122
34.943281205835561 -1.847744330660029 -74.690705878692569 144 143 122
34.488952320790460 -1.589031402203186 -75.252031753978230 144 143 123
33.902637501565138 -1.430634511250665 -75.970901177234452 144 143 122
32.655885184828819 -1.764014792042375 -77.477346305200001 144 143 123
31.937613944080709 -1.715436843590301 -78.353675577005959 143 143 118
29.981505204145648 -1.453926735013948 -80.746338263333826 139 137 112
29.329650359846426 -1.376876029287253 -81.543875111018195 144 141 116
28.083179042734059 -1.758421218725127 -83.049958882640027 144 142 121
27.167133345254442 -1.896672166745162 -84.162327063334970 145 144 123
26.779841602985243 -1.634589453114157 -84.644899079911710 143 142 121
166.892807999660221 -2.409472051726235 82.910914810551077 160 158 145
165.042377764428750 -1.987065854910722 80.687757475386007 162 160 147
163.655033045760177 -1.402868193317254 79.017408410040900 164 162 150
160.944613869552171 -1.341324946329957 75.768215876102147 167 165 153
156.911093520117106 -1.818687469211384 70.940359937626624 164 162 150
154.729906418100569 -1.598279381808740 68.323220397204892 164 161 152
152.151792172039109 -1.554038277104926 65.232629507670680 164 161 151
149.242899480479707 -1.664190702156449 61.747576718209046 160 158 147
146.334006600654561 -1.798217976457797 58.262769774630101 160 158 146
143.623586938227845 -1.874555973638140 55.014996754208511 159 157 144
141.971701011935806 -1.533819180912284 53.030273821164684 159 157 144
139.856728019345212 -1.400743690840001 50.493215520973479 159 157 144
137.807930888629386 -1.257022051875765 48.035248214055059 157 155 143
135.229874331894024 -1.356263836899372 44.946106667608461 154 152 140
133.048790302006864 -1.305396906992232 42.330662990137569 151 149 137
130.536919414045258 -1.416466309148980 39.320839079140427 151 149 137
128.157384387709925 -1.489954067888084 36.469037068656604 149 147 135
126.108676454225488 -1.436170710652055 34.011952870003313 143 141 129
124.059991305378219 -1.399168448144237 31.555030507495815 143 141 129
122.672966151650897 -1.079993702736782 29.887256577390616 146 142 131
106.747824932050563 -1.275465931662709 10.790810378046700 140 139 121
104.897920015774545 -1.304414142981556 8.572047749757957 144 143 125
94.990348627700115 -1.183902229917182 -3.318277286231989 140 141 125
93.008332950686082 -1.382084974139895 -5.693814333199072 142 143 127
91.423418595630451 -1.389417660506391 -7.596134497439181 143 144 128
89.970905394672826 -1.340107715563907 -9.340660201184534 143 144 128
88.452256636701819 -1.337657404201526 -11.163923416320188 138 139 123
87.066016239199271 -1.276928723048509 -12.829412455941906 143 144 128
85.481273040548999 -1.334226415947438 -14.731300185907145 148 146 131
83.433275579018670 -1.655424663646774 -17.184864397873781 145 144 126
81.716231850848317 -1.812657475099550 -19.244149095467492 145 144 126
80.528724176008183 -1.692643894486320 -20.672744782903038 144 143 125
78.877949231819400 -1.838964345896166 -22.652985681086449 146 145 125
77.293401286013506 -1.961758556050142 -24.554292630788439 146 145 127
75.907468099049112 -1.985774879473427 -26.219056315974285 144 143 125
74.852549681829331 -1.833587215043996 -27.489695663944133 145 144 124
73.201938497984315 -2.029760532479673 -29.469501743920773 144 143 123
72.147131232365268 -1.897049971231022 -30.739993778827881 144 143 122
71.224783290365551 -1.696239908374427 -31.852837112661291 144 143 122
69.905305440277530 -1.734304811295106 -33.438389309212283 143 140 121
68.254868829114983 -1.977289937714442 -35.417797046695682 145 142 123
66.472056878352888 -2.311913157757701 -37.554651368367672 145 142 123
65.417525709124092 -2.227697198943290 -38.824776307537064 144 141 122
63.965814527251212 -2.389964149275785 -40.567507827193339 144 141 122
63.507278094614421 -1.964919324315775 -41.128532963902018 147 142 123
62.982628152554511 -1.583662199405881 -41.768337780447666 148 143 124
61.994582217432310 -1.489903026444577 -42.959508375898224 145 142 123
60.543098295692161 -1.689363678095827 -44.701965762570751 147 144 125
59.290303375841546 -1.777483177389233 -46.208044722351161 146 145 125
58.501092833929050 -1.586596492895965 -47.162760615869985 145 144 124
57.844404972753509 -1.318840357204674 -47.959948391639784 142 141 121
56.790463846779147 -1.307354437029913 -49.229606958655438 140 139 119
55.670358728603446 -1.346446617376779 -50.577951157716711 145 144 124
54.152940041975114 -1.648907242226112 -52.398664233325832 145 144 124
52.900472092192970 -1.792975330534514 -53.904323707533308 144 143 123
51.846749753252752 -1.818308340323551 -55.173707945773799 143 142 121
51.124266712568698 -1.636008978272034 -56.049398768613315 143 142 121
50.269392095689909 -1.546392696916595 -57.082517651532953 143 142 121
49.613316046480804 -1.332280751489022 -57.879445929451464 145 144 123
49.089819183490803 -1.035239217088370 -58.518935501692340 146 145 124
47.903958722481349 -1.185363970232884 -59.945538541003089 145 144 123
46.983143245670590 -1.166669480668425 -61.057240393847167 146 144 123
45.863639615659537 -1.289888454738751 -62.405006383435222 145 143 122
44.147888157092538 -1.828308798229735 -64.460985543618165 145 143 122
43.426008716157668 -1.699483348347915 -65.336414692667745 147 145 122
42.505430205140598 -1.713388633346109 -66.447894343278932 146 144 121
42.181301253241074 -1.320957304644445 -66.851166081120567 145 144 123
41.327152931715318 -1.300781231454163 -67.883917638301142 146 145 125
40.274263522802627 -1.426904653367469 -69.152662861067029 145 144 124
38.956327371927358 -1.748596051461225 -70.736033091240358 144 143 123
37.903527430987594 -1.892647908357003 -72.004636568790062 143 142 124
37.712439930736267 -1.429676296601524 -72.250563217801187 143 142 122
36.792356103564217 -1.491720090082567 -73.361784009617679 144 143 122
35.673468286016089 -1.704746334071884 -74.708920170432549 144 143 122
34.952377218462019 -1.637704970916650 -75.584090499962883 144 143 122
33.245245948483472 -1.715422183237255 -77.648935777585535 144 143 122
32.259173384554799 -1.862393452688516 -78.838572467674567 142 141 120
31.869930127216392 -1.573683745140059 -79.320484971156048 140 139 118
30.238703364524184 -1.075381408867676 -81.316713078546201 140 139 118
29.054023757974761 -1.404674816972941 -82.742036761610848 142 139 120
27.935694470702117 -1.692805055523570 -84.088667038250037 143 140 121
26.950062169919647 -1.887984225835444 -85.278018120577968 141 138 119
184.032460161030428 -1.168673796146934 101.637300842269269 180 177 172
174.012284782493396 -1.296989916654550 89.692547596371952 162 160 147
169.100785309432183 -1.980080778936413 83.845666022358984 160 158 145
165.650005833857932 -2.153013340964069 79.733625161061809 164 162 149
164.191165659538115 -1.595608579145085 77.986896184490831 165 163 151
161.537159912845993 -1.510207231623211 74.821328960747053 165 163 151
156.359975700018936 -2.427993267322194 68.660530351185884 165 163 151
153.639551717023380 -2.422436411497482 65.416700378569971 164 161 152
152.911141309928098 -1.648045697734710 64.537750493779981 165 162 153
150.257136379199665 -1.652232112414673 61.373105051523339 162 159 150
147.271128286307743 -1.812682393676222 57.814602861910686 160 158 146
144.683532085624904 -1.834447665205143 54.729227543755201 159 157 145
142.361553329730981 -1.767553221985300 51.959304671172220 158 156 144
140.305199706151257 -1.608743242149796 49.504797052666049 157 155 142
137.850441838324087 -1.634713222393189 46.577633382424153 157 153 141
135.860526299020790 -1.482876029732640 44.202272671452477 157 154 142
133.605012280704926 -1.461443834666976 41.511880146913228 153 151 138
130.619054094115086 -1.775316507705785 37.954933336048100 152 150 137
129.160442833295946 -1.444754648285534 36.210429855993510 148 149 135
126.904983159503061 -1.478295667310325 33.520577200129651 145 146 132
124.715950174829857 -1.500621338409411 30.909689683592603 144 142 129
123.058204479884623 -1.301675198872995 28.929229566209699 145 143 130
121.068446764992714 -1.267059535449235 26.554999972668043 144 142 129
119.477174058587053 -1.066069025849946 24.653577246610553 145 143 130
115.497802243161900 -1.074687110453691 19.905850698010653 145 142 127
106.280437105562527 -1.024203677850174 8.905501930076355 142 141 123
94.015170540639943 -1.254665061749983 -5.733358042569193 142 143 129
91.959482200894882 -1.502226515182191 -8.184000945275386 143 144 130
90.501644482684000 -1.453556639982655 -9.925972829658292 143 144 130
89.110279139290355 -1.381659318780548 -11.589125077155217 135 136 122
87.519680022424808 -1.426968410262251 -13.488334760615658 138 139 125
85.995550917352347 -1.449584974725317 -15.308718170537588 146 144 129
84.272175241522874 -1.592114641552675 -17.365125032929143 146 145 127
83.146717799997788 -1.423468348912777 -18.713047055307555 145 144 126
81.622723306352967 -1.482295577473336 -20.533122128318894 144 143 125
80.165206179556193 -1.516786816371658 -22.274391363411411 146 145 125
78.109813659549033 -1.895547104915398 -24.723825289747822 146 145 127
76.187314010448617 -2.216555350124730 -27.015711410960563 144 143 125
75.261418368543914 -1.990862067985281 -28.127113672796298 145 144 124
74.269151811725067 -1.810355514250930 -29.317158071662618 144 143 123
73.077626202003415 -1.751906381617910 -30.743197879032806 144 143 122
71.819714125957319 -1.741354872318147 -32.247844479088968 144 143 122
70.229629279218031 -1.933809133774032 -34.145785548461049 144 141 122
68.905368540326776 -1.983733730702481 -35.728927549614724 143 140 121
67.248912999897925 -2.239924446531125 -37.705319920202641 145 142 123
65.858290693510682 -2.351947287884468 -39.366934451429785 144 141 122
64.467712813921111 -2.475183957804371 -41.028454806713853 146 143 124
63.608814758936830 -2.290146808530205 -42.060631105563829 149 144 125
63.215186982556475 -1.830498942540258 -42.542205622501314 149 144 125
62.555828739328632 -1.535799565340102 -43.338393236970518 146 143 124
61.032570740553240 -1.776099916696413 -45.156952652585687 146 143 124
59.442883514144853 -2.069717851838825 -47.054042613647653 146 144 125
58.318478885474704 -2.087073355697645 -48.400553688156521 146 145 125
58.124672969529527 -1.531419878434002 -48.646133877418663 145 144 124
56.867476753433237 -1.646661248733941 -50.149828093118430 146 145 125
55.676800667271806 -1.729880179062472 -51.574816049107852 146 145 125
54.486176826167281 -1.822647088190208 -52.999730716811257 144 143 123
53.627988230852822 -1.711626883048657 -54.031484525146539 141 140 120
52.238041464585947 -1.950935114218482 -55.692112019991640 142 141 120
51.645911715329845 -1.682857414385710 -56.409328600317764 143 142 121
50.987394265176462 -1.462875035305280 -57.205149347715576 144 143 122
50.195994494858923 -1.335567128526639 -58.158163473571193 145 144 123
48.806266381812193 -1.610830334091094 -59.818525468753677 147 146 125
48.546946915138520 -1.143983687195571 -60.142708951511707 147 146 125
47.356814923085039 -1.303176855752021 -61.567175159257147 147 145 124
46.632219935496224 -1.157873961953765 -62.441474810703426 146 144 123
45.109691848282594 -1.559870358011065 -64.258718994890557 145 143 122
44.784263725003385 -1.156754906437502 -64.661479190641273 147 145 124
43.069604569122717 -1.092991659321926 -66.724179482894414 145 144 123
41.281183435956905 -1.718566432417252 -68.855355480434042 146 145 125
40.224438635237334 -1.846986755406022 -70.122232653818060 144 143 123
39.500352526429623 -1.749880333354718 -70.996279640633389 146 145 125
38.643302803632039 -1.752554306508221 -72.027407970384814 144 143 125
38.052438686580828 -1.572618463777028 -72.744322736405678 143 142 123
37.395143076477510 -1.444837705122327 -73.539778930298183 143 142 121
36.671405129190120 -1.370037065967694 -74.413762871762572 145 144 123
36.213912142962755 -1.108188263308063 -74.973607331016780 144 143 122
34.167969085768092 -1.423060212108985 -77.428219482748347 144 143 122
32.379727137889830 -2.156216138661469 -79.558373815058644 142 141 120
32.388445369489233 -1.573299557542442 -79.568544840373818 140 139 118
31.665179382629802 -1.535036094325420 -80.442378470582582 140 139 118
30.609175526494425 -1.751574968117583 -81.708703060805533 140 139 118
29.886055666489483 -1.725932273013541 -82.582476685694331 138 137 116
29.828752346319291 -1.201952480046786 -82.671315445898557 142 139 120
28.506643226420195 -1.640800248393032 -84.251483392621310 144 141 122
27.517446327757497 -1.835511527873259 -85.439133999777169 140 137 118
183.371820423326341 -1.800752304417825 99.077523921985630 178 175 170
181.307890852407297 -1.360397531517541 96.623742528727433 173 170 162
178.111063062493230 -1.348291383353562 92.831742894766307 169 166 157
174.980862133450159 -1.337806350144534 89.118744770813379 163 161 149
166.721153334477748 -2.143792601028546 79.331955839563818 164 162 149
164.723834646804363 -1.788250364836200 76.958039931050905 168 166 154
162.126733891911726 -1.678997941892857 73.875862928103601 166 164 152
156.264084892307324 -2.856309004344226 66.937070895229851 165 163 151
154.066828536832531 -2.646125364433170 64.327724075956127 165 162 153
153.202479022070406 -1.926544194549910 63.292653406641818 166 163 154
151.271834505533889 -1.640232479818649 60.998412312653187 163 160 151
147.941641153362781 -1.934728698984636 57.051652548886750 159 157 145
145.677786388121206 -1.821482996592966 54.364305126532997 159 157 145
143.147356316599200 -1.836478838247865 51.362370931914199 158 156 144
140.083754313235005 -2.093844069035224 47.731128112442747 157 155 142
138.019876903118131 -1.956272592787952 45.280438466213269 159 155 143
136.555858758829629 -1.581142889651711 43.538062861472838 159 156 143
135.158521778892975 -1.189401531191698 41.874475109077707 154 152 139
132.361565872289816 -1.413921299986654 38.558767155743539 153 151 138
129.964522654503014 -1.486738728168535 35.715334103987800 150 151 137
128.433965075176843 -1.197551480044676 33.894816500834082 147 148 134
126.236920284336108 -1.216976269291469 31.287731944671293 145 143 130
123.973244059777812 -1.284146067640717 28.602156216448748 144 142 129
120.776437040246719 -1.791931536049076 24.815498151588201 143 141 128
119.712570980733332 -1.351946304571742 23.546176880086932 144 142 129
118.448788195586303 -1.012694413006840 22.040955328982022 145 143 130
116.451834704878024 -1.024381343069629 19.670644785781064 144 142 127
108.864263180654049 -1.040842053614677 10.662769552380098 143 141 126
101.810508441254584 -1.038244681370355 2.286193103833511 141 140 122
93.627486709542808 -1.028511253312112 -7.434820385049562 144 142 126
91.630986421354578 -1.254005868790335 -9.803146908868825 143 141 126
89.967869886878617 -1.320462036783054 -11.778305715751912 141 139 124
88.304792698320483 -1.400355726394566 -13.753345026426700 138 137 120
86.975123737364839 -1.315775948497544 -15.335284273781895 141 141 124
85.578831724152181 -1.277764697770470 -16.995730812978366 145 145 127
84.382618843934083 -1.142634296205800 -18.420317565032121 144 143 125
82.919752189445092 -1.162709777327512 -20.159175993050013 144 143 125
81.123535308547361 -1.377914924207487 -22.290846672310863 146 145 125
79.127307443539678 -1.718443083680344 -24.658119424389781 146 145 127
76.464277182680917 -2.447217972483453 -27.810988626482185 144 143 125
75.535019037683654 -2.222995438140923 -28.920767139218157 145 144 124
75.005944318203049 -1.779669662210662 -29.559094061218190 144 143 123
74.343585480005004 -1.416557716221549 -30.354550406276957 144 143 122
72.280844122383655 -1.862972805342686 -32.799772269039153 144 143 122
70.684950244275015 -2.056054289266431 -34.694927861399918 145 142 123
69.622631929916835 -1.951241037684199 -35.961539475313202 143 140 121
68.026823718323840 -2.167851401364357 -37.856493855662166 142 139 120
67.231403742607085 -1.924651077157209 -38.808777667906867 144 141 122
65.502290151107843 -2.243011657705730 -40.860629615185104 147 144 125
64.707002141881787 -2.016239676192368 -41.812807454562375 149 144 125
63.778389958435170 -1.876180052290776 -42.922028661973030 149 144 125
63.049962449839612 -1.622070086228148 -43.795614854361247 148 145 126
61.254319681753302 -2.025733269796453 -45.925620293978369 146 143 124
59.525401488282753 -2.402846675795756 -47.976960946656533 145 144 124
58.330187427678254 -2.463506407683865 -49.400010164389641 145 144 124
57.535304548441800 -2.284297860290714 -50.351892222244032 145 144 124
56.873933117366079 -2.027676236853396 -51.146724781099380 146 145 125
56.279370151819464 -1.734114173490145 -51.863039642448513 145 144 124
55.751623675416923 -1.402785777480595 -52.500849146090076 142 141 121
54.890365985548229 -1.288854127586363 -53.531164679074038 137 136 116
53.095032269148120 -1.782868951143238 -55.660387933139390 137 136 115
51.900253282720158 -1.902439596372881 -57.083038889241891 141 140 119
51.172638047625256 -1.727141456401136 -57.956202420770950 145 144 123
50.378376864230248 -1.601302046613503 -58.907832540441206 146 145 124
49.183780900533563 -1.745916309843651 -60.330313267450151 149 148 127
48.256188642779534 -1.722822920445191 -61.438818411605581 148 147 126
47.662376335020483 -1.484140152589037 -62.154927484909621 148 146 125
47.135408891959102 -1.205179819873786 -62.792570624648363 148 146 125
45.941067490215843 -1.381588276758495 -64.214845859615906 147 145 124
45.080526665491163 -1.340472864492102 -65.244754804313914 147 144 125
43.693459589786471 -1.048745161551024 -66.912226152892543 145 144 123
41.965266994506692 -1.627614588984025 -68.961837153175907 144 143 123
41.104998629852375 -1.615762580940161 -69.991575218917319 144 143 123
33.766628436866910 -1.518832914181645 -78.787258044346714 143 142 121
32.706688684068084 -1.720610661662298 -80.051851658785495 142 141 120
31.513176670624347 -2.029906816304615 -81.473155790442576 141 140 119
30.586935091957272 -2.149365391813860 -82.580839735856728 141 140 119
29.928015592327895 -2.075644231762063 -83.374962603960569 137 136 115
30.137859229047706 -1.351837094351260 -83.150224936196963 140 137 118
29.412359845884865 -1.335264466277691 -84.022766842606956 143 140 121
27.283509772244713 -2.394326603840579 -86.540915123310953 142 139 120
184.167935829939921 -3.093353839918622 98.266534897587206 178 176 171
182.029574082591751 -2.669107625668282 95.737668530966516 178 175 170
181.830871286360832 -1.568512397201866 95.488821633247568 174 171 164
177.351529430679534 -2.018049393203437 90.208805443562738 171 168 159
175.748246521365843 -1.451965485967625 88.309370267659801 165 163 151
173.141678508873895 -1.269999610292616 85.230973892199955 162 160 147
166.256353376810324 -1.601616236444068 77.109838184173952 167 165 153
161.308696548358824 -2.384230025627698 71.281278604525227 169 167 155
158.768983751992749 -2.277463908445082 68.282531876642963 166 164 152
155.894830168827554 -2.321788517914611 64.891041302946974 165 162 153
154.358462517694051 -1.862208382485231 63.071549278643516 164 161 152
151.016089971705981 -2.134218366245968 59.130384537335289 163 160 151
148.476396187880709 -2.110501173941648 56.132483578222633 156 154 142
146.739402160697352 -1.781298086242305 54.077735906218464 159 157 145
144.065948559212302 -1.850444229196825 50.923063304503472 159 157 145
140.656688247140892 -2.246162801448419 46.904311950943992 157 155 142
137.782564796753263 -2.445622067163712 43.514403840780147 158 154 142
137.182822278465210 -1.707590248641633 42.795991709236148 158 155 142
135.847293824168048 -1.288259515624541 41.213409863665419 154 152 139
133.575275449954091 -1.282966625358755 38.531079096387629 151 149 136
131.169484908927757 -1.354228505071161 35.691814722044541 150 151 137
129.031295227149542 -1.327612030411017 33.166959042506591 148 149 135
127.026921775965874 -1.259087912629192 30.799372530353594 145 143 130
124.955676875467390 -1.236678447143053 28.353392886698202 146 144 131
121.613389254203625 -1.803984204372898 24.415227145433050 143 141 128
120.211171375676486 -1.515992911814329 22.755042349741160 143 141 128
119.076594766427448 -1.116552960986041 21.409107230879414 144 142 129
116.737854607334512 -1.283704581812409 18.649612109845435 143 141 126
111.595047355359725 -1.008780093831510 12.570949396380826 143 141 126
109.457125216035408 -1.147833257919395 10.047671046266885 143 141 126
107.185418340150591 -1.368808054936028 7.367520346228503 143 141 126
105.850419457605071 -1.151818315272280 5.786767952838943 145 144 126
104.047119617275641 -1.175647287128889 3.656515805983190 139 138 120
102.043130689133150 -1.313438241637040 1.290869044008161 148 147 129
100.641354369135541 -1.166734594759815 -0.368072647056891 149 148 130
92.161078902339213 -1.367290532817962 -10.388151893572200 144 143 125
90.157325761573304 -1.609553148454174 -12.752836076129910 144 141 124
88.220516872533452 -1.832660227158293 -15.038884451891761 143 141 123
86.886006636412802 -1.751165730911982 -16.618475891448526 142 143 125
85.752309416270151 -1.572835902339385 -17.962555709479943 146 147 129
85.220967924006345 -1.078491694737774 -18.600323373497019 144 145 127
83.618943885566154 -1.170629514520760 -20.493585382012299 143 144 126
81.548489124616452 -1.532299702898855 -22.935989500897136 144 145 127
79.411127901474813 -1.947585001688859 -25.456692795260579 141 144 125
76.872215940527738 -2.603343193310272 -28.447973594292392 142 145 126
75.872670931921078 -2.417527472126136 -29.634590656699572 142 143 125
75.676363848522939 -1.786650824186874 -29.879748605910152 142 143 125
75.078569523720688 -1.385359927355335 -30.595626503068786 144 143 125
73.209113060467573 -1.716404905995003 -32.801926104514337 144 143 125
71.272743777224377 -2.101052689857477 -35.086521966553192 145 144 124
70.407398736384508 -1.879816368448070 -36.115986665732009 142 141 121
69.274370847038483 -1.821895427633933 -37.459147260152292 142 141 121
68.476112600240626 -1.576079318886390 -38.410100178824905 144 143 123
66.539893735091113 -2.010767215615112 -40.694252912344467 146 145 125
65.139253035917491 -2.141575692833914 -42.350881308815701 146 145 125
63.738656466078510 -2.283591537468946 -44.007415453546429 147 146 126
63.141500767078909 -1.951090294379955 -44.722890780637158 148 146 126
61.874919760827638 -2.030739801291210 -46.222461709824756 145 143 124
60.541435508193274 -2.161519986473319 -47.800358926431045 144 143 123
58.873214714575610 -2.509431633466955 -49.770178710600220 144 143 123
57.740685669768453 -2.538171874798354 -51.112685903455315 144 143 123
57.277826049224416 -2.157494655236191 -51.671186143837133 145 144 124
57.216854119451725 -1.527656876651106 -51.759359503206952 145 144 124
53.820150208346817 -1.700574346776284 -55.786411199618811 135 134 113
52.152237783118451 -2.121890962521702 -57.755622911949587 139 138 117
51.555964080300882 -1.860817174459960 -58.470784944313834 143 142 121
51.428645966265194 -1.298025954781794 -58.637387257556270 145 144 123
50.162768093891273 -1.484567188728773 -60.136194273336514 149 148 127
48.428035827119075 -1.991348713473929 -62.183418754190228 147 146 125
48.033068192970973 -1.620387234305182 -62.663439394232455 147 145 124
47.839193577134935 -1.117782972964489 -62.908440655473186 150 148 127
46.573546630876493 -1.338586710334042 -64.407005464355734 149 146 127
45.307938194048617 -1.569463643537868 -65.905485007552869 148 145 126
44.712376077911188 -1.353574283678568 -66.620522354527594 146 143 124
44.250924781589589 -1.050327511214024 -67.178899301900429 146 145 124
42.985497721091036 -1.305356426559394 -68.677217006426702 145 144 124
41.921137938717948 -1.430920786570959 -69.940480596551282 144 143 123
34.221450876671511 -1.567344002001833 -79.115203076472113 140 139 118
33.627042316442783 -1.424239225419917 -79.830043072359956 142 141 120
32.831573446324555 -1.434318167254882 -80.779696362968650 142 141 120
31.902063579262915 -1.550244197743788 -81.885853132678079 141 140 119
31.442058453393074 -1.322633778719048 -82.444143360055591 136 135 114
30.579765579691525 -1.400775357423636 -83.471986558410947 139 136 117
28.979735041011594 -2.043066270100807 -85.360539248220107 144 141 122
27.916287331648164 -2.290587016265879 -86.622983812597852 142 139 120
187.718208228851211 -1.054067794951207 100.648884097610704 179 176 171
178.324128104151839 -2.058601065291203 89.633076105774592 171 168 159
176.647893890122759 -1.517122760261215 87.657934976895177 165 163 151
173.830447254170963 -1.409709725797081 84.348612967152405 163 161 148
170.274552154010621 -1.600157881971077 80.176180472240105 166 164 151
167.389958766025302 -1.566640005698488 76.788882993574902 167 165 153
164.303964994785474 -1.633112191152668 73.166387361090443 168 166 154
159.808178647787486 -2.266704613651674 67.896132734650962 167 165 153
157.460629034690641 -2.101847701840996 65.137434495603003 165 162 153
155.583023941624504 -1.771483682208121 62.928224955646215 164 161 152
151.691405775864752 -2.255204201039454 58.365125599708193 163 160 151
148.538256030625007 -2.474476515336896 54.665471118559879 159 157 145
147.399168356152813 -1.904100199340152 53.319934543960528 159 157 145
145.521617474576658 -1.644815847065086 51.111430728136270 160 158 146
141.764261201732324 -2.176682769030577 46.706314307793832 157 155 142
139.953875411049154 -1.927362738063978 44.576640395394293 159 155 143
138.814894500976891 -1.410124676815386 43.231599723822512 157 154 141
137.407398688903584 -1.016198788706012 41.572849435438854 153 151 138
134.388595518414149 -1.324768739788428 38.031560968707169 151 149 136
131.571216129695699 -1.570506529181553 34.725841946956109 148 149 135
129.626673972470087 -1.457581635910369 32.440034194291400 146 147 133
127.950724727285376 -1.241909824265781 30.468110427201225 148 146 133
125.804814047202910 -1.248922184732775 27.947294605280320 147 145 132
123.323212520419929 -1.424001075065390 25.034507702387913 144 142 129
121.781640116161398 -1.193177189729032 23.219860317138540 143 141 128
117.825723754149948 -1.171329814482792 18.571458048661867 142 140 125
115.679944163552221 -1.262401036057757 16.051444774065686 142 140 125
112.194238706065775 -1.115066715770599 11.952815714891159 146 144 129
109.914248925783312 -1.318830552350976 9.276450366863287 144 142 127
107.701430999760603 -1.508633412051798 6.678665411575565 141 139 124
106.025844576512895 -1.455520944209429 4.708241376702887 142 141 123
104.484601735288180 -1.350155026657961 2.894727731514934 146 145 127
103.346321379821475 -1.058370824074553 1.551672626846653 147 146 128
101.603710948299835 -1.076351308677929 -0.496814441653754 149 148 130
99.659672903493671 -1.209360288422711 -2.780331839070470 147 146 128
97.581353354048716 -1.425888353979976 -5.220467490880708 146 147 129
96.577581687587085 -1.111627541933727 -6.406384684503365 143 144 126
94.767968669336284 -1.219264741669969 -8.532753948490154 144 143 125
92.824070964233755 -1.410953219418224 -10.815734466389017 143 142 124
90.342912516666914 -1.898514488518732 -13.725516798757326 145 142 125
88.802039428497423 -1.911769419932384 -15.537986308551098 146 144 126
87.261210826794994 -1.937371750158639 -17.350350002539471 143 144 126
86.324915069922497 -1.652691984762344 -18.457384062527609 147 148 130
85.791690009169642 -1.158749056911040 -19.094246503261758 144 145 127
84.116692357980142 -1.287633100605035 -21.063078823148459 144 145 127
81.837205139593991 -1.759898611226515 -23.736920772450276 145 146 128
80.027927301236943 -1.991933662088241 -25.862169895775537 141 144 125
78.353025788228109 -2.164058394932112 -27.830603109702650 143 146 127
77.014032994851917 -2.162204550075951 -29.407230328000566 144 145 127
76.010973167056889 -1.982289324209311 -30.592105176193314 142 143 125
75.142338012839900 -1.734294628248684 -31.620271333801611 144 143 125
73.870700978029774 -1.722938384796962 -33.118360244163085 144 143 125
72.061667213099994 -2.030249638228670 -35.242951275610778 145 144 124
71.260408958406899 -1.769463986301236 -36.192623089817488 144 143 123
70.190490623025880 -1.671438402946824 -37.455529010845197 143 142 122
69.322199841647304 -1.463750527589493 -38.483445016886009 144 143 123
67.513338459368839 -1.818103856569308 -40.607634287887720 146 145 125
65.099777152065855 -2.546300548457760 -43.436418994242587 146 145 125
64.298837499013331 -2.329039854424099 -44.385795202125422 147 146 126
63.094806658891216 -2.360922442376952 -45.804922720357581 146 145 125
62.226820000404942 -2.198631011981902 -46.832516929334417 145 144 124
61.157311358098610 -2.166233869859830 -48.094943299610264 144 143 123
59.953462459559461 -2.224891334188318 -49.513882250819051 144 143 123
58.951281934658283 -2.168402774356748 -50.697907261824554 144 143 123
58.419619121062169 -1.826941344375771 -51.333947507585862 144 143 122
57.955268824121305 -1.447445579881953 -51.891722452178470 144 143 122
57.222179377891251 -1.241028935848452 -52.762587458259418 144 143 122
56.421964763911333 -1.082984933943590 -53.711700975189331 139 139 115
54.882444237436289 -1.403488715516083 -55.521654879098321 134 133 113
53.074068528575125 -1.909110785059416 -57.644519409460514 138 137 117
52.341258947024741 -1.733459962603942 -58.515201613788008 141 140 120
51.877441405077690 -1.388470964449787 -59.072876231062935 144 143 123
50.674222337274387 -1.531339162403729 -60.491249667751788 146 145 125
48.865967672572651 -2.082506214438216 -62.613703287840366 146 145 125
48.402397899612325 -1.756501558917380 -63.171301021573640 146 144 123
48.275130905997671 -1.209690771118205 -63.337763296037025 148 146 125
47.408360885868035 -1.160059812907065 -64.364779869797445 149 147 126
45.936470909918228 -1.525868755913088 -66.095762763553125 147 144 124
45.137073269146143 -1.446570907115847 -67.044456543952691 146 143 124
44.741264080220873 -1.097733959105013 -67.523846848160559 146 144 124
39.476336915524499 -1.112885860756987 -73.762819681811862 144 143 122
38.744872635450832 -1.035581146477849 -74.633133147858189 143 142 121
35.608968803079819 -1.519603440989144 -78.338312810063513 143 142 121
34.877801728734596 -1.468692375630458 -79.208496775224233 142 141 120
33.339149953305196 -2.014783967617078 -81.016544197997433 142 141 120
33.146521753474090 -1.581967068696281 -81.261423384003024 141 140 119
32.886745482215971 -1.200147024584525 -81.584513111477520 141 140 119
31.290592234477927 -1.247966826921764 -83.481039873758391 139 136 117
29.617460709782307 -1.939910443024381 -85.444969087127561 144 141 122
28.550209354711725 -2.186680551383373 -86.705601727128879 143 140 121
194.851201437102560 -1.374253759481508 107.217080074460853 154 155 149
191.552001650127522 -1.303871806827737 103.362596105940582 172 171 166
180.576304592646437 -1.639549811065999 90.546789016989152 172 169 160
176.333783610623755 -2.022451496147659 85.596228162052000 166 164 152
173.034485849154237 -2.093361063317736 81.743245448786212 164 161 149
169.398297825186972 -2.315883770858739 77.498696087951714 167 165 152
167.311743002095312 -1.986498999991510 75.056880807757523 167 165 152
163.608158622396274 -2.286962920329891 70.734517035626794 167 165 153
160.713084369275549 -2.307524238200754 67.352790231229278 167 165 153
158.154896885195740 -2.221007852392409 64.363090171281044 166 163 154
156.742144233548174 -1.707087857644582 62.705619577311325 166 163 154
153.847083646091335 -1.790339740937664 59.324531540789991 164 161 152
151.019404063428340 -1.870020409839847 56.022030787154790 156 154 142
149.269807599099977 -1.537798530733452 53.973281003946738 159 157 145
147.654996155000219 -1.164802462926487 52.081348589699246 160 158 146
144.557825936988365 -1.414428749226731 48.466085028209733 159 157 144
141.325892968775406 -1.744947011604402 44.694406396393788 159 155 143
140.317581206839179 -1.169180393623710 43.507969358254286 157 154 141
137.557350009688776 -1.343116527158058 40.285030631951344 152 150 137
134.662359981617044 -1.596846528312352 36.905663656970091 151 149 136
132.104299188956134 -1.728541939877376 33.918149151931829 148 149 135
130.759187701577559 -1.352776261363703 32.340600233530552 146 147 133
129.279345029209253 -1.047035887652580 30.606509288007629 147 145 132
126.856125807400730 -1.171467682814568 27.776130039460185 146 144 131
123.759048362836992 -1.616855956012793 24.162837171944545 144 142 129
122.414072284197459 -1.296237261764143 22.585791130079144 144 142 129
115.885949201048959 -1.554720182444076 14.958171693791428 142 140 125
114.271557239581156 -1.413292247660839 13.068422247613739 144 142 127
112.455027112447610 -1.380132043095208 10.943912806393655 144 142 127
111.245076749049019 -1.073128961076584 9.524128847363869 142 140 125
107.679607681635815 -1.042157305812155 5.353997320217672 146 146 128
105.458849056664491 -1.261681591277644 2.760317105654678 148 147 129
103.912093428765004 -1.167708573329829 0.949558031554545 146 145 127
102.095786446381979 -1.219718031649760 -1.174181467223718 149 148 130
99.605513503214183 -1.622997763082079 -4.080471008345029 145 144 126
97.654464254468024 -1.774690318952392 -6.360441950394346 145 146 128
96.579679322375569 -1.497203442953530 -7.622866993475412 145 146 128
95.235341504340496 -1.366225576131590 -9.198266308722140 143 142 124
93.217005803383941 -1.593558979754075 -11.556127918348523 144 143 125
90.929071773339246 -1.977165482027816 -14.226841553617533 145 143 126
89.247823138697257 -2.061383814271417 -16.193143191053196 145 142 125
87.499204637760926 -2.194608111670845 -18.237569757280880 142 143 125
86.964011781580297 -1.696604064753700 -18.873532614566102 146 147 129
86.024434828772456 -1.419486683911344 -19.978919118242572 147 148 130
84.410794443338744 -1.513693464185368 -21.866602609323991 146 147 129
82.325290405445386 -1.877394490745778 -24.301786301265963 145 146 128
80.981387783475142 -1.851526412304058 -25.876311864963952 141 144 125
79.907211025772753 -1.687538958701596 -27.137859550016600 143 145 127
78.630840839591883 -1.644493693940962 -28.634010328001835 143 144 126
77.084840665003725 -1.762582673017019 -30.442947947710422 142 143 125
75.741152668419858 -1.778929429536863 -32.017141648954379 144 143 125
74.936917860732379 -1.499621225342500 -32.965580152346774 144 143 125
73.593348816599658 -1.535148992486287 -34.539633320257593 144 143 123
72.586975900605893 -1.387167600642666 -35.722594487416615 145 144 124
71.513243054437055 -1.286242156063954 -36.983705409286841 144 143 123
69.967548029342339 -1.469476578398954 -38.792118436693386 144 143 123
67.882413389105324 -1.982246967216446 -41.225944401376267 146 145 125
66.606525547424539 -2.032554714969260 -42.721365001862637 145 144 124
64.656300812469695 -2.494977555029230 -44.998531885570856 146 145 125
63.582820540320313 -2.446824150699706 -46.259220428865575 145 144 124
62.779178986509095 -2.244159901850709 -47.207153808143858 144 143 123
61.975620576008041 -2.047779999464853 -48.155062274961608 143 142 122
61.104697657788037 -1.898972151430122 -49.181112994059674 144 143 123
59.964051919015844 -1.923249043018069 -50.519783131844690 143 142 122
59.363089567775646 -1.621817692448283 -51.233117551539721 142 141 120
57.682938899825572 -1.998816623223785 -53.196930714696293 140 139 118
57.014677060640679 -1.753395949028920 -53.988351628933117 142 141 120
55.941745886861440 -1.769101360239539 -55.248645528137644 141 141 117
55.678438973020263 -1.278039858480314 -55.571170685504200 137 136 116
54.403268202660144 -1.436971129700932 -57.065816213957646 136 135 115
53.532957432092033 -1.345090210690193 -58.091573804916067 143 142 122
52.527782233329916 -1.347514336873421 -59.273559756339012 144 143 123
51.725099219484719 -1.225728010955287 -60.221119180761150 146 145 125
50.720067668979084 -1.243095165267914 -61.403020036922328 146 145 125
49.107773707336904 -1.669573946894246 -63.287927409901442 145 143 122
48.710204159164661 -1.301463773418790 -63.766673953271294 146 144 123
47.502908784390939 -1.477854945271798 -65.182752229867077 148 146 125
46.633112087940106 -1.436734679260457 -66.208233247219795 146 144 123
45.358428293838372 -1.676477029874277 -67.702279914409843 145 143 122
44.893750943609987 -1.374793088949458 -68.259097441641501 146 143 124
44.361691274370003 -1.122794566801623 -68.894026946370445 147 144 125
40.015099207675618 -1.113051909727760 -74.020560006428894 146 145 125
39.281054312574398 -1.035554726466196 -74.889640896271573 144 143 122
36.809315764568652 -1.031736671529331 -77.808987690531296 145 145 121
34.994963058973056 -1.761917952014771 -79.926681345376153 145 143 122
33.653374063703239 -2.161642100032563 -81.497932905571048 144 143 122
33.527684925683033 -1.679900288510721 -81.664480233081719 142 141 120
33.267056863054677 -1.298436576788829 -81.987158798576104 143 142 121
32.871463888072199 -1.018914577870731 -82.465939045201253 138 140 118
31.192295927915325 -1.699762108058902 -84.427094666123452 139 138 119
30.729313574039438 -1.481845933343485 -84.983860810101220 140 139 121
29.861015672558409 -1.573034465850011 -86.008696924900732 143 142 124
195.878994174229319 -1.414613771129205 106.614944112952571 150 151 145
191.959317301223365 -1.554612589586859 102.061729846251040 173 173 166
187.836759802890924 -1.797054418924468 97.274050817901610 178 178 170
185.269384777155580 -1.522668714293719 94.286812213113080 182 179 170
177.024149327000998 -2.160766606600689 84.713088892025667 168 165 155
172.563395240368493 -2.653128277143565 79.535480078150272 167 163 152
169.387389795812624 -2.706395385760129 75.845050910236097 166 164 149
166.076134099194178 -2.835719248172250 71.998390119842981 167 165 152
164.117287826722759 -2.480885590205366 69.716935318441898 168 166 153
161.752724844744534 -2.296661659706333 66.966176862297402 168 166 153
159.050058791111951 -2.261840581168522 63.824409210718414 164 162 150
156.753131698906316 -2.090621855099668 61.152286730765951 166 164 151
155.132448073257649 -1.671635062118989 59.262690142405319 163 161 148
153.106045569035643 -1.427032341551484 56.903829788203780 155 153 140
150.809163663356429 -1.307358672366492 54.232216270336579 159 157 144
148.377046256341146 -1.260991152733889 51.404335759942256 161 159 146
144.862930494071463 -1.677432058538906 47.325101314812059 161 159 146
142.227950480555990 -1.758356477877273 44.263003205124960 158 154 142
140.066370161840041 -1.662678354091953 41.748626639873606 157 154 141
137.566671719030410 -1.726927221495363 38.843356410475110 153 150 138
135.540386673917965 -1.609686692438455 36.485750867256598 152 149 137
133.311239024788250 -1.595868359742235 33.893682020305789 150 148 135
131.623151972232250 -1.365258197882047 31.927411170713953 148 146 133
129.664576190437060 -1.266579702884095 29.648463701274324 148 146 133
127.029714278300261 -1.482322237066291 26.587696842875403 148 146 133
124.800659221411749 -1.538296904277954 23.996302114522820 145 143 130
123.045059061272255 -1.399205392390791 21.952412466702071 145 143 130
121.830566010219911 -1.028664819311805 20.534147690560928 145 143 130
119.533965114928066 -1.163152730245004 17.865015951111559 143 141 126
116.290485621967633 -1.753218190048242 14.101532786845013 143 141 126
114.602646319813545 -1.644743932593433 12.136400620530026 144 142 127
113.117758834546720 -1.454441932634038 10.405911361377747 144 142 127
106.637533458933063 -1.074580087690035 2.859665907556035 149 148 130
104.408797955289501 -1.310073625429750 0.269966183943296 146 145 127
102.044797397870369 -1.630164849827010 -2.475870164946997 144 143 125
100.086685473344104 -1.767121147692765 -4.752614034818436 144 141 124
98.263897351429549 -1.851819511122645 -6.872916495338472 145 144 126
97.117620679558712 -1.608928831968325 -8.211642904049484 147 148 130
95.565511475651192 -1.582044525377133 -10.019150267929319 144 143 125
94.013447954439769 -1.567516552506649 -11.826552296304186 144 143 125
92.123172732358896 -1.740475572034771 -14.024519533080024 145 142 125
90.638846556299100 -1.716708552106351 -15.753563092423377 144 142 125
88.951605784829383 -1.811454140483806 -17.716889749804210 142 143 125
87.535027266008456 -1.776261496313130 -19.367602280920750 146 147 129
86.456785535752758 -1.571753261231462 -20.627622397797126 149 150 132
84.566705343091257 -1.812398812358417 -22.824986204506132 148 149 131
82.947295252126054 -1.921466156903185 -24.709756520984854 145 146 128
81.936882919105727 -1.711044863850869 -25.891427970154609 141 144 125
81.806166389849892 -1.024984479036118 -26.057673364646377 141 144 125
80.322259835162782 -1.089282514261606 -27.786011171563302 142 143 125
78.297064767107230 -1.467316493609592 -30.139040046750097 142 143 125
76.271887852729094 -1.861476936895179 -32.491911608799342 145 144 126
75.058774248661237 -1.812286704049208 -33.907528487164996 144 143 125
74.251755031410795 -1.541312554933413 -34.854549151951005 144 143 123
73.309469762340044 -1.354322903575391 -35.957712276414753 144 143 123
71.825849306794510 -1.487589855555040 -37.685477020473229 143 142 122
69.936202266920915 -1.868892418943507 -39.881600192704013 144 143 123
68.384975210536595 -2.066961697985730 -41.687214012671291 145 144 124
67.307563232427924 -1.997855195568645 -42.946237322076399 143 142 122
66.027163598277269 -2.057820476600308 -44.439400086668741 144 143 123
64.002260510158166 -2.573078885271076 -46.791156124069602 144 143 123
63.466522866891523 -2.208085120247306 -47.425489215430105 144 143 123
62.524738345404074 -2.093292981911051 -48.528148730550868 144 143 123
61.786110697272548 -1.862000671201959 -49.396620337559057 143 142 122
60.573697823650747 -1.927383951069858 -50.811393080244983 141 140 120
59.293641170970801 -2.044156849430116 -52.304135176654427 141 140 119
58.284439839471901 -2.002581589483172 -53.484647947761403 142 141 120
57.275307912245481 -1.968911066369727 -54.665112554207127 141 140 119
57.011020198934546 -1.473892725344588 -54.987209230203547 140 140 116
56.543733168347543 -1.109542506436989 -55.543423350777005 141 140 119
55.670286031621799 -1.007942482019289 -56.567780558550595 142 141 121
54.255197547043139 -1.260987655575001 -58.216238940285081 141 140 120
53.314170327614221 -1.218920002068648 -59.318512156458809 144 143 123
52.508659829156841 -1.096125712254362 -60.264729297412998 146 145 125
48.941224692387692 -1.527666444362556 -64.429159391368955 144 142 121
47.594131991813398 -1.795504116223390 -65.999135571564494 147 145 124
46.856706769454959 -1.665311139633895 -66.867141748706928 145 143 122
46.119373013718544 -1.540783624887472 -67.735133365722902 145 143 122
45.788596551001206 -1.146170885932297 -68.135247411526649 145 142 123
44.178927873143977 -1.015111670490119 -70.027149729956648 146 143 124
43.103199695380596 -1.146029301085612 -71.284919614790738 146 143 124
35.787187044810651 -1.564945285374264 -79.864270583610733 145 143 122
34.034057286194354 -2.259062215201341 -81.900765429993726 144 143 122
33.975808818071968 -1.728113821863846 -81.989223765961697 142 141 120
33.239722574689011 -1.695607711786868 -82.856864966065672 142 141 120
32.910564105111234 -1.367995143645352 -83.257063387825127 140 142 120
32.106871218351770 -1.395427793584569 -84.202603706626945 142 141 122
196.499089663316738 -1.593480319020804 105.544121525271606 145 146 140
192.972457363155428 -1.594931864229856 101.466603255004344 168 168 161
189.649387694214056 -1.553738666346857 97.623839010713652 175 175 167
187.208509090640661 -1.228376268624507 94.797277992286695 182 179 170
174.660350088940390 -2.273270493217069 80.302136158086569 166 162 151
