ply
format ascii 1.0
element vertex 673
property double x
property double y
property double z
property uchar red
property uchar green
property uchar blue
end_header
113.543883910889690 -4.562412187242987 -86.878336705704783 140 137 120
113.485040540174907 -3.922571903338775 -86.967631321243857 140 137 120
112.128591394344312 -3.880681924117322 -87.982025167804011 140 137 120
107.804713773008089 -5.222977811852294 -91.110047600147112 138 135 118
108.581140877668531 -4.210119467572040 -90.605042446037515 138 135 118
106.297099044587753 -4.630212921427328 -92.279512552186333 141 138 121
109.765123931594289 -2.343738271524672 -89.860360860876000 141 138 121
106.924761228454031 -3.038156741540606 -91.931018514019172 141 138 121
102.227740917549283 -4.638673517691021 -95.321308305057130 141 138 121
101.706816585955380 -4.254542935390306 -95.741207248978895 141 138 121
100.257795990528436 -4.323355728439817 -96.821034597033702 141 138 121
100.665964608811734 -3.494212926216800 -96.581400308642486 142 139 122
99.124408934504032 -3.619704092955334 -97.727234658091760 142 139 122
94.145789336769496 -5.452526327277999 -101.312993733532153 143 140 123
93.253900427504135 -5.283478800822892 -101.996646076795685 140 137 120
97.937845590397444 -2.330414278918910 -98.724882518095995 138 135 118
95.932063094653088 -2.715065201113452 -100.200259110455136 143 140 123
92.624578105274594 -3.770594143724283 -102.598024396124742 142 139 122
92.291749320359244 -3.330758512997869 -102.886763235046260 140 137 120
93.261335086279828 -2.225199510028220 -102.253400966998754 142 139 122
90.883212074810743 -2.838895111517779 -103.991729000647439 140 137 120
87.574315038058330 -3.949317125171817 -106.388253725737286 136 133 114
82.961826766780192 -5.759456727111242 -109.705966716809257 138 135 116
83.001773830011857 -5.156627565002162 -109.731282478333185 138 135 116
82.390629355274470 -4.896707941056355 -110.217600734151773 138 135 116
83.642111878051097 -3.651525205081120 -109.387957470786347 137 134 115
84.242764502940688 -2.745659972078858 -109.019478844056721 138 135 116
84.285329699530664 -2.135294547376498 -109.046124686141809 140 137 118
81.160455733647410 -3.234480882245188 -111.309083302202225 140 137 118
220.946201340209427 -5.107519703944598 -8.770448566936778 112 112 103
217.549893116975454 -5.176953295971449 -11.246730381726280 122 119 110
214.893133405305349 -5.036980445444326 -13.192094115833982 124 121 112
215.935110366771312 -3.754287682868730 -12.484327989450691 127 124 115
210.596725906717836 -4.482321442340792 -16.352784470380072 127 125 113
208.309843384116306 -4.268132102284663 -18.032424591833262 126 124 112
206.115458580744701 -4.037565031277156 -19.645625004402092 125 123 111
204.661084743511935 -3.579321012888464 -20.728316640457138 125 123 110
202.281782292511195 -3.432938878141630 -22.473904296245934 129 125 113
200.272520932426687 -3.178036790903033 -23.954199852239185 133 131 118
199.096004180934244 -2.656786975651310 -24.837889261255157 134 132 119
194.403515591065371 -3.327016700620471 -28.239922924057112 133 131 118
193.227060608607587 -2.829816528356596 -29.123394328110749 134 135 121
189.922210496221226 -3.069224080478908 -31.530820877358252 135 134 121
188.098041813814518 -2.815985960200862 -32.877929238019192 136 134 121
185.811116608636041 -2.734833226304204 -34.556179527654876 137 135 120
184.172172210549832 -2.439121839181115 -35.770617979870451 138 136 121
179.941048071371881 -3.072652442751740 -38.839450152348320 133 131 114
177.839088840458885 -2.969419389876357 -40.384697044036699 128 127 109
176.477918909509526 -2.611257395594626 -41.400088029909995 131 127 113
174.653847393231331 -2.429363229954462 -42.746508495348536 132 129 115
174.126468495840584 -1.782612679604594 -43.166022876377554 131 128 114
172.302619894515061 -1.618078179670998 -44.512371291805522 128 125 111
170.478815030517467 -1.464177973251845 -45.858631166895918 129 125 111
169.396222122971267 -1.042486880090537 -46.675369728050782 130 127 112
166.923982770338171 -1.153197297884998 -48.484709190784685 132 129 112
160.403690509950536 -2.024247942222058 -53.227438390599815 130 127 110
158.857816214584886 -1.824169302021844 -54.374557980113025 131 128 109
157.033936255103924 -1.741664939167059 -55.720047016497574 132 129 110
152.892381487234559 -2.581979782725361 -58.718741450209166 132 129 110
150.697395341214474 -2.674869755210652 -60.328324676676630 133 130 111
148.502331744723421 -2.780662618434704 -61.937738035168053 135 132 113
147.698295031533945 -2.339384395287380 -62.555361890299679 135 132 113
145.410477531754395 -2.504378567805801 -64.230651595495345 134 131 113
142.658729048449572 -2.872330501056438 -66.236203586808841 134 131 116
138.422344784146986 -3.867449191617850 -69.298797325631568 135 132 117
138.731888083287885 -3.003320408699161 -69.123200035817121 135 132 117
135.701210198784622 -3.531644609829971 -71.326239020131254 134 131 116
133.908705385866426 -2.834082226568497 -72.693068920269098 134 131 114
132.919950317123295 -2.532394591937032 -73.442605041054406 136 133 116
134.531144775113944 -1.119654089751756 -72.343335951085578 138 135 118
129.921562758961329 -2.387493218259753 -75.668021455849214 135 132 115
125.961286962282031 -3.399938322066245 -78.529949534925322 136 133 116
123.672334883274132 -3.702975113013208 -80.203275519289036 139 136 121
122.776711026548554 -3.404282827969506 -80.886475575117998 140 137 122
121.695474929237321 -3.193182408930299 -81.701695514038050 140 137 120
118.477050675735654 -3.944754698177498 -84.034337044083770 141 138 121
122.507642868374589 -1.449344053693657 -81.221312997098465 141 138 119
119.196390904634669 -2.259317352350599 -83.619803802745452 140 137 119
114.397077826165216 -3.768324952989448 -87.072957919245027 140 137 120
110.247654290611194 -5.007254038822220 -90.063784824825802 140 137 120
107.957412774619328 -5.410816077628291 -91.735459190080491 139 136 119
107.992314007953084 -4.745233113447675 -91.759007000286402 138 135 118
104.492550754056538 -5.735593561396523 -94.287175605179613 140 137 120
107.133186629562800 -3.850571835397206 -92.465801454485614 141 138 119
103.576252358139868 -4.253677925810295 -95.083523429593924 141 138 119
103.240599407780479 -3.777233738607793 -95.371288027709824 141 138 119
99.646471001037895 -4.878779917039545 -97.964027061279864 140 137 118
98.286641569641660 -4.914104942078577 -98.976008977983724 141 138 121
98.230865187158756 -4.318558965415188 -99.066314886624241 142 139 122
98.641405432273984 -3.493158243919721 -98.827776657263342 143 140 123
96.629980715731904 -3.865905318291982 -100.300576562818321 141 138 121
93.779566880968090 -4.669071128145723 -102.365306398046272 142 139 122
91.860748909248045 -5.021546473416810 -103.771758835065611 141 138 119
91.060522159102717 -4.820412748255393 -104.388733435502076 143 140 121
90.859814457861731 -3.716184966605964 -104.636658585231174 145 142 123
90.620303774779714 -3.235929153636238 -104.859597664522767 143 140 121
88.515096176539146 -3.721617721161342 -106.397228482328586 138 135 116
83.049778380442916 -5.967750593006282 -110.300192818515455 134 131 112
84.957182547023606 -4.388828867625705 -109.011763369865406 137 134 115
86.585874199170803 -2.944533330742401 -107.921189689429724 138 135 116
84.336035777570316 -2.957081616745639 -109.616217657537021 140 137 118
85.967442290391318 -1.496974856739914 -108.527105510004418 140 137 118
220.309630248991311 -4.597394997314445 -10.355767152399153 120 117 108
218.016857328257117 -4.336840717056186 -12.033066585197560 124 121 112
222.493206708875107 -1.975461861931999 -8.877617167871563 126 123 114
213.086211196502603 -3.015790665224919 -15.674240394134273 126 124 112
210.144395274723735 -3.011603940749311 -17.814413154369731 127 125 112
206.738690914414349 -3.175061092464714 -20.285232057656373 126 124 111
203.796629582985787 -3.206845038087400 -22.424917150579176 129 125 113
200.854456321808840 -3.255926393168361 -24.564370645768975 133 131 118
199.211104568814960 -2.889656601291451 -25.777426927609554 133 131 118
198.959700942755489 -2.065184686090350 -25.998219653005918 134 132 119
193.790366256057553 -2.909257905566156 -29.724636743758481 133 134 120
189.084528967613608 -3.625303508962965 -33.119812829065154 137 135 122
186.512967518370687 -3.632866536552133 -34.993557574053227 135 133 120
186.354736231988142 -2.815856283907673 -35.147987935821362 137 135 120
183.968905329246809 -2.781218107756968 -36.889302165973987 136 134 119
181.768706918060673 -2.694856311388606 -38.498236991157370 132 131 114
177.804336976570625 -3.250861448130848 -41.362904811266276 130 129 111
176.439658646125821 -2.894844837154748 -42.376595307338562 130 127 112
176.746756671525503 -1.940251155984378 -42.200759407591420 132 129 114
175.289649698004553 -1.628860049042170 -43.280631889824463 131 128 113
172.718011920535616 -1.736858275167237 -45.153306289698008 126 123 108
169.217286722756171 -2.205262321881707 -47.686387463381266 129 126 111
166.831134446253031 -2.276671428931111 -49.426456351468204 129 126 109
165.095318705458681 -2.116453981956924 -50.704016063107673 131 128 111
159.950955939159428 -2.467974264368831 -54.447449729800923 131 128 111
159.330480509510892 -1.911866480385352 -54.932352902297282 133 130 113
157.780710805015985 -1.721225160147191 -56.077511798360092 133 130 111
151.861438544004557 -3.254776149584242 -60.324935262445649 130 127 108
149.846414974345123 -3.279157070287579 -61.799599396828995 132 129 110
151.272057197274648 -1.944183335737116 -60.832480031061749 135 132 113
146.374267196955884 -3.139228099754042 -64.352613787818541 137 134 115
144.545212351308237 -3.122025219006822 -65.694954995438962 134 131 112
143.274310856112493 -2.888055208344496 -66.641392836165863 133 130 113
140.794045852211070 -3.157786944645097 -68.445255968525800 132 129 112
138.220551523751624 -3.480612126540372 -70.314830878993689 135 132 115
136.577468956926964 -3.431101767040324 -71.524755374611146 134 131 114
134.841338678228738 -3.430164951160514 -72.800525056843952 133 130 113
136.083994962671227 -2.181079672312499 -71.966699522147593 133 130 113
134.068964907478914 -2.310081872426977 -73.440283634488026 134 131 114
132.240079921461103 -2.371113329344174 -74.781900797034041 136 133 116
125.508617375186304 -3.860310930684120 -79.638961728594069 136 133 116
124.424393139795058 -3.636835240980470 -80.452879537376873 138 135 120
123.712997154424684 -3.255373441539566 -81.003347793732445 139 136 120
121.697356467311479 -3.456147007685005 -82.475901003129678 139 136 119
118.470077234316975 -4.209559424944682 -84.804287399976289 139 136 119
116.454011105731837 -4.437738995446942 -86.276354975861182 139 136 117
119.285391969164479 -2.484788964044733 -84.325214023902845 140 137 119
115.720366474532497 -2.756867924416944 -86.940413913634245 140 137 120
111.186370263451323 -4.178053256307733 -90.188822054031164 140 137 120
110.009573912631680 -4.067046619728143 -91.068154864560768 138 135 118
107.993211595328063 -4.355229466775085 -92.539463100909472 139 136 119
110.175810389116918 -2.679841528913550 -91.051102139051665 139 136 117
108.439815173992102 -2.846242939479026 -92.325213938806684 141 138 119
108.477322410072773 -2.177729148371844 -92.350038620268009 141 138 119
101.886625283202363 -4.686817640281497 -97.042225226840827 141 138 119
102.857837038701462 -3.586613812928094 -96.409585703121451 141 138 119
96.545018179489972 -6.016840264540455 -100.902943432291607 142 139 122
97.890321543442809 -4.743416669402779 -100.007615550183829 142 139 122
98.247827130413796 -3.325015074491235 -99.860668662962951 141 138 121
95.483303465793384 -4.078314667835298 -101.856142474277277 143 140 123
91.114468587929636 -4.447628783874077 -105.083531784278819 142 139 120
91.809582736415649 -3.490887382329977 -104.649908035690999 145 142 123
90.260102606458403 -3.680578176316443 -105.791290513705889 142 139 120
88.804130759726277 -3.831040596247331 -106.866951946336485 138 135 116
83.604131490575213 -5.932719969410041 -110.565754034045881 133 130 111
88.232565163047937 -2.935743197561611 -107.378744864375250 137 134 115
87.057895532881332 -2.956722136233447 -108.257736496945540 138 135 116
86.351608823053567 -2.737101291885518 -108.808983102954869 138 135 116
84.146694480000832 -3.317260311902280 -110.408801008903737 139 136 117
85.314706138380558 -2.108794255585387 -109.649706511816930 140 137 118
222.827835953137821 -3.119660832359664 -9.691078146037825 123 120 111
216.623976623208335 -4.077117863457731 -14.140862811115198 125 122 113
214.232232189539786 -3.872299321163450 -15.881099780342112 126 124 112
212.863492556505520 -3.356723749931038 -16.894489783710014 125 123 111
211.680931218098920 -2.789415538431612 -17.775761585275632 125 123 111
208.359183629042718 -2.920578396457762 -20.176218656617777 126 124 111
203.176775987050917 -3.678307041730315 -23.897270478446160 129 125 113
199.947549560821983 -3.823430867640721 -26.230986764772609 133 131 118
197.927680176819337 -3.585720889172426 -27.706030511472562 132 130 117
197.396631711097484 -2.860779033574441 -28.124594245975061 132 130 117
191.840787561227216 -3.837766125321031 -32.108173924813968 131 132 118
188.704042734263624 -4.022340584442366 -34.374868121122120 135 133 120
184.915593991966091 -4.449501439260683 -37.103304528996034 136 134 121
186.991091410093702 -2.864100657588318 -35.673639238050868 138 136 121
185.622974341797260 -2.471339359814172 -36.686062885242109 136 134 119
184.161903366015224 -2.119280445999514 -37.764457616546849 133 132 114
179.162755135562804 -3.034832758308474 -41.349837784565409 132 131 113
177.329106439669005 -2.843852460997462 -42.691770088221489 133 130 115
176.519929366135045 -2.292853443899492 -43.308064223835061 132 129 114
175.897286836253045 -1.678386732295760 -43.792531380766945 131 128 113
171.083240407126937 -2.608782759108726 -47.244593052412995 127 124 109
166.454920115545121 -3.498666075911709 -50.564204719479250 129 126 111
167.322996680392066 -2.361859968432418 -49.993461324647029 128 125 107
165.023604307013272 -2.412712900771038 -51.664388563112936 131 128 111
161.046727975061231 -3.113802065109843 -54.521579946113206 132 129 112
158.467394010783437 -3.303582716945527 -56.389730689005916 132 129 112
157.192858105642699 -3.005360222817864 -57.335091223562813 132 129 112
155.079474217689580 -3.040396126971351 -58.873449326648682 132 129 110
150.759299423038840 -3.184271651091203 -62.015579121423258 131 128 109
150.231064525719091 -2.626500545913084 -62.433768084891767 134 131 112
146.625361337212695 -3.303962252651205 -65.025335097049947 137 134 115
143.392327517063620 -3.852289564747471 -67.353079563140227 133 130 111
140.998540604056757 -4.078541637018687 -69.087902190865748 134 131 114
141.496952973944275 -3.134786522888532 -68.781761081094572 134 131 114
139.569790841790223 -3.187996432199421 -70.187302189834043 134 131 114
137.175953847287019 -3.446251302589934 -71.921771437865459 134 131 114
135.715332389862454 -3.328120086266934 -72.997973281906098 133 130 113
136.588573687352550 -2.235145416430985 -72.429249498460422 134 131 114
132.607578583127520 -3.196293131245168 -75.281793561620987 133 130 113
129.746481295706218 -3.702414655373168 -77.344470095772550 134 131 114
128.379305161681287 -3.582549646015774 -78.354534824106054 133 130 113
124.957322489206959 -4.360821339285369 -80.811237643717845 136 133 116
126.392557901626304 -3.040302361395249 -79.848558836848099 138 135 120
127.361545392292115 -1.915686299171283 -79.215106519853805 138 135 119
122.444229150128919 -3.388078614376372 -82.723044111770662 139 136 119
118.273595906877802 -4.557156928794145 -85.704443374970140 141 138 121
118.121579074644430 -3.949665710718904 -85.859690025625781 140 137 118
117.689543768626280 -3.469116827994642 -86.212246771779064 140 137 120
120.717530158245680 -1.419222940466796 -84.134441351611713 141 138 121
114.524955742416893 -2.900964523999293 -88.584227956637250 140 137 120
110.539188170399598 -4.081242407690209 -91.432233270654848 140 137 120
110.295238821352939 -3.540580184189795 -91.653670700892576 140 137 119
106.289517578572131 -3.481220187174735 -94.615749347579538 141 138 119
104.548659762027199 -3.670788120856101 -95.887296430822545 142 139 120
100.185553342403395 -5.132512640604599 -98.995322601624821 142 139 120
103.876630276355996 -2.719590447437190 -96.462462063258698 142 139 122
95.578183106991887 -6.126641790850930 -102.323883649019962 142 139 122
97.865344646317581 -4.392986513120475 -100.775286036295682 142 139 122
100.341360498256989 -2.551971222194962 -99.096423020095330 140 137 120
95.359886982892775 -3.784603683430805 -102.686994845967945 144 141 122
92.118320290978446 -4.800159921307546 -105.005847793405309 143 140 121
96.567055887180004 -1.947895948530148 -101.953099848302628 141 138 119
91.074056549967480 -4.123424700269621 -105.843548193780606 142 139 120
91.115449693516140 -3.500946342515212 -105.869758014213119 139 136 117
91.720552475314150 -2.587747931502461 -105.503483811379709 139 136 117
91.200037013941753 -2.253049917879380 -105.923069523151781 137 134 115
88.238684763521775 -3.191828329345197 -108.044189756880996 137 134 115
88.375769468413850 -2.525650902720431 -108.005769023804874 139 136 117
83.202511740495368 -4.075224180346308 -111.723047278573233 139 136 117
83.528320334360544 -3.321246280446187 -111.554097411628163 139 136 117
224.092514033948191 -3.976332608552582 -9.843842112314661 117 115 105
221.508170930943493 -3.795387438788541 -11.713412567528678 122 119 110
209.065724663171267 -5.759944914441309 -20.595857324500543 124 122 110
212.822357741470682 -3.638208148436732 -17.980502418081016 126 124 112
207.999373519440894 -4.235556170493191 -21.431716510660038 126 124 112
205.507855685207232 -4.109327230855526 -23.234272149711444 127 125 112
205.255114075780966 -3.269057955137475 -23.454587398619111 130 126 114
199.591788102816906 -4.206795287234893 -27.498011044120688 133 131 118
197.193367789293063 -4.096015318777545 -29.234086309026424 132 130 117
197.594179631198813 -3.063479330210750 -28.993026192276147 133 131 118
195.475899937840950 -2.877894085853512 -30.531313123149886 133 134 120
187.851395815850594 -4.577740421844407 -35.956707677015601 134 132 119
189.559355401866696 -3.120114256751749 -34.793333838367488 135 133 120
187.067576392914589 -3.105682709886057 -36.594613745602913 137 135 120
184.669081564389927 -3.073207366844804 -38.329847333941331 136 134 119
182.177169250631550 -3.087580870618044 -40.130766963757708 135 134 116
179.498435125689468 -3.182786783829432 -42.063197400719247 132 131 113
178.313676840190993 -2.758901791190319 -42.941941863085248 133 130 113
177.129099326164152 -2.341739315879436 -43.820703607655673 132 129 112
174.730496103588450 -2.373061321471689 -45.555228642493120 130 127 110
172.518637377806613 -2.349855441495501 -47.157935117567888 130 127 110
170.867260645286450 -2.132274510644031 -48.365621747569037 129 126 109
169.683114798208521 -1.750095867526982 -49.244229893969049 127 124 105
163.266442483083466 -3.340415061428214 -53.807408958067214 131 128 111
163.764195517999752 -2.350461326426285 -53.501427970318645 133 130 113
160.524008670750447 -2.783713188895613 -55.826934982174663 133 130 113
156.629205873574335 -3.487671360358493 -58.612501645835124 133 130 115
155.725431049634267 -3.055365755773884 -59.293177655907414 132 129 111
153.325962721166547 -3.212234240646491 -61.025996514071124 130 127 108
154.105595381679422 -2.132224096129271 -60.523216114107640 131 128 109
150.303481742114002 -2.863681424277678 -63.241983005502533 133 130 111
145.939703215860050 -3.841784709946544 -66.354665799109569 136 133 114
143.071950526487569 -4.243586280993073 -68.415232229463413 135 132 113
141.233013560215909 -4.245138746562975 -69.752652806248904 133 130 112
140.142586860908779 -3.951724401073992 -70.564323291272785 134 131 113
140.736745992202827 -2.971666341479654 -70.193501903500277 133 130 111
137.775081440472320 -3.460852499688733 -72.319100612271541 133 130 112
135.187502062336875 -3.811298411117169 -74.181652969209381 133 130 112
134.752864890809263 -3.272157079585882 -74.533568113331285 134 131 114
133.382288706072188 -3.131402964444894 -75.542221291118096 133 130 113
130.700807183035522 -3.557200463912061 -77.469934436976189 135 132 115
130.079481061322497 -3.114552447309686 -77.953262742921822 135 132 115
129.177452179624709 -2.796612024486138 -78.633596787510299 137 134 117
129.025121562119011 -2.157535686421544 -78.789018445874206 139 136 121
126.249699908428695 -2.668256989402728 -80.781775676776306 139 136 119
125.816744608832238 -2.161986312164536 -81.134157068507648 140 137 120
122.291177434150242 -3.031357843789129 -83.651226565840943 143 140 123
118.671274489720659 -3.963654024111110 -86.233377324183692 141 138 119
118.800987143211316 -3.229714536592925 -86.192127335919935 139 136 119
118.931251548815794 -2.494421392812210 -86.151155237840129 140 137 120
115.685746926957023 -3.297522699033986 -88.470311198429840 141 138 121
116.473195429046726 -2.268429622677179 -87.970745755325140 139 136 119
111.350880722821657 -3.964808995380670 -91.600024943247433 140 137 120
112.701916345255597 -2.681212118895459 -90.707544072644026 140 137 119
106.621615657190219 -3.583277508647762 -95.106150057535814 142 139 120
101.683553112996364 -5.296403829998520 -98.601684693613976 143 140 121
100.782698739910927 -5.100792709719943 -99.281321422132635 143 140 121
99.975983849239782 -4.864760484417963 -99.895551346174500 142 139 122
99.075555397617677 -4.678764275739427 -100.575292862946014 141 138 121
99.396957379720419 -3.900244259318367 -100.404487512372640 143 140 123
99.343080704458018 -3.304077049170902 -100.495708629104115 140 137 120
95.247403414271872 -4.708968154948133 -103.399680338878255 141 138 121
95.757970434548255 -3.843696800550502 -103.098546099424624 142 139 120
98.808546574679355 -1.702039108395259 -101.032492109410128 143 140 121
91.314882150716812 -3.656628441056119 -106.406998843774318 140 137 118
93.804669704030218 -1.777676922456462 -104.735114658954785 139 136 117
87.960224571181811 -3.594138294139750 -108.904564141060661 137 134 115
83.577067894908780 -5.291395884369787 -112.000573877592302 139 136 117
80.888282429534954 -6.124654969086147 -113.920598635684058 140 137 118
82.533442816483088 -4.683719254782464 -112.837868957185407 141 138 119
86.253515930818523 -2.129626793625290 -110.320333228610167 140 137 118
221.486341664121454 -4.069051476936439 -12.808741408888579 119 119 107
217.987043144986899 -3.230759850459971 -15.355955575736942 123 121 108
211.748623737259351 -4.244083684969615 -19.788631752985140 125 123 110
208.782996146521214 -4.250931145251477 -21.917299512003240 128 125 112
206.565537661543772 -4.034411863740504 -23.519316953427506 131 128 113
204.628721819858015 -3.739667260659428 -24.923821431210570 130 127 112
201.288685191952368 -3.915705944917427 -27.315067159633657 132 129 114
199.258297613622887 -3.678433399367137 -28.785074535504208 132 129 114
200.315724443214492 -2.423441549019825 -28.084414433669224 131 128 113
195.010471870449180 -3.302083171028473 -31.856311928602196 134 131 116
192.605819936377316 -3.227626287020892 -33.589032115842542 134 134 118
191.885844956868254 -2.590573780153845 -34.138027134357742 134 134 118
189.574869345631868 -2.506745637908582 -35.804799331495360 133 131 116
186.140493916298993 -2.827421077156003 -38.260283766824102 135 133 118
181.114259605067616 -3.727004188056910 -41.832870425653653 137 134 119
178.896417686348343 -3.661760524305569 -43.433147277762174 132 130 114
180.049677180507388 -2.405967003746261 -42.667482561243077 128 125 108
178.674993363860295 -2.053029944293942 -43.676354767641300 131 128 111
176.363830926688678 -2.047811175102108 -45.342228422125032 130 127 110
174.895662862587074 -1.747610654145158 -46.416694126215361 130 127 110
175.582318834746786 -0.661173916288299 -45.980359034315256 128 125 108
171.584919614601972 -1.311700322863563 -48.828252805816845 128 125 106
166.275223011617470 -2.477319016820417 -52.595070292759345 130 127 109
162.089339095910532 -3.249669140008668 -55.573257409102354 131 128 111
159.121363906898409 -3.582977850333225 -57.697441655506367 134 131 115
157.652921159609434 -3.358423887935324 -58.770997284072564 134 131 116
159.371992768241881 -1.910253913277919 -57.612842061636798 132 129 113
158.935483857291473 -1.291219662488371 -57.964684149987249 129 126 109
154.842290107567806 -2.109556113662544 -60.875881678725364 132 129 110
151.967712276732726 -2.470021098802982 -62.933608483042576 133 130 112
148.061144354010963 -3.258362778656157 -65.712678149126987 136 133 114
145.185909432565495 -3.655681098867817 -67.769711253657135 137 134 115
142.028941548570003 -4.183679231571437 -70.023195776406652 134 131 112
140.654389897709336 -4.004216614074723 -71.030345550886921 133 130 111
141.062958956402980 -3.101145074025656 -70.791663817452445 131 128 109
139.688853706925499 -2.931964421870722 -71.798921311389790 132 129 110
136.062002265095117 -3.708174344604446 -74.379354606653834 133 130 111
133.936732159819428 -3.876271150970896 -75.910656721404592 132 129 112
134.815989569309068 -2.788470744063611 -75.344757764030305 131 128 111
135.320352617180788 -1.854508060385464 -75.041362639803594 136 133 116
132.819842725825112 -2.203493317877272 -76.834724891091895 136 133 116
129.849414724574785 -2.769597509740142 -78.955339439690789 139 136 119
128.099954651654770 -2.823165122971435 -80.224171152589065 139 136 121
130.860772004465275 -0.915918298320273 -78.349661297874604 140 137 120
126.574510892269458 -2.092360101942440 -81.386527673737163 140 137 120
124.204086172149658 -1.755249701087574 -83.138325667405780 140 137 118
120.010317399976429 -2.947372565245550 -86.108419763743797 137 134 117
117.508413797060598 -3.399649888410674 -87.900052031077536 139 136 119
118.618283970537604 -1.548768167313408 -87.230614438985555 139 136 119
111.261767694415909 -3.610344679815006 -92.447913334543500 141 138 119
116.100224308471667 -0.697665101382465 -89.138792937027745 140 137 118
110.625269698248260 -1.948553648068871 -93.047391604175118 144 141 122
107.086684119436768 -2.979241004809621 -95.556572636770113 145 142 123
100.533323472666666 -5.474336204641020 -100.155906042508775 145 142 123
101.043494404588927 -4.604976269572036 -99.854624401559022 142 139 122
100.894841872859899 -4.051598774119272 -100.010923502312664 142 139 122
97.259729795300856 -5.199555292172493 -102.583578363304127 140 137 120
97.771223249677064 -4.333652677298863 -102.282893824629497 139 136 119
93.003833342970438 -6.071266743378633 -105.638107830965680 142 139 122
94.553088124955323 -4.698692847964711 -104.619652442166114 142 139 120
86.941689638864986 -6.724504786470954 -110.047961359626328 140 137 118
90.663939545612820 -4.244041400297257 -107.530709100022818 141 138 119
87.969319310995289 -5.025752623758996 -109.448473132539590 140 136 117
84.707599392641612 -6.115364893238381 -111.756922549592019 136 133 114
89.566846936522069 -3.017700624580688 -108.459652601983862 137 134 115
89.422446390869680 -2.497177393007201 -108.617647652859375 140 136 117
83.042730836435538 -5.244677843996278 -113.075736371677266 140 137 118
83.748536993367878 -4.295782120799329 -112.647146883772507 140 137 118
86.723943010038383 -2.139013875094029 -110.656146189795095 140 137 118
220.081480175065963 -3.804612482551771 -14.910854614410397 120 120 108
217.108355961294251 -3.772124531834913 -17.036340913811330 122 120 107
215.541813861497019 -3.313944123285620 -18.176229867688562 123 121 108
212.381023808508360 -3.371502851006449 -20.432728347017047 126 124 109
208.094542091634764 -3.808529506492518 -23.477100357927867 130 127 112
205.308567594860222 -3.784786347021981 -25.470310656074503 131 128 111
202.803936864878551 -3.685306913082075 -27.266317784647384 132 129 113
202.269498758782902 -2.950982506050541 -27.683356506129087 132 129 112
202.392184531589351 -2.001086483340138 -27.640967831336070 131 128 112
199.700157907582934 -1.994509809104981 -29.568086881611919 134 131 115
194.474157338547116 -2.861057228083967 -33.267163870262891 134 134 119
194.972826324913342 -1.804029981141784 -32.962311491901517 135 135 119
192.280578388329388 -1.842442355019706 -34.888861572126075 135 133 118
184.706704817944285 -3.591494489541081 -40.227112223409108 134 132 117
182.483167654574601 -3.511373942044713 -41.824817625236420 137 134 119
180.259602525485263 -3.444128305682778 -43.422377120431150 131 128 112
178.787240980848026 -3.122281122116622 -44.495059497779863 127 124 107
177.033259480103169 -2.909977321129755 -45.764464923133801 130 127 110
176.969981844416253 -2.095841552800256 -45.853432312489360 130 127 110
178.222221288226876 -0.801834398893544 -45.024653731813146 131 128 111
176.750775423796654 -0.502066597854367 -46.097546893258112 130 127 110
171.709133924022098 -1.534476414509084 -49.661395553891367 131 128 109
167.700434146328035 -2.210325859678535 -52.503622514638977 132 129 112
162.093647799079974 -3.511525785963514 -56.459494335291112 132 129 112
159.305657015265439 -3.775469960448556 -58.448778738378934 133 130 113
159.807446675102653 -2.797031252665181 -58.144610328196279 134 131 116
158.899648429802596 -2.358810393586684 -58.823422435967217 133 130 115
159.966566502421216 -1.158557691786603 -58.126739454708456 131 128 112
154.169712628575041 -2.638437023924595 -62.211562155088671 132 129 112
153.356320456985543 -2.186892590113783 -62.824816066253277 133 130 113
148.874920422744083 -3.197338800599412 -65.991755096559501 135 132 113
147.120877385613113 -3.142254764700344 -67.259512741094710 137 134 115
144.802350326267515 -3.324903255535453 -68.919929373490362 135 132 113
143.048254980016679 -3.291713204518940 -70.187436627736986 132 129 110
143.082221580673263 -2.536997259539583 -70.211454803421759 134 131 112
140.857772786075259 -2.712567432306409 -71.806092130962611 133 130 111
138.256656223920345 -3.057378934055746 -73.662226343276359 136 133 114
134.431375936361775 -3.929086764050387 -76.368466720808669 134 131 112
131.358780609876476 -4.506279256904513 -78.550949518683524 133 130 113
132.900354959242378 -3.145035202972920 -77.528703213495362 136 133 116
130.863702057865737 -3.302094862023307 -78.991654220818532 136 133 116
131.124064432863747 -1.775541669658460 -78.910206497612535 138 135 118
128.805043615732558 -2.078156883059193 -80.569152040234627 141 138 121
127.145543417865611 -2.104811259832007 -81.770438395544033 141 138 121
124.920469216962175 -2.390886107060431 -83.363639050725084 143 140 123
124.015078206875032 -2.102892080818086 -84.042056411312700 144 141 124
122.072705604138122 -2.284276764873496 -85.439001515716512 142 139 120
120.507453023405546 -2.306907808112995 -86.574558137281997 140 137 118
120.923004855918478 -1.439791706214570 -86.338846831520414 138 135 116
119.169424897838411 -1.560498079225796 -87.605016512497855 138 135 116
111.037829875225100 -3.971811476777151 -93.334791454395003 139 136 117
110.699072532577858 -3.477831781851660 -93.621251423671424 140 137 118
108.378205735924396 -3.914416554689825 -95.277934840041638 141 138 119
106.946564220089357 -3.304544794554017 -96.373062321250501 144 141 122
102.263905831273476 -4.900092524399263 -99.659415070556662 142 139 120
100.886713882453904 -4.934671647723497 -100.663098496380002 141 138 119
103.194857021225062 -3.194885266917582 -99.124601519435487 141 138 121
100.589759185711642 -3.831668406505803 -100.975825693479038 140 137 120
99.118590728375196 -3.928514997346893 -102.044769014349185 136 133 118
97.174648203514593 -4.266688119523188 -103.439349171232976 139 136 120
97.689333548606825 -3.397628430884492 -103.140224119482241 142 139 120
98.299406238531333 -2.477510993653293 -102.776398724673868 143 140 123
94.652860286652995 -3.688513665390450 -105.342934693651500 144 141 124
87.167578667195343 -6.272683725591936 -110.604112257333696 141 135 120
85.359685829008143 -6.029106491658234 -111.958907481723969 140 133 115
88.194619082305920 -3.392740106640495 -110.127359613667693 140 137 118
83.786371059836171 -5.106330084358833 -113.211197618715744 140 137 118
87.338222259851392 -2.661068848890777 -110.833782618308959 140 137 118
84.730203082573368 -3.451086443094941 -112.682031913246078 140 137 118
222.371304875734779 -4.328067562479388 -14.338027442442097 117 117 105
215.092775363124872 -4.664248816682042 -19.499536413585218 122 120 107
216.061101024068250 -3.416810040207316 -18.867031755418850 122 120 107
208.876077098181895 -3.822807975967585 -23.961695935643519 128 125 110
207.399666826732187 -3.373841385295661 -25.033749919879625 130 127 110
203.759722743974578 -3.638213767124977 -27.613188341535590 130 127 110
203.130138963286441 -2.934110924698151 -28.095257497598283 131 128 111
200.807225421680272 -2.795110640804646 -29.756886544336822 132 129 112
198.201993814889732 -2.763982820227171 -31.614921865702513 135 132 115
195.973120070013863 -2.620890965459539 -33.210722460529411 132 132 116
197.885438187831767 -1.080762540925226 -31.924244510373939 134 134 118
191.609470916454541 -2.340973632858139 -36.336416583789173 134 132 117
188.533335211510746 -2.529610711647424 -38.521205272815365 134 132 117
184.138948180603848 -3.196488325690343 -41.622448664897973 135 132 117
181.815531580720688 -3.159558258592884 -43.282786390263993 132 129 113
178.550394832734838 -3.470476780188527 -45.597616693661394 128 125 108
176.509297776484118 -3.362058839294280 -47.061174326826801 127 124 107
175.315883793188391 -2.959386417088710 -47.935559581392056 128 125 108
176.195000775685571 -1.809216190482871 -47.370235448112027 130 127 110
175.850059830186069 -1.102722327917362 -47.655924718064966 130 127 110
170.794548940507809 -2.140072166195398 -51.213087459984308 131 128 109
163.194124159111965 -4.155549930322024 -56.535893650083437 131 128 111
162.000763324736226 -3.808350535455682 -57.409733319172204 132 129 112
161.782619888895908 -2.306774537346124 -57.653407378036292 133 130 115
160.872865718704134 -1.864455816225160 -58.331325959395969 134 131 116
157.229037304487207 -2.486627219659672 -60.905223125123911 133 130 114
151.543324060421185 -3.164435687160828 -64.940612355247794 132 129 112
149.003887182616779 -1.895909184309688 -66.842860815687402 137 134 115
147.245769745186863 -1.851870340551466 -68.108555587374184 134 131 112
144.732671564917354 -2.126053472928554 -69.896665620246353 136 133 114
143.352014976782073 -1.949270181081983 -70.900867234015493 133 130 111
138.950652324015778 -3.031027916439417 -73.994502943004449 136 133 114
133.793217407485201 -4.453786212857077 -77.609797261892226 135 132 113
132.411891821781410 -4.320983641679311 -78.613226113865892 136 133 116
132.069514012484888 -3.756679035931002 -78.898677953942467 137 134 117
131.255255343705414 -3.395057331776815 -79.510591715991836 136 133 116
125.056455465183404 -5.346992711133561 -83.841701255137991 135 132 117
129.475539347911990 -2.049001006266842 -80.890215016328710 141 138 121
128.189860731425767 -1.909805150311207 -81.828607974897125 142 139 122
125.202763239063245 -2.527701832379032 -83.940714769966178 141 138 121
122.120679545463474 -3.205138596915734 -86.117626500890026 143 140 123
119.227231246473949 -3.816295814037908 -88.163745236843994 140 137 118
116.995381842819413 -4.146856975767095 -89.753246738269183 140 137 118
122.803685437951586 -0.851629506466892 -85.803446720554689 140 137 118
120.383545018671981 -1.269915123811601 -87.523685223462735 139 136 117
111.378119164262060 -4.070820597305849 -93.829142188002152 139 136 117
109.902920682054514 -4.104761844584869 -94.896805075089986 140 137 118
109.942561287375838 -3.439018356232500 -94.922621836965504 141 138 119
105.626837611944680 -4.821597884417566 -97.943271544411772 143 140 121
109.360574121726927 -2.418780679795650 -95.430715185174421 143 140 121
106.559919503208178 -3.106323130465625 -97.409580943293406 141 138 119
103.190269092685512 -4.082988008329004 -99.778418292009235 141 138 119
101.809979101459533 -4.119778506095187 -100.780596862176480 141 138 121
106.022071254939164 -1.450042184869601 -97.945337311171471 140 137 120
101.040374687372406 -3.244643621853797 -101.419158915738137 136 133 118
98.048548237162493 -4.090930868702226 -103.526652454765639 138 135 118
95.530293330082770 -4.720631027057623 -105.308636011862774 142 139 120
96.521529437238939 -3.619557416710928 -104.685585022451676 143 140 123
96.470056875637184 -3.033854052217112 -104.777848549297886 144 141 124
97.273305080658403 -2.017808847175448 -104.285707321624614 140 137 122
95.704385941662110 -2.197695109774255 -105.417891167313570 141 135 119
85.538705541773751 -6.185411627582636 -112.486376511079669 141 134 116
84.157914907267227 -6.316510247186692 -113.487344814343203 139 134 115
85.247391757618047 -5.174894501731167 -112.800850295378183 139 136 117
83.486982860804602 -5.512265735960608 -114.061522795213648 139 136 117
86.003898852469618 -3.616610315103182 -112.402788703970316 140 137 118
86.716152679355417 -2.657188346056310 -111.977392111206967 140 137 118
221.897306646193442 -3.774889890880623 -15.779845723632974 120 120 108
218.625625785283603 -3.829576837929144 -18.094182866155393 123 121 108
211.487495055559634 -5.114430814566188 -23.091375199039135 122 120 107
209.186867200967271 -3.987060533360636 -24.773839430952904 128 125 110
205.725891422989832 -4.177278688394738 -27.217941213030997 128 125 108
203.679705857142494 -3.927780386023812 -28.680516731680626 130 127 110
202.293958791856937 -3.473499244210490 -29.685139503402468 131 128 111
200.719668358774896 -3.089487136230905 -30.820558229618598 128 125 108
195.937216980787355 -3.785116220357430 -34.179292554587960 134 131 114
197.571459571568681 -2.348334227983317 -33.091297083479731 131 131 115
195.997539664011612 -1.991188847724599 -34.226616515111829 136 134 119
192.535947649854506 -2.289563347382513 -36.669310184325525 135 133 118
189.640483811999957 -2.412422298744629 -38.719490992744625 132 130 115
187.122497817117562 -2.420513932814234 -40.508001725324931 133 130 115
184.037909474743969 -2.642161979180750 -42.688406903105317 132 129 112
179.631094193709714 -3.349995634937516 -45.783283081815568 129 126 109
176.545925278639146 -3.611405674892065 -47.963001225433089 128 125 108
174.310576100012241 -3.584669693144734 -49.554506285496217 129 126 109
175.192386543728162 -2.439269892680652 -48.990421590437990 129 126 109
174.657777730623593 -1.806775787819587 -49.406330455816374 130 127 110
170.155237574740113 -2.640809660267853 -52.564972025208704 130 127 108
164.990652018212586 -3.747162319001463 -56.180102424609458 132 129 112
163.700006527527933 -3.431877586344897 -57.117931818853776 133 130 113
162.598546054611859 -3.052470314268264 -57.925208952796254 130 127 110
163.576899100880212 -1.887685700584510 -57.296650560578911 134 131 116
161.152537950913540 -2.021986856513160 -59.017793075116629 134 131 116
157.971632777624677 -2.462662243174464 -61.260724937610576 133 130 113
154.824402565303785 -2.138031437943216 -63.527644467093438 132 129 112
150.482553095244839 -1.566409321577036 -66.666770148095935 138 135 116
148.720050798533805 -1.519736103581471 -67.930394335070076 134 131 112
148.661081322340493 -0.789679508538301 -68.020557263991861 133 130 111
147.182798688497428 -0.641635494750985 -69.088617969222526 132 129 110
143.337928346208514 -1.479354741736580 -71.785836393280249 134 131 112
134.569053743622590 -4.387474818752358 -77.870778397326973 133 130 111
132.900215698132968 -4.372993207048919 -79.068020991735551 135 132 115
133.977941491856825 -3.209482345188448 -78.376130184991808 138 135 118
130.983398906511326 -3.769129604735922 -80.485274863665410 139 136 120
127.893712858651810 -4.386855998662645 -82.659164283210686 139 136 121
125.466847602661090 -4.737061249045990 -84.376886432704765 138 135 118
130.526377528791755 -1.854828962486484 -80.951495570798187 141 138 121
129.332379226719411 -1.672683678126098 -81.823331292650380 140 137 120
126.716553649339431 -2.122264977390237 -83.671350314341197 139 136 119
121.161171311442644 -3.887843561683213 -87.536174669137608 140 137 120
118.354536448878051 -4.461455291578337 -89.513352245146478 140 137 118
118.716328900289312 -2.960312047960242 -89.369307880535644 141 138 119
116.478720727600120 -3.306557906735504 -90.955892956128054 139 136 117
113.576601882726308 -3.969656569069758 -92.997329073262421 139 136 117
111.907860253276596 -4.081880504436319 -94.193313548926568 141 138 119
113.086967033827179 -2.884253332730890 -93.439415350171089 141 138 119
111.323691139980099 -3.051210758150988 -94.700470443395545 141 138 119
106.236532617431195 -4.788023691306891 -98.235293141212878 141 138 119
106.752036218364054 -3.909019933978203 -97.936661899546095 141 138 119
108.028318431165644 -2.665044763426135 -97.118870292804928 139 136 117
108.450490972638605 -1.821504575243010 -96.886083632792463 142 139 120
101.080201832483311 -4.724552520629101 -101.977273064308037 140 137 120
101.692442008926349 -3.806418869709758 -101.614464167511528 140 137 120
100.784270931383318 -3.624890406816644 -102.290455649830193 139 136 121
96.357713746850862 -5.172850268849712 -105.367239528492178 140 137 120
91.549428061238785 -6.935113306566339 -108.702635410131336 142 139 120
100.674598834313130 -1.190677073824589 -102.595622129958031 139 136 119
95.770768704360208 -3.029933017479341 -105.995376235185205 138 135 120
95.530191878209450 -2.542753802548912 -106.217876541341553 139 134 117
92.909595951031093 -3.265871229667536 -108.060797799263412 139 134 115
88.002601781904559 -5.172867643264590 -111.458340952308362 141 136 117
87.380899888287942 -4.905811980489046 -111.939682029955378 143 138 119
83.851054505674966 -5.570825297552786 -114.456808409042168 142 139 120
86.613862747528557 -2.965687743390517 -112.701293613611341 140 137 118
223.884882508794021 -5.356589095023160 -15.384107359929828 111 112 98
224.007694719947210 -4.355499449047116 -15.342306134490343 120 120 108
222.996412638507735 -3.701265900805888 -16.084694341810518 120 120 108
220.661638669469966 -3.462417522219812 -17.741677187317975 123 121 108
215.679170201685935 -4.064272229248579 -21.227407058742500 122 120 107
211.263640960528505 -4.516165460507626 -24.320749032161586 123 120 105
207.793505199334447 -4.692690393446731 -26.760609660880505 126 123 106
207.160751097949458 -3.977882533603081 -27.241272338510754 128 125 106
203.501239743420228 -4.247576770654461 -29.811295063892857 130 127 108
202.584996455431110 -3.641280449965222 -30.487797177348767 132 129 110
202.236690466547941 -2.852735980601996 -30.772721210195840 128 125 106
195.454363995030633 -4.207649365496064 -35.495972384244766 132 129 110
196.241746787493128 -3.060179071143531 -34.997594022052056 129 130 114
195.799375670896524 -2.324414154890901 -35.347833218695456 135 133 118
193.085705436293551 -2.366923910815968 -37.264092768565376 134 132 117
189.614621081526593 -2.686011889957325 -39.702032120318478 131 129 114
187.373990432813258 -2.597620400481839 -41.291645194309723 134 131 116
185.606742351602520 -2.356229420630888 -42.555003341987003 132 129 112
182.797944745702608 -2.492911936387300 -44.535643800893013 132 129 112
177.526701669067620 -3.522951368754911 -48.211394023561695 129 126 109
176.138001283911478 -3.189182855558620 -49.213363440153870 126 123 106
175.791413891009427 -2.485982612344810 -49.498231152434499 127 124 107
176.960978309837287 -1.231183287960483 -48.740356422227677 128 125 108
168.405182599766761 -2.740643480147745 -54.719913977060401 132 129 112
166.163999114131911 -2.771292958560870 -56.308037227279812 133 130 113
164.301865715459712 -2.672025356482387 -57.635398501919582 130 127 110
165.093945211714754 -1.575785262496521 -57.138739688534059 133 130 115
161.430882462241527 -2.179011986608269 -59.703630221306469 133 130 115
158.905173967158106 -2.365003883228450 -61.486615319489317 133 130 113
153.249936976656102 -3.781132767565172 -65.418125496983123 133 130 113
157.552073031675036 -1.333245255088051 -62.512800153673567 135 132 115
149.820329706106293 -1.339839972666883 -68.015180214578010 135 132 113
149.666817347428889 -0.646631757023752 -68.170593738625541 134 131 112
135.287986088812204 -3.630905503845560 -78.222500914997966 135 132 115
135.134793732206845 -2.981073791790569 -78.377621030797997 137 134 117
135.457028140344619 -2.130394965121856 -78.207956676869799 138 135 119
122.954062464571436 -6.749403160149900 -86.812407791920123 139 136 121
125.365991885309398 -5.034373135434381 -85.212448101988713 137 134 117
126.543733181454982 -3.838650197304099 -84.457877058941591 140 137 120
126.961966309373125 -2.966422627813173 -84.223501090614803 139 136 119
127.666072965888503 -1.966053608429130 -83.794628408031571 138 135 118
121.810200973258489 -3.856836888175639 -87.846987401929653 139 136 119
120.232371401705848 -3.880876237777872 -88.976512737792291 139 136 117
120.747092308877797 -2.977858698798045 -88.677754244031121 139 136 117
115.213420959823111 -4.136337288343333 -92.559214246697394 142 139 120
116.109843527629764 -3.068427728419056 -92.001322295744444 142 139 120
112.669280697372102 -3.334132771123799 -94.454412537585739 142 139 120
113.281759280761918 -2.396771736021262 -94.091915610979811 142 139 120
108.698557997262100 -3.245898925715993 -97.322672695227482 141 138 119
109.026535037467156 -2.448602090948398 -97.155206109136742 141 138 119
107.163488735259023 -2.694060173571476 -98.478582219206146 144 141 122
101.011243416670908 -5.008872923344659 -102.717369136260913 143 140 123
97.145046917686955 -6.255898885732451 -105.400172000416006 140 137 120
97.759348526400046 -5.348402236629977 -105.038239793748204 139 136 121
95.799470674643985 -5.695372262596613 -106.425105993917043 140 137 118
93.934746560318914 -6.006830320744031 -107.747000073517114 141 138 119
95.453473668087298 -4.049086876404851 -106.830822679063999 140 137 120
93.398358596150089 -4.472411617776123 -108.282200647021568 140 137 122
92.393169752653876 -4.378611043912172 -109.021735020345290 140 137 119
93.298086814310878 -3.322292704404390 -108.467787491878994 139 136 117
92.675743661885178 -3.038759280204579 -108.948991407385904 139 136 117
94.442284757953615 -1.533425379319496 -107.814133842037023 140 137 118
88.612959026251872 -2.169471849663124 -112.002966997395561 140 137 118
222.107096267000998 -4.235987925937486 -17.760063089066108 120 121 107
220.335015139967226 -3.826436615162214 -19.022840082950637 123 121 108
216.192487058247082 -4.165737561910059 -21.915367189459459 122 120 107
217.644646627300062 -2.769088262137159 -20.961568488759781 123 119 107
209.169246808893149 -3.595565630720115 -26.875758562974397 133 127 111
205.025848995818990 -4.014978727709285 -29.767044958377227 133 130 113
201.166684406603792 -4.365575728171500 -32.462439257694655 131 128 111
197.402073066707857 -4.707301977525907 -35.092299933562003 129 126 109
197.053035951459265 -3.936748130033808 -35.376689011553310 127 126 108
194.901354275710872 -3.771743853527583 -36.898784698302762 131 127 115
192.654769099771954 -3.651112382256111 -38.485881009208356 134 131 116
190.977653104451235 -3.349307079335669 -39.682121027884847 136 134 119
186.484479422901671 -3.169051824712384 -42.855684074013027 134 131 115
184.807519309261465 -2.899150732906691 -44.051670259878875 131 128 113
182.465953342118496 -2.872995052401446 -45.703214483984823 134 131 115
180.789093348081167 -2.624084252824158 -46.899032503103030 131 128 112
177.307738800472919 -3.031127290158083 -49.331153264205341 128 125 109
178.765464956086475 -1.674540070829099 -48.379605220316108 128 125 109
177.279005539367347 -1.381056151697642 -49.445251266654992 128 125 110
173.987458058906668 -1.758426383238763 -51.746762745331921 131 128 110
172.215961670650813 -1.592501265100661 -53.007311709455337 132 129 112
169.589206252883571 -1.755524103684222 -54.853051623159615 133 130 113
168.102838706194547 -1.505146410570405 -55.918297905766877 130 127 110
163.764843177479605 -2.342999817393434 -58.933899974557846 133 130 115
158.380459575750820 -3.605239922511656 -62.663992884583166 133 130 113
