ply
format ascii 1.0
element vertex 683
property double x
property double y
property double z
property uchar red
property uchar green
property uchar blue
end_header
138.734464904266304 -2.631909595300201 75.099153385313343 156 153 144
137.553448690024879 -2.058916762942072 73.551930577462372 155 152 143
135.998985895790838 -1.654909856357774 71.519949480914391 152 149 140
132.826207117891386 -1.958881111197688 67.387121770770023 153 150 141
129.342196527316503 -2.425425890903477 62.850565319355127 155 153 141
127.040805303205914 -2.404654970230972 59.849550444882311 152 150 138
125.361858860169534 -2.128797040746069 57.656723231184060 150 148 136
124.180881846212159 -1.645303981961359 56.110402936181686 151 149 136
122.252978919739917 -1.508867002239165 53.594675241000829 147 145 130
120.200593155738773 -1.445921258596795 50.917538420973187 146 144 129
118.583939669070361 -1.200676808941759 48.806084475318130 146 144 131
109.876553258336685 -1.429373320832299 37.453778487008208 144 142 128
108.259969799256552 -1.264380195987970 35.343117107596015 142 140 125
106.767905623911673 -1.053023556575037 33.394126656555727 143 141 126
90.788022749906503 -1.074116217298192 12.548331541816594 141 138 121
88.798151967764881 -1.267035222655706 9.954780398068095 139 138 120
87.617635625585507 -1.045617310866234 8.410937390409458 139 138 120
68.351656961462751 -1.410107917038236 -16.734786895355398 145 144 124
67.358459441380347 -1.237610456081615 -18.035162367892610 148 147 127
66.053957051018585 -1.259972739040131 -19.738899292921161 148 147 127
64.874036625322830 -1.218513636336880 -21.281174978557402 148 147 127
63.694158902748910 -1.187213882021972 -22.823366517944237 148 147 127
62.514323951431592 -1.166069204060635 -24.365473987651228 149 148 128
61.209980437585926 -1.231772571861991 -26.068840787101465 149 148 128
59.781120562011367 -1.385948148776523 -27.933446466854946 150 149 129
58.352292693247918 -1.552438128866593 -29.797940700218959 147 146 126
57.172615028346542 -1.574587694556417 -31.339677765809142 148 147 127
56.117541674401679 -1.528003872061274 -32.720014844105407 147 146 126
55.062516044194183 -1.490465307617231 -34.100281645888998 146 145 125
54.318958134121658 -1.262078523486182 -35.077223609359919 144 144 125
53.450892034346424 -1.120510188359954 -36.215425385586911 143 144 128
52.396021858491210 -1.107908029649220 -37.595509873248545 146 145 127
51.278910837612528 -1.145128072855408 -39.056164593962421 146 145 127
50.099553928258075 -1.232982694483432 -40.597378772758560 147 146 128
48.363898804455914 -1.022918428459057 -42.873258385650161 141 140 119
46.997793970344887 -1.264017104439087 -44.656132234087920 143 142 121
45.257934470559164 -1.769779171252447 -46.922632127876227 143 142 121
44.265669839444683 -1.781416744808470 -48.221558496886303 145 144 123
43.460357420498781 -1.673414421245381 -49.278577022180826 150 149 128
42.779711443249795 -1.486286621920176 -50.174332254292693 149 147 127
42.223743912853593 -1.218391679527257 -50.908846834953522 147 144 125
38.505131288124232 -1.257147483932669 -55.781009463884743 134 132 109
37.450977556631869 -1.375790589730824 -57.160085722634278 138 136 113
36.396866242750065 -1.503413950451727 -58.539089835548083 141 141 115
35.779037777278660 -1.323899646665022 -59.353959495519177 143 143 119
35.348251284760082 -1.013226048355343 -59.927082827970509 145 144 123
32.560510209900244 -1.212271537072724 -63.580037999548352 145 144 123
31.132701161299849 -1.666603439427247 -65.442056731480932 147 146 125
29.891903941369534 -1.992779835575643 -67.062283795470165 147 146 125
29.960225193252668 -1.340882330524789 -66.990819871769645 145 144 123
29.592296308333914 -1.019532357842286 -67.483265080603218 145 144 123
26.680964959611700 -1.470142991137392 -71.296223372229576 140 139 119
25.876877454429319 -1.507564711065674 -72.352330969335469 144 143 123
25.322268692577140 -1.356796431334495 -73.086289936632198 141 140 120
24.643023497769519 -1.308580222414875 -73.981285411479234 145 144 124
24.026208740279642 -1.216710406747889 -74.795737857128984 145 144 124
22.543329512445524 -1.247553479651256 -76.746629272265466 143 142 122
21.864353807761844 -1.222123106444699 -77.641519124210532 146 145 125
173.425699898805192 -2.054201389637785 118.360836691806924 145 145 138
162.495984207565243 -2.553145555340626 104.194406236428847 152 150 138
161.810250354503637 -1.647237968110467 103.293686265225091 156 154 142
157.812849300542609 -2.033443704509518 98.115036002243500 154 152 140
155.065108009843755 -1.963729024078635 94.551037472516811 153 151 139
152.192378503917610 -1.967577250023151 90.825872326640223 153 151 139
148.444834368938075 -2.347537097702776 85.971062617667485 154 151 142
147.759070248412002 -1.518030993953399 85.071143565165244 157 154 145
141.949445561092034 -2.795353107215363 77.553719922431497 158 155 146
139.514049151717586 -2.725077970640614 74.394585327653573 156 153 144
138.015951610032403 -2.283599013773393 72.446112453772798 154 151 142
136.517860723794399 -1.855198850883039 70.497771022545464 153 150 141
133.707532559573224 -2.000620479963813 66.855069459770476 154 151 142
130.397289868804762 -2.386265038183389 62.567126948855616 155 153 141
127.836898008294895 -2.473748311693908 59.247695866177423 152 150 138
126.588776185546408 -2.005688622397289 57.622797396052306 150 148 136
124.653285532985166 -1.854150574350573 55.110544200141476 152 150 137
122.967763691081927 -1.607224255234804 52.921160442322048 149 147 132
121.032292899804929 -1.488267548319571 50.409233120952621 146 144 129
119.159323771829278 -1.357537274114178 47.978142911775507 146 144 131
115.600900394783892 -1.057485929547009 43.358435438409998 143 141 129
113.540495747952832 -1.062983516127829 40.685839346022647 144 142 129
110.980158501093570 -1.323800757730607 37.368166349970267 143 141 126
108.607306305963718 -1.516975133410525 34.292681520577133 142 140 125
107.046886509747466 -1.337858542629431 32.265865142354357 141 139 124
95.062161949123208 -1.008747315047578 16.711022680031505 141 138 121
70.289644375847075 -1.454394001836305 -15.444279874204256 144 143 123
68.854928448727350 -1.529152027681238 -17.306901523720427 146 145 125
67.795334660858401 -1.394314014155582 -18.685984486645509 147 146 126
66.673272808286455 -1.305819519467229 -20.145564789339460 150 149 129
65.238671665347098 -1.414604411790063 -22.007891095583830 147 146 126
63.741586075301953 -1.573520896477361 -23.950667911767852 146 145 125
62.932245534799236 -1.326487887074078 -25.007190510209227 147 146 126
61.872880656801414 -1.239731963639975 -26.385888049724343 148 147 127
60.625998307288228 -1.277887913535355 -28.006168747721546 148 147 127
59.066539653791722 -1.521171776853144 -30.029096953257124 145 144 124
57.819731675584222 -1.582052181396510 -31.649179316004535 145 144 124
56.572963808310888 -1.653610821724443 -33.269170951240170 146 145 125
55.701401839562124 -1.497623791865856 -34.405848734601335 146 145 125
54.829897309042792 -1.349046895555166 -35.542477719987346 144 144 126
53.770858370609361 -1.328616491678432 -36.920648465980975 139 140 124
52.336674236312589 -1.560332142302047 -38.781908879680287 142 141 123
50.839985242960068 -1.845131461834894 -40.723579651105467 145 144 126
50.093747890852953 -1.650008704909586 -41.698897375348992 146 145 127
49.910410476075256 -1.089168881622120 -41.949539045351656 145 142 123
48.976701280770357 -1.029013841258894 -43.166358246661872 141 140 119
47.605261560289250 -1.269942290383592 -44.946681655977216 143 142 121
45.670967643698319 -1.901977416445970 -47.451441653959705 143 142 121
44.737380260284780 -1.871851713099864 -48.668010022609877 146 145 124
44.366764340872734 -1.465360840790218 -49.160046161403244 149 148 127
43.558398771371984 -1.362663955468182 -50.215549458396623 144 142 122
42.937746270236616 -1.137050947980740 -51.029542626501211 133 130 111
40.137886029200288 -1.152166461380510 -54.678593314155677 139 137 116
39.017029245076671 -1.306001639923079 -56.136255696402060 135 133 112
37.896211736009747 -1.469366378157376 -57.593838775155859 137 135 112
37.088250145728807 -1.417839938366678 -58.649008611321591 141 141 115
36.217783895107658 -1.418258451602236 -59.784600621652658 140 140 115
35.597647006707689 -1.244281970571638 -60.598308936415748 144 143 122
34.232454127605791 -1.003689057534696 -62.386577354510763 147 146 125
33.362236686067234 -1.030669535907869 -63.522014978603380 146 145 124
31.115347411378735 -2.088609862380016 -66.427140797177401 148 147 126
29.869693614384076 -2.417091755422549 -68.045020759708251 145 144 123
29.500235447103293 -2.097082740530658 -68.536720561949551 145 144 123
29.318635053807469 -1.637922402061282 -68.787146579058543 144 143 122
29.324919260576237 -1.037125752109967 -68.796337223768546 143 142 122
28.517634243803528 -1.058684825736593 -69.851078424476896 142 141 121
26.527647544204697 -1.412786099885170 -72.442914983647483 140 139 119
26.221332787155688 -1.066376916745648 -72.854235242179811 144 143 123
23.925585473512740 -1.131412776337726 -75.857066891779766 141 140 120
23.056099298589231 -1.248886060786802 -76.991922863401840 140 139 119
22.311898399999180 -1.273409923771446 -77.965953887027808 144 143 123
171.954563869230697 -1.804601264368992 114.516839584505931 153 150 143
167.878871827799969 -2.122300806355633 109.264079407976681 154 151 141
167.504108267790428 -1.075943168411134 108.767441016168078 153 151 139
158.411640758895174 -2.220034082698634 97.054484695107362 157 155 143
156.029509773590121 -2.004834887054306 93.979235212810067 153 151 139
152.769149223463955 -2.157569870294152 89.775890686455114 153 151 139
149.759687411618700 -2.238285842122613 85.895211275533654 156 153 144
147.314783079625442 -2.117003200281526 82.740100192470322 158 155 146
143.301596600094115 -2.657321512977703 77.570587981141045 158 155 146
140.041158688760277 -2.921760760629247 73.368430292231608 157 154 145
138.913582952556993 -2.325113318729419 71.906257139007153 155 152 143
137.660555221058132 -1.791148632842437 70.283027245574459 155 152 143
134.901958289804242 -1.908851188874205 66.726151196844484 155 152 143
131.829689868760738 -2.185295262241129 62.766674095234436 155 153 141
129.447479235137422 -2.188697499272019 59.693712890782052 152 150 138
127.065269263025755 -2.212734311321547 56.620963771911363 151 149 137
125.184935551458210 -2.035149683537291 54.192914458881859 153 151 138
123.618285810390333 -1.733597244517003 52.167818171229271 150 148 133
121.361564067484295 -1.757172886504972 49.256748936430029 147 145 130
119.543999012400391 -1.600124335781025 46.909741586369847 146 144 131
117.350030687264535 -1.631992830346563 44.079595579028137 145 143 130
115.971649309221917 -1.304088455371933 42.296737752880773 144 142 130
112.022939405899407 -1.247915543864814 37.201099069598570 143 141 126
109.954499208071539 -1.290348672706643 34.532727353355938 143 141 126
108.199767781333080 -1.199568136605260 32.267201625756087 143 141 126
97.169890567276639 -1.227780873749205 18.032983739578611 143 140 123
95.478053372271944 -1.213062447300194 15.849011457526160 142 139 122
93.786241773601290 -1.212926411916890 13.665177034152094 141 138 121
80.004417326346996 -1.066293276777289 -4.132109441448478 145 144 124
73.053231945620610 -1.039414128393488 -13.112299088728179 142 141 121
71.424627587642632 -1.208284773065632 -15.213773083813464 148 147 127
69.231225176822562 -1.721562052785712 -18.039234440159390 145 144 124
68.732341282219878 -1.255055306861289 -18.692243162664823 146 145 125
67.856961921148567 -1.016294684708716 -19.827946748791163 148 147 127
66.542304678374734 -1.047684886651911 -21.526732698328289 146 145 125
64.725581023281805 -1.392717624874191 -23.868974396328980 142 141 121
63.410992769246221 -1.448759844684017 -25.567539594238070 146 145 125
60.408989026886843 -1.100998969217315 -29.456197447474949 144 143 123
58.592416928438979 -1.511145669809317 -31.797841398930103 147 146 126
57.089716950779774 -1.739714524299428 -33.737215344491347 146 145 125
56.340319959675085 -1.504723281570307 -34.711431894621342 145 144 124
55.026018003756278 -1.635806580860816 -36.409361621039608 144 144 126
54.151184443402698 -1.496390250195550 -37.544303715659822 139 140 124
52.460301673460251 -1.891087013018423 -39.724518275174859 141 140 122
51.460006078707707 -1.851580720637501 -41.020129108212871 144 143 125
50.396981511496563 -1.861616157683695 -42.396079542855517 145 144 126
50.212961344987278 -1.302014094199145 -42.646381845886651 144 141 122
49.401195334354696 -1.159856255755120 -43.700664574912224 141 140 119
48.338347638127075 -1.192042695007534 -45.076471612633668 143 142 121
46.647668180203922 -1.654740033162038 -47.256083471839418 143 142 121
45.836057374880511 -1.537977936402247 -48.310179039426032 147 146 125
45.275676670652800 -1.257255993328450 -49.042714407614739 148 147 126
44.401405494594357 -1.196010932451014 -50.177120888804296 144 143 122
43.652785126359873 -1.055642123437665 -51.150734976408870 128 126 105
42.778636124642802 -1.008564942839384 -52.285054068275485 146 143 124
40.214084885010777 -1.509253779482835 -55.598241985800911 141 138 119
39.654106000519832 -1.266100611478805 -56.330582868899597 137 134 115
38.780173659214540 -1.250593728461455 -57.464680641432011 135 133 110
37.655062426725522 -1.421952080172842 -58.920127335339117 139 139 113
36.215931665472255 -1.828615089093952 -60.777220478613060 139 139 114
35.844652561337369 -1.475232923434104 -61.268392677511173 142 141 120
35.536286448341315 -1.079088270548129 -61.679243526564932 144 146 124
34.599831717394636 -1.145115192331057 -62.893450418710358 148 148 126
33.098032578930670 -1.635289213023000 -64.830562489259904 147 146 125
31.910357968233484 -1.905635670609781 -66.365919028100905 147 146 125
30.534229478725621 -2.326454969927643 -68.142147639495107 145 144 123
30.414709649497567 -1.817435120727174 -68.311927129730492 144 143 122
30.106813224488164 -1.451181698974647 -68.722694990448986 141 140 119
29.861858541570442 -1.039650896832060 -69.053181142739220 141 140 120
27.989770576495303 -1.281911814336344 -71.480853511516642 140 139 119
26.865262050960993 -1.560184874456720 -72.935488011562029 138 137 117
26.369260771122526 -1.360644109626587 -73.587127752134251 143 142 122
25.621944176755818 -1.361114302359705 -74.559915834091811 144 143 123
25.000400758894472 -1.269199491692230 -75.372106567984417 146 145 125
24.064644383106099 -1.430167871408937 -76.585670270722801 142 141 121
23.757545217764630 -1.100588603903417 -76.996442032240481 140 139 119
181.793284373578501 -1.089791914252771 125.212056531753092 143 142 137
167.694038345443460 -1.425286665359005 107.128150697267245 153 151 139
163.161572957307214 -1.969129634629178 101.320224937572419 153 151 139
156.928777877189987 -3.207042289114886 93.339685589366553 155 153 141
157.371171217506372 -1.898760973493359 93.890591529394214 154 152 140
154.349993446800767 -1.950721782886588 90.015221001700183 157 155 143
149.250629109387660 -2.856086825214758 83.484489120199299 157 154 145
147.992709046456923 -2.259658416693604 81.862956730877869 158 155 146
144.089821060326130 -2.749831175470972 76.861879694840866 158 155 146
141.635355505686732 -2.678383250070804 73.711855641689539 157 154 145
140.314459436712156 -2.157386571966157 72.010368329570269 157 154 145
137.608084288521695 -2.229162656127045 68.538895699498056 157 154 145
135.909338527009425 -1.897185420156454 66.354962747678712 158 155 146
133.706780094130551 -1.795618905528080 63.527552704855168 157 155 143
131.630180847145255 -1.658595298429469 60.861237011428244 154 152 140
128.168059584022132 -2.144645261945821 56.425268442366729 153 151 139
126.658274322475251 -1.799427048780188 54.483377793797757 152 150 137
123.448059779603483 -2.224549218957311 50.369706292529656 151 149 134
122.001275636655123 -1.884399204829622 48.508587179212128 149 147 132
119.420863255974467 -2.071348547650353 45.199757698977891 147 145 132
118.226034420194452 -1.645604081082494 43.660658503325493 145 143 130
117.346138912345722 -1.084519708248691 42.523797586050165 144 142 130
110.675736960198108 -1.363186673284010 33.966721673224299 145 143 128
108.851189641272768 -1.302998364188827 31.624051645378159 145 143 128
107.467551999700220 -1.045122608054047 29.844429237439613 144 142 127
105.643049508679653 -1.014434142124035 27.502041420782547 141 139 124
101.616192529264552 -1.187894418918384 22.335292875681915 141 138 121
99.728765037763281 -1.237448448488004 19.912975254962049 144 141 124
98.219283567864593 -1.112195327180894 17.973203484701372 143 140 123
83.375477625833511 -1.253097831035714 -1.086817093915755 145 144 124
81.551324048427986 -1.435384815873090 -3.427179566345814 145 144 124
80.294161234872689 -1.319958561414776 -5.044123024366257 145 144 124
79.289028410714110 -1.074931595327531 -6.339535270976228 144 143 123
75.076924078106586 -1.073337677887740 -11.752040692806759 137 136 116
73.567961933906147 -1.157074667866159 -13.689909666498323 143 142 122
71.870026466488639 -1.363023613105117 -15.868693115821088 149 148 128
70.613142393364072 -1.326499862671130 -17.484957739196972 147 146 126
69.545314771450606 -1.189738702601515 -18.860121460051886 146 145 125
67.157780694894427 -1.093556934684862 -21.931561015841993 145 144 124
65.523023368410193 -1.325282660711791 -24.029444452956426 144 143 123
63.888293370636035 -1.570960321717534 -26.127197349756472 144 143 123
63.324775321014215 -1.178810209418276 -26.859378808785124 146 145 125
59.555158947178413 -1.322728182136599 -31.706058931942607 145 144 126
57.920604866523348 -1.628616428591808 -33.803276209086221 145 144 126
56.727200499461986 -1.670553505929374 -35.338242784616483 145 144 126
55.470820510531567 -1.762587195349469 -36.953425253832876 144 142 125
54.088438697987058 -1.945771615190725 -38.729108392112892 143 140 123
52.769113221265698 -2.100194431242766 -40.424394638027621 143 140 123
51.827970556122736 -2.021107433885106 -41.637852568991121 143 140 123
51.012936108943705 -1.867840865803156 -42.690686036910876 144 141 124
50.450076217383739 -1.556096129330207 -43.422354703574683 143 140 123
49.383056317484389 -1.581833069997848 -44.796232161289623 141 139 118
48.820337614865181 -1.281581635007584 -45.527850065932881 144 142 121
47.753430326570211 -1.323161715351391 -46.901618315257707 144 142 121
43.050049990965633 -1.230969144698671 -52.966902638021850 143 141 121
42.109540793157038 -1.236237046513914 -54.179795310233260 144 141 122
40.664703205395966 -1.601872361611763 -56.034580645930333 145 142 123
39.724285566043434 -1.625113449204753 -57.247332112363182 137 134 114
38.973079455095387 -1.522423946711727 -58.219321337486321 136 134 111
38.095831351273105 -1.515737518681338 -59.351742067221892 140 140 114
36.777239977083696 -1.832464803230058 -61.045708823842602 139 139 115
36.530688791478610 -1.388078960402135 -61.375769408158277 140 139 118
36.158120899803819 -1.036941515070360 -61.866301949480857 142 144 122
33.899659534683053 -1.453498396568851 -64.772493801660346 146 145 124
32.896622626041207 -1.582997658035197 -66.065053540463310 148 147 126
32.524362144165195 -1.252898269326338 -66.555516590294502 143 142 121
31.332214692553706 -1.537703781362655 -68.088584503062663 145 144 123
30.960119242280371 -1.216998001989575 -68.579029810307048 143 142 121
29.333046849162372 -1.254917862377237 -70.682584634336820 140 139 118
28.393425064453609 -1.380359763197435 -71.894664830591438 140 139 118
27.580032585550683 -1.416742045507800 -72.946331659617812 138 137 116
27.271454089655322 -1.070019068796947 -73.356572183280349 142 141 120
25.834318585439576 -1.024212089270290 -75.219277351574391 144 143 123
24.327047851780634 -1.629679169834303 -77.152585060354227 144 143 123
24.081916759590371 -1.251208300514163 -77.482646516556713 141 140 120
23.458236991583888 -1.175169943706319 -78.293651803547448 147 146 126
22.211111528098655 -1.038272880878582 -79.915618105252804 144 143 123
21.145806956449661 -1.334050046519215 -81.287536510430812 142 141 121
168.762060783486845 -1.442560541965323 106.617390232471365 154 152 140
165.097038386199358 -1.650357311358746 101.943048015836354 154 152 140
161.115894776268703 -2.010963488045573 96.867215623148724 156 154 142
157.956561869087551 -2.087005813333628 92.836468152488237 156 154 142
152.902224440613452 -1.819354298495943 86.382979988314787 158 155 146
148.668105061129040 -2.402264815858642 80.987023087226078 159 156 147
145.824800820557556 -2.458195789699154 77.359175994073922 159 156 147
143.740133029780907 -2.228047066968990 74.695761680742834 157 154 145
141.276139127307715 -2.172746082255787 71.550462165106751 157 154 145
138.748920295564233 -2.165062098545458 68.325040499708308 157 154 145
136.727473369387042 -1.965585790169088 65.742556152945753 158 155 146
135.654366047195055 -1.379083302585032 64.365288809192009 157 155 143
131.546586339577487 -2.108988964045893 59.132122306841580 155 153 141
129.651596524289801 -1.911546388554064 56.710880015763337 154 152 140
127.314051461011374 -1.924813041648294 53.727511379869213 152 150 137
125.608752704273769 -1.677715788016961 51.547587070802138 150 148 133
122.449303240607193 -2.096521171842222 47.520423592715616 149 147 132
120.554349968222269 -1.970719052325708 45.099901250840418 148 146 133
119.671021146933469 -1.399488421303695 43.964578378413762 146 144 131
118.345141441272887 -1.039751817162392 42.267135151953994 145 143 131
116.007661079328187 -1.161766253803124 39.284854958729824 144 142 129
114.049553930878076 -1.125816159337372 36.784611221801981 145 143 128
111.459185996884386 -1.406046771821880 33.481504635117005 145 143 128
109.690793066200243 -1.315752640074731 31.222519530981430 145 143 128
107.922421967600613 -1.240615737375044 28.963680003424344 144 142 127
106.343762131808361 -1.088378334485280 26.945866278597066 142 140 125
83.926687157331997 -1.366136573857399 -1.681926934592241 146 145 125
82.664629970729365 -1.238185327836071 -3.296657867353503 146 145 125
80.896685221222128 -1.399475777245696 -5.553267693348801 144 143 123
80.014156715972248 -1.084684583423448 -6.686333774273976 143 142 122
78.562494402837274 -1.095563088113501 -8.541505874809360 141 140 120
76.984380487936193 -1.190049758035395 -10.557041111494783 135 134 114
75.279808735363218 -1.369766438556792 -12.732919806625148 142 141 121
74.270973630239169 -1.166168027648243 -14.026134449781267 141 140 120
72.503222278211226 -1.408374838016436 -16.282003883715504 149 148 128
71.367980919582777 -1.298545696009380 -17.735498764130028 147 146 126
70.106288151479191 -1.272303688724649 -19.349357089163391 146 145 125
69.160893008385415 -1.070511894225407 -20.562043711370080 147 146 126
67.583032724371137 -1.251937295763868 -22.576805380163563 145 144 124
66.258216729658514 -1.295598759732264 -24.270605103329956 142 141 121
64.427404191224682 -1.655021821140802 -26.605958601007387 145 144 124
63.545450688804365 -1.454968580290633 -27.738118705925899 143 142 122
62.600299015350672 -1.300953413528485 -28.950430014343624 146 145 125
60.204084689546661 -1.330036135848771 -32.016427558321539 144 143 123
58.752998872204969 -1.517472671150137 -33.870058051964207 144 143 123
57.744788720106882 -1.439345935021683 -35.162280127525719 146 145 125
55.914190302158872 -1.889287445225515 -37.496804307843604 145 143 124
54.842801281201375 -1.871920802491623 -38.869035279857769 144 141 122
53.265318255628642 -2.187675725233148 -40.882594706553448 144 141 123
52.826713880707132 -1.782711968791493 -41.452948566825626 144 141 122
51.692207676291346 -1.832940351341509 -42.905147589989326 145 142 124
50.684294393297449 -1.810078028480536 -44.196942822344482 144 141 123
49.613159348980801 -1.837288436856529 -45.568836441932319 141 139 118
48.858458387044635 -1.664147878796406 -46.539878930428614 143 141 120
48.230383295844845 -1.413000221016325 -47.350583997871922 143 141 120
47.602384541186126 -1.167040839953002 -48.161272178916136 143 141 120
46.784614290230152 -1.054337873205998 -49.212379306160614 143 141 120
45.840339490876673 -1.034378513802607 -50.423730204373214 148 146 125
44.579686747182677 -1.238508756579847 -52.035714736220314 143 141 120
43.698803816382082 -1.192208080818097 -53.166804346540999 144 142 121
42.817981432959286 -1.153257641642986 -54.297847262842083 144 142 121
41.051109411231522 -1.738455768313277 -56.550606783455095 146 144 123
40.170375362796563 -1.718025131400341 -57.681501325283307 140 138 117
39.289700605772879 -1.704935638236187 -58.812348665839011 137 135 114
38.915490185600348 -1.340155557807995 -59.302235857654892 140 138 117
37.591831090251276 -1.655613752695272 -60.993791297220895 140 138 117
36.901252123573130 -1.527972815236045 -61.884182293084478 141 139 118
36.527288070302362 -1.177508032545918 -62.374039991430692 143 141 120
35.520315403771889 -1.289731251721012 -63.664894708132465 146 145 124
34.893271517350954 -1.132871323915737 -64.475122549436520 146 145 124
34.076358172957001 -1.120705096031735 -65.525604742684607 146 145 124
33.386146101884208 -1.021702230071637 -66.415876474091704 144 143 122
32.506042017338842 -1.069584658071882 -67.546369207790690 145 144 123
31.499344444447900 -1.219475680537412 -68.836967794724700 146 145 124
29.992728786378549 -1.161261975743397 -70.777420489149449 139 139 115
28.986185131306371 -1.334162507481369 -72.067855861402421 140 140 117
28.359707475665900 -1.224741004070609 -72.877866278037743 138 137 114
24.159008798325132 -1.025642235875861 -78.297861142899336 145 144 124
168.179966291241612 -2.076209481848958 104.020053701232314 152 149 142
166.975792782819383 -1.355665434286121 102.482390444759403 155 152 143
162.725400504832635 -1.809479258736977 97.092889585422711 156 153 144
160.188482134178855 -1.637667369719249 93.870418695211555 158 155 146
156.255351107078127 -2.033029155698333 88.882833889338059 157 155 143
154.353041688065588 -1.660102716282279 86.463286928025440 159 155 144
152.323802110324351 -1.354185920983738 83.883434913657084 159 157 145
148.136756965599375 -1.936210383355922 78.575807624327837 159 157 145
144.901663225576328 -2.165953372127485 74.472027109633785 159 157 145
143.253196842500870 -1.769768912658380 72.374238643227642 157 157 145
140.462349232128958 -1.863226328782523 68.832541641436876 157 157 145
138.179227872706235 -1.767087409094878 65.932869610566172 156 154 142
135.896108794797613 -1.690507537462246 63.033397819334226 157 155 142
133.549525804880943 -1.660709136054815 60.053909606324396 156 154 142
131.076010819687326 -1.705997592360317 56.914200361674460 154 152 140
128.983308540419927 -1.605833754906441 54.255967719820347 152 150 137
126.573271809907908 -1.663783591446387 51.196879910583789 150 148 133
124.099771423384183 -1.770657518637627 48.057797612169935 150 148 133
122.197504426458721 -1.641443781000753 45.640739013546437 149 147 134
120.295252755218087 -1.528500702797256 43.223840565239016 146 144 131
118.900783900626550 -1.198837499878437 41.448660828229777 145 143 131
116.681213231350654 -1.263223315929371 38.631097611692525 145 143 131
114.271239411677996 -1.435563806350511 35.573157186591374 145 143 128
112.686417604333400 -1.239326847489157 33.557838418300037 145 143 128
110.276471218240189 -1.449302918286601 30.500272271003865 145 143 128
108.818640473184374 -1.222700770165841 28.645606619496306 144 142 127
107.106941915209731 -1.131531382190906 26.470348997256991 143 141 126
82.006122859003881 -1.200467001090806 -5.420914044213220 146 145 125
80.421856971989754 -1.269789164102117 -7.433765229438109 143 142 122
78.901112228344246 -1.317207254018797 -9.366371296625914 140 139 119
77.443891635623928 -1.341904182855349 -11.218742095278344 139 138 118
76.367648849257833 -1.163600266306236 -12.590307650765652 145 144 124
73.770868277737819 -1.089321464442916 -15.893995597130782 150 149 129
72.123328312206326 -1.270545295329896 -17.986283704916843 147 146 126
70.539313019407913 -1.428757090385622 -19.998339787918638 146 145 125
69.590288456538119 -1.227904159861856 -21.209280443946540 149 148 128
68.260337608676480 -1.260158903229271 -22.900741086072571 146 145 125
65.283061707173687 -1.548700730491690 -26.683819985324618 141 140 120
64.207232585029530 -1.462688794796472 -28.054633428635327 140 139 119
62.877445365277438 -1.540157264141075 -29.745706942293197 143 142 122
62.182737959258645 -1.240079513761465 -30.635897885667504 144 143 123
60.599024598549136 -1.493876884039052 -32.647114501601862 143 142 122
59.332873854835327 -1.563963956274070 -34.257848582776944 145 144 124
58.447816472965457 -1.406567920454080 -35.388084710365547 145 144 124
57.308780246275091 -1.416436484689568 -36.838532030285592 144 142 123
55.471164226928011 -1.878485598474688 -39.169574384502539 143 140 121
54.522746586284384 -1.788973232587392 -40.379659305678530 143 140 121
53.891962134076522 -1.503494830012330 -41.189421607704958 143 140 121
52.689601906069839 -1.592706827464288 -42.719617105555415 144 141 122
51.296729649021927 -1.816004523418528 -44.489868745041093 143 140 121
50.412053303707481 -1.718258539896439 -45.619673151257757 142 140 119
49.718005527559072 -1.502278318225611 -46.509314001191058 144 142 121
48.833458075563556 -1.418465581156083 -47.639036647624522 144 142 121
48.203077513896460 -1.172357329281483 -48.448586912762153 140 138 117
47.382190054595625 -1.059498007736574 -49.498204387657808 145 143 122
45.486483462615340 -1.027159486095732 -51.917404276255780 143 141 120
44.538716476851761 -1.022840831329815 -53.126923526829927 146 144 123
43.527469734409621 -1.070199876404028 -54.416401219794835 145 143 122
41.690265072057315 -1.698719235796710 -56.745926803922544 147 145 124
40.615550439132505 -1.810841167767884 -58.115233923621815 141 139 118
40.239865506865300 -1.441314284060248 -58.604464575136575 138 136 115
39.800733149443133 -1.119618547373159 -59.173708730832686 139 137 116
38.726206333660656 -1.252928028793064 -60.542887607518850 139 137 116
37.651724151033065 -1.395211562678322 -61.911995462123144 141 139 118
36.831502310450645 -1.363668865503709 -62.961094333867607 141 139 118
35.693560684820199 -1.568771068065143 -64.410055669266484 146 145 124
35.318370538558099 -1.228404230578063 -64.899222865705610 146 145 124
33.678386335924671 -1.211605831795513 -66.997163966850962 144 143 122
32.159239680436997 -1.731163622472802 -68.925674582813087 144 143 122
31.466515222827312 -1.647993706667229 -69.814581420602906 144 143 122
31.155310162135990 -1.284726226387688 -70.223735705556635 140 140 116
30.399175397584912 -1.259105048115699 -71.192573776713090 141 141 117
29.643108748303888 -1.239679884667353 -72.161380655288042 142 142 118
29.141445019380512 -1.032634613517737 -72.810388747280797 138 138 114
24.606942805725694 -1.076454205286302 -78.622487088444075 141 140 119
166.694769758423035 -1.876183990639355 100.294152272020966 155 152 143
165.358536580279292 -1.220133946106224 98.598612008211319 157 154 145
160.199833312462147 -2.046526550585650 92.095454764643733 157 154 145
157.143458738509594 -2.098939953112224 88.236926925747042 157 155 143
154.787862750341162 -1.901817909655070 85.260028153903107 159 155 144
152.177424470768329 -1.826145404671685 81.962859662169308 160 157 146
148.866174613755106 -2.054364004143887 77.784637396576812 159 157 145
145.045230605058009 -2.517794163013711 72.965801137441616 159 157 145
143.071863059488408 -2.255702561356267 70.470530134050279 157 157 145
141.225921338089563 -1.957647470238802 68.135646632732090 157 157 145
138.424320528028915 -2.075607109817096 64.599346138508423 156 154 141
136.323542644472127 -1.920966571918334 61.944416082021093 156 154 141
133.267091346571760 -2.192618754313964 58.088181682495332 155 153 140
131.548595956244810 -1.912916731530870 55.914234980435054 152 150 137
129.957541002290043 -1.592349607938712 53.900618335272981 151 149 136
127.920509851418387 -1.481617031877327 51.326502912003747 151 147 135
125.118923824475630 -1.727935218099161 47.791516604589532 150 147 135
122.635910899119963 -1.855217802287580 44.657195148705483 150 148 135
120.917483972264606 -1.657457606640241 42.484059162345801 148 146 133
119.007930654719004 -1.561695221231805 40.070830646104525 144 145 131
117.034679090323451 -1.511581341207402 37.577686150894237 143 144 130
115.507461146048314 -1.270636532788188 35.645208576525732 145 143 128
113.470532176353174 -1.282142980777736 33.072302537814068 145 143 128
111.879645357753120 -1.099559813184321 31.060025795450912 144 142 127
110.033911982590041 -1.052398471959223 28.727625197413602 143 141 126
92.342616138656837 -1.044800480069183 6.372232270625091 139 137 122
89.161560621434120 -1.034502489539014 2.350988077905185 143 141 126
82.991044563277200 -1.071061411075497 -5.449993708572435 144 143 123
81.082045234503582 -1.314508274146900 -7.859995599944597 140 139 119
79.555467115585586 -1.362027481332655 -9.789809959546290 138 137 117
78.283860596321716 -1.279973331392759 -11.399500082428091 140 139 119
77.330973598689951 -1.029199503178519 -12.609106823783208 147 146 126
71.416578730047036 -1.326311760715292 -20.086498563354212 145 144 124
69.954007910874509 -1.422460751173309 -21.935574340046259 149 148 128
68.618958625061737 -1.455906154060423 -23.624583650875962 148 147 127
67.921386329179668 -1.122710314176294 -24.513744941892014 144 143 123
66.395199866551081 -1.290097753467276 -26.442512804590393 141 140 120
65.124031990120656 -1.317022343616195 -28.051290999782225 140 139 119
64.044151454772035 -1.238824601244797 -29.420085825485558 143 142 122
62.645578445774248 -1.364052025697258 -31.188619731349803 144 143 123
60.800789506503108 -1.775069328996998 -33.516755881323235 142 141 121
59.721042034143196 -1.728637654379890 -34.885287379810990 143 142 122
58.960115410517631 -1.492797316108207 -35.853996933430238 143 142 122
57.625459648169155 -1.622932742561076 -37.542199225550888 144 141 122
56.737141834427476 -1.482639443107451 -38.670699526650679 143 140 121
55.338817265864691 -1.673792920985392 -40.438673675581072 144 141 122
54.833172966144758 -1.305796023238688 -41.087434232096740 143 140 121
53.753753042807503 -1.311377131298366 -42.455587035213171 143 140 121
52.483093095145776 -1.449946355112749 -44.063459007487126 140 137 118
50.957410098464251 -1.765548835478398 -45.990942074694232 139 137 116
49.941893879601267 -1.759032735639583 -47.278931828705083 140 138 117
49.053971736082374 -1.676698201680892 -48.407024818394007 142 140 119
48.548742676777579 -1.347248606777649 -49.055587237748256 140 138 117
47.852279211752830 -1.149949363410217 -49.943880137709215 147 145 124
46.900787192800379 -1.130212203867938 -51.151776055589409 146 144 123
45.885575434357747 -1.161610751081301 -52.439521187912959 142 140 119
43.031615632095409 -1.174307029005617 -56.062715733320772 147 145 124
41.889048529798757 -1.327303769968684 -57.510000604229106 143 141 120
40.937892941140220 -1.356025971394924 -58.717558652662404 141 139 118
40.305754874434257 -1.168255326530479 -59.525667635118396 140 138 117
38.971955211898234 -1.482266936735827 -61.212386752523997 142 140 119
37.893369511572374 -1.625752278965284 -62.579519127510139 142 140 119
37.070028158288622 -1.595417837981694 -63.627113197883062 142 140 119
35.991540541539891 -1.755748865903166 -64.994119094610880 146 145 124
35.614956714536007 -1.416325475721743 -65.482609847583234 146 145 124
34.855626339076522 -1.358956021207670 -66.450245950391064 146 145 124
34.160177415345728 -1.261002148443167 -67.338001591622969 144 143 122
32.699032766366926 -1.733583234347879 -69.183884838585556 143 142 121
31.939881958122811 -1.697597308465479 -70.151386734331339 143 142 121
30.989338806487766 -1.810687973849926 -71.358369323554825 141 140 119
30.357963447668496 -1.692134039860993 -72.166130700472934 143 142 121
29.599015642729427 -1.675025722714104 -73.133535395594009 143 142 121
29.478437459853708 -1.179586975346550 -73.302668775968357 138 137 116
161.674177765914692 -1.891467784925724 92.164549528415364 156 153 144
158.542127749239711 -1.966555831383570 88.231599078503649 157 155 143
155.154248355723126 -2.168500339932894 83.978906783172874 160 156 145
152.725654638331491 -2.019374192786562 80.926565035725446 160 158 146
148.890067847399962 -2.454021239138379 76.114437554383414 160 158 146
145.757958086343990 -2.636716520487528 72.182623341304776 159 157 145
143.073520794773145 -2.663064846609240 68.811046990008492 157 157 145
141.156542411506194 -2.395331742501830 66.399600418759064 157 157 145
137.896501402776494 -2.704168603318590 62.308568744860565 156 154 141
136.043485778339857 -2.447789660222377 59.977498368036265 155 153 140
133.103218469894301 -2.669918509124099 56.286889947491630 154 152 139
131.697917293353782 -2.257215398933041 54.516037584691531 154 152 139
130.356593511625363 -1.828707489177338 52.825274853688285 152 150 137
128.503627606152122 -1.635872414321903 50.494834780439874 150 146 134
125.499423499915423 -1.968237512947267 46.725089336977447 149 146 134
123.774398941167533 -1.754595743861931 44.554946158086722 149 147 134
121.729596144389674 -1.699822034913075 41.985124676310477 147 145 132
119.748768852625332 -1.633277847065333 39.495435257693714 144 145 131
117.895880223251467 -1.524759394267375 37.165826129172103 142 143 129
115.979050694839572 -1.461608327897866 34.756414211957889 144 142 127
114.637897761174244 -1.145354097207025 33.066725231336903 144 142 127
108.887612793816544 -1.094758914714964 25.839821404920713 142 140 125
107.098824440755379 -1.048331524235743 23.591044943345281 142 141 123
96.366653399493387 -1.087497203120914 10.101389268049758 143 142 124
86.659071032026347 -1.122447529026005 -2.104727348811480 149 148 130
85.126557507539559 -1.129990383388091 -4.032113727415947 148 147 129
83.530104515045480 -1.185246532963954 -6.039279431695633 145 144 126
81.997662737271639 -1.218878787957309 -7.966431582374753 140 139 121
80.337301694486356 -1.336101946013212 -10.053244921826206 145 144 126
79.380740789687422 -1.075542492771473 -11.261194806939898 143 142 123
73.955476870689793 -1.030897490830972 -18.089231916012807 147 146 126
72.551279091378632 -1.075942042185260 -19.855900313632389 146 145 125
70.763206295522934 -1.356231218424204 -22.101656037572667 149 148 128
69.167120307317276 -1.539022025015249 -24.107684537153347 146 145 125
67.891009358261940 -1.546298069285795 -25.714300235698175 144 143 123
66.870903338066597 -1.412040332658795 -27.001409153323493 141 140 120
65.978836233673647 -1.209642818147924 -28.128755076511339 140 139 119
64.894853028889131 -1.130471520317618 -29.495597220514753 142 141 120
63.362963855743288 -1.332454349384105 -31.421280818322714 143 142 121
61.831107403866966 -1.547289658218603 -33.346847772843120 142 141 120
60.171288216058684 -1.853805875849784 -35.431971845303366 142 141 120
59.087484096651536 -1.817070652470558 -36.798462847305075 143 142 121
57.939732434546642 -1.829331990851625 -38.244716102770553 145 143 122
57.688061853368879 -1.287928849181404 -38.573326233586357 144 142 121
56.220413365098054 -1.518049813755779 -40.418593829955228 145 143 122
55.264842780401708 -1.434254592242035 -41.625197957775612 143 141 120
53.989294393032978 -1.563633896029320 -43.230825913713375 143 141 120
53.225862735774925 -1.373098716045931 -44.197870719075752 140 138 117
52.078434375291522 -1.438413838561950 -45.643732531676761 140 138 117
51.187107265339080 -1.345820689675317 -46.770302194172046 141 139 118
50.103798014185330 -1.387015863394514 -48.136227762723706 141 139 118
49.212592138428903 -1.309979935037892 -49.262695284956663 144 142 121
47.809294489357200 -1.581786940597883 -51.027460121940607 143 141 120
47.238306378372343 -1.306868766001567 -51.754861201991304 140 138 117
46.219236978528016 -1.339193866290157 -53.040751314414933 140 138 117
42.719795090228914 -1.153990691941487 -57.465775370073260 147 145 124
41.316800860735498 -1.493647540877294 -59.229986949420748 146 144 123
40.426133279466185 -1.486034486737264 -60.355997385371808 143 141 120
39.663608597403737 -1.395457732879501 -61.322447162263984 146 144 123
38.773069015017839 -1.401956798584201 -62.448373569303271 144 142 121
37.946636425498568 -1.370084420052462 -63.494504633620807 145 143 122
37.248367538310461 -1.253041969470612 -64.381107702321572 144 143 122
36.037762758769830 -1.511640155435852 -65.905615457847517 144 143 122
35.339625182959708 -1.408133444349734 -66.792142015295013 144 143 122
34.000989723501391 -1.778254984699250 -68.475970136330545 145 144 123
33.174854734348742 -1.782966854557621 -69.521866991596312 144 143 122
32.284720113641256 -1.841784385999715 -70.647448590664112 143 142 121
31.330576015342089 -1.955531839459117 -71.852701738696851 143 142 121
30.312412158389307 -2.125034730098097 -73.137613019827540 143 142 121
30.063169650340882 -1.724839874362143 -73.465931204681624 143 142 121
29.685896086626144 -1.423321970203206 -73.953701809766017 140 139 118
29.180572293215803 -1.222132157976606 -74.600898666273622 139 138 117
28.675345223985687 -1.024913900903133 -75.248100914085171 139 134 112
27.465257756491468 -1.373764277457533 -76.771927138784406 139 137 112
26.639732103145633 -1.435317741875991 -77.817530399123967 139 137 113
26.327021996045573 -1.104908508486491 -78.225626448592834 141 139 118
22.897653680734251 -1.538318646052317 -82.566946878871732 143 140 121
173.482533976576406 -1.345690088442569 105.134147095526913 162 159 152
167.772380077862465 -1.132662978118715 97.997231594917849 158 155 146
162.638286803772672 -1.932512181347135 91.592886675064108 158 155 146
160.393032652363956 -1.660747688733621 88.784150184349187 158 156 144
158.147773587210395 -1.408036393815142 85.975612168488198 162 158 147
154.233359180847685 -1.832715687819949 81.090234060167290 163 160 149
149.997928907625749 -2.418481353061741 75.805792560541136 160 158 146
147.110651156412814 -2.496960838987924 72.199214347313614 160 158 146
144.223365853295206 -2.599886579835976 68.592891384474058 157 157 145
141.464473844803024 -2.674443819906296 65.146571268192332 156 156 144
137.935174782440384 -3.092453085533635 60.742039950936714 155 153 140
135.946680178649387 -2.893604516641942 58.254656672654136 153 151 138
134.086597398343201 -2.657162443963414 55.927172419196239 156 154 141
132.290728845299554 -2.408984285496332 53.679706379017716 156 154 141
130.944290208600933 -1.981703117101069 51.991403204565074 154 152 139
128.570631973060017 -2.014294130993974 49.025509901849176 151 147 135
126.517997710702517 -1.925453899782706 46.459084302535075 149 145 133
124.529581275707130 -1.825397677874797 43.972680547825007 149 147 134
123.183223209311564 -1.453737410288118 42.284911362689144 146 144 131
120.745412013700559 -1.588367160082678 39.239900067220816 143 144 130
118.692842965674345 -1.567288404213140 36.674140772500294 142 143 129
116.704497373986811 -1.533889580116822 34.188389264676061 143 141 126
115.294029782516162 -1.247961010806532 32.421313451104879 143 141 126
111.445864852122696 -1.199272126447883 27.610228089025355 144 142 127
109.072357292263519 -1.414428455525924 24.646141940081861 143 141 126
107.405163304786996 -1.308523657424654 22.560300689806695 140 139 121
87.337021710130159 -1.166765775325994 -2.539459324343653 150 149 131
85.413358963780482 -1.381576026985222 -4.942741058036489 146 145 127
84.003486749578400 -1.334159173612351 -6.707646577142100 144 143 125
82.593655453038039 -1.298564724954747 -8.472449977166008 144 143 125
81.633424645033173 -1.027402746766400 -9.678753330280898 146 145 127
77.340099234362043 -1.057399660020711 -15.052077686478185 145 144 126
75.223981371663442 -1.479906335484269 -17.693728283324106 147 146 128
74.135534353617558 -1.333030239569637 -19.059131873862640 147 146 128
73.368289532753479 -1.010394135233694 -20.025712256002436 147 146 126
71.637646095464589 -1.252712399458412 -22.188473956981568 147 146 126
69.971263077473765 -1.472019779188872 -24.271355599959890 146 145 125
68.369143734691974 -1.667499046373931 -26.274367154692953 144 143 123
67.473642132638190 -1.457792700319521 -27.400145259446987 142 141 121
66.128547739607598 -1.523795616498952 -29.084013894575605 140 139 119
65.297399620927763 -1.292248582001145 -30.129944417447945 142 141 121
64.080881121556530 -1.300793257632743 -31.654196996075399 143 142 122
63.121374988214129 -1.162908355920360 -32.859475143164047 143 142 122
61.069805950341731 -1.702997331245427 -35.419936457950769 142 141 121
59.724928994797907 -1.823751549296854 -37.103345531772817 144 143 123
58.637076098310487 -1.795890758546819 -38.467808263704256 144 143 123
58.063257424521609 -1.455229862993931 -39.194531935064987 143 142 123
56.782777797557316 -1.564756705605861 -40.798005154238979 143 142 121
55.438090006616719 -1.725715888001312 -42.481090873863593 142 140 120
54.478958618985061 -1.651599154876910 -43.685891900222089 141 140 119
53.841161968158374 -1.378817264730023 -44.492168898884387 139 137 116
52.946418042703755 -1.277598355334652 -45.617192757841480 141 139 118
52.244515069493673 -1.058161618449727 -46.503111288073285 144 142 121
50.900081065977730 -1.265826702839639 -48.185837651419746 145 143 122
49.427157094284951 -1.569498571866445 -50.027824378194055 147 145 124
47.761464306853910 -2.013496957845912 -52.108723367703902 141 139 118
46.866989520466404 -1.955938202793743 -53.233426565966482 142 140 119
45.844039283789300 -1.992195423281272 -54.517419624063194 143 141 120
45.656675495686045 -1.471362476579869 -54.765723279989714 145 143 122
41.565748811273465 -1.720358436175389 -59.901043571103259 148 146 125
40.736001011771364 -1.669077057320052 -60.945788436919116 143 141 120
39.842033875428768 -1.669725802914307 -62.070135334178019 144 142 121
39.076707082301965 -1.586861806123933 -63.035165199458788 142 140 119
37.925700381487957 -1.784397849082251 -64.477954129954952 146 144 123
37.674860245974330 -1.347871711733476 -64.805881991438781 144 143 122
36.909756140402664 -1.283128202181114 -65.770831866404563 144 143 122
36.080423680434222 -1.271120169552494 -66.815371168947735 144 143 122
34.736728193001994 -1.640238071127929 -68.496788920902929 145 144 123
33.843196565418097 -1.691025369992470 -69.620828062742959 144 143 122
33.142653171680891 -1.607081284505701 -70.506002317207901 143 142 121
31.670430565068315 -2.100257231918275 -72.346373913955034 143 142 121
31.291584034492260 -1.791431060757978 -72.833467244748221 143 142 121
30.719888284413045 -1.630011902141312 -73.559361490293270 143 142 121
30.598544072082319 -1.133969589446771 -73.728134617603160 140 139 118
29.190808712346680 -1.613138692475182 -75.488641986777708 139 138 117
28.362043075711753 -1.662987448095267 -76.532815732665085 140 136 113
27.404671809295678 -1.818136720641756 -77.736098844810186 141 138 113
27.026383332454003 -1.535099199032393 -78.223193691072112 141 139 114
26.776890281248896 -1.155236254455219 -78.551182730363365 142 140 119
24.098605166379699 -1.546106219583820 -81.921950057555648 143 140 121
23.656444529650599 -1.334311860150294 -82.488614224725552 145 142 123
170.300379403951865 -1.759300434910602 99.344050029882453 164 161 152
167.466641984824321 -1.658411008536019 95.820870855905042 160 157 148
164.632889825073875 -1.581462063956958 92.297945165196978 160 157 148
162.507985299106110 -1.255920783049905 89.652798044538855 160 158 146
159.609770719529706 -1.248900123423984 86.050571876562344 163 159 148
154.649379140921326 -2.076486743721008 79.895990830919317 164 161 149
151.880017409471861 -2.075880399192592 76.453905697677953 161 159 147
148.788431472942477 -2.227935189447783 72.613248512803040 160 158 146
145.567948038890165 -2.458319089225885 68.613343959951976 157 157 145
142.283009946545235 -2.742250437999529 64.533966600567993 156 156 144
139.384730772036761 -2.893836700753730 60.933403955314901 156 154 141
137.775353994196195 -2.531008363513058 58.928117391995528 154 152 139
135.714872449423297 -2.372258669900551 56.364726292474728 154 152 139
133.718847619394012 -2.203399852668647 53.881254148192369 155 153 140
132.302856187348141 -1.801578968793041 52.115627983205059 156 154 141
130.435756727807359 -1.607882683771165 49.791940488907926 154 150 138
