ply
format ascii 1.0
element vertex 681
property double x
property double y
property double z
property uchar red
property uchar green
property uchar blue
end_header
88.639974324326815 -2.710516533012224 -64.451860147787215 144 141 122
87.863188956288340 -2.439042440322697 -65.191631958732671 144 141 122
86.849266166016889 -2.298177711720861 -66.149190266685281 144 141 122
86.784641913187244 -1.658705184036835 -66.235715542536326 144 141 122
85.454585987342924 -1.697594224663991 -67.483622085879261 144 141 122
83.096142566918985 -2.300174462970811 -69.674914724126893 142 139 122
81.370536092764766 -2.575380901003913 -71.285453131907445 142 139 122
80.119664842339390 -2.602990337851438 -72.460498574256036 142 139 122
78.710598662555725 -2.726034743623031 -73.780599514409886 143 140 123
77.380707434827926 -2.814832782045588 -75.028071110380807 143 140 123
76.288296190033492 -2.780419722683018 -76.057843935137811 143 140 121
74.879371296019897 -2.930684493100966 -77.377732273032109 141 138 119
74.182894138158105 -2.688882425811636 -78.044758942468718 142 139 120
73.882395010883229 -2.227069842993273 -78.349190398596789 140 137 120
73.898810773195748 -1.586223200892592 -78.363640199439430 137 134 117
71.065076961064761 -2.581498937492558 -80.988666640939186 136 133 116
70.289945944141024 -2.407071748302075 -81.728230935257415 136 133 116
69.039794143827635 -2.513840506703239 -82.902805733410588 140 137 120
68.344103584417269 -2.304886088404884 -83.569870591497818 140 137 120
68.203036501533958 -1.774300590369353 -83.729563935499442 134 131 114
65.527284472992719 -2.744044471319494 -86.208713363127657 137 134 117
64.515021785479277 -2.742187166551933 -87.165634985304479 140 137 118
64.215953559852309 -2.320160901498692 -87.470341439320492 143 140 121
62.807737487420525 -2.567788263065052 -88.789566672968476 143 140 121
61.399526439987554 -2.824963798838274 -90.108696026404971 139 136 117
59.832798474477912 -3.188252773923646 -91.572616920487377 139 136 117
60.564807915898555 -2.153862428796786 -90.935725263315845 139 136 117
60.425248407300870 -1.651041912937876 -91.095854026778682 139 136 117
58.938110368628173 -1.983933100322881 -92.487304483827330 141 138 119
58.164606346481321 -1.882198982184106 -93.226898860571765 144 141 122
56.201669188282793 -2.530982974613039 -95.052630315931737 141 138 119
56.062817968299456 -2.043639145611048 -95.212938612927189 140 137 119
55.527639393278704 -1.808087910390501 -95.735347858714135 141 138 121
54.437320046121442 -1.929716056261414 -96.764515229616478 145 142 125
216.779841323416861 -2.106853911830635 53.609928705265077 143 145 140
213.147762635078834 -2.160702960486192 50.248548289009733 164 165 160
208.328677402851383 -2.624392304837274 45.796363152875557 171 172 167
204.142553758728809 -2.913679910208176 41.926447237255417 171 170 166
199.560682366040226 -3.362716713655426 37.693205642184097 174 171 166
197.511101640499135 -2.995879692832835 35.787610990237425 174 171 166
195.303278511936185 -2.696561195359284 33.736696193725152 174 171 164
192.778918244816055 -2.520437837254261 31.395044249075681 175 172 163
185.268530360902673 -4.081198206534357 24.472459692379374 168 165 156
182.031741291698609 -4.204896624348599 21.476987496518092 170 167 157
180.773618098646409 -3.654773949384193 20.299464471810012 168 166 154
179.594725835112229 -3.085096623609672 19.194695241077625 167 165 153
177.307784390834314 -2.920817344094623 17.072161517196378 166 164 152
175.733259416623355 -2.514256087798100 15.604046230179591 165 163 151
171.784077888191746 -2.986322602737731 11.955236108480335 163 161 149
168.705572514684775 -3.164240430858151 9.106317412617443 159 157 145
167.051959936677548 -2.832685362115953 7.565950555615018 156 154 142
165.635902565649474 -2.423150636225573 6.243712072841760 159 157 145
164.140754197142144 -2.053261372792205 4.848859657902040 156 154 142
161.774805175295398 -2.026769212810145 2.654682315433575 150 148 136
159.250523236032450 -2.077577220052218 0.315328817549755 152 150 138
157.359648286450579 -1.898926313665440 -1.442535269564473 150 148 136
155.389639501332965 -1.764276056836858 -3.272947965137035 148 146 134
152.865399163966998 -1.862757391392315 -5.611830639718704 149 147 135
149.628496238891842 -2.263422354430171 -8.604397411535473 148 146 134
147.896095516712279 -2.079549740712765 -10.216411005650599 150 148 136
146.718082145835865 -1.682027096671985 -11.319828620995651 147 145 132
144.827424073651486 -1.584771141556542 -13.076958622390691 145 143 130
141.748856065464963 -1.991674716506116 -15.923490288712941 145 143 130
139.303831556045623 -2.155452580171048 -18.188738528958424 148 146 133
137.809239286310088 -1.936342028145095 -19.582304938623196 146 144 131
136.077098339012139 -1.828086264911526 -21.193664445922508 145 143 130
134.186587963561664 -1.799299712813061 -22.950160314967491 144 142 129
132.533754436094227 -1.681019701690095 -24.488704519769442 144 140 128
130.564108749704275 -1.711542532596506 -26.317590710960815 143 140 125
127.960723689505542 -2.032830506593310 -28.727176245676986 145 141 126
125.753427047509774 -2.197203491598311 -30.773569902190559 148 142 128
123.863043886630081 -2.235766349461347 -32.529433368939976 144 142 127
121.576529244529581 -2.464652197794909 -34.648124227349854 143 141 126
119.765418852283162 -2.494549535529011 -36.331141828520458 141 139 124
117.558141849157622 -2.716965332823222 -38.376947416377192 141 139 124
115.747076378221848 -2.772864454030712 -40.059718858329404 144 142 127
114.173785477911935 -2.731306228278877 -41.524667362515231 144 140 128
113.551577532577710 -2.258028138327524 -42.118747982715831 143 139 127
111.265133716423762 -2.568757652843304 -44.236630266044983 139 136 121
109.771274759946181 -2.520944389519113 -45.628784241213793 141 138 123
107.960412809137594 -2.634002913139360 -47.311064676053832 145 142 125
107.100814965192029 -2.303776086879533 -48.122682938704656 143 140 123
105.369325488636832 -2.399906657634278 -49.732250256163638 144 141 124
103.400025604773063 -2.623347921277314 -51.559316071756228 143 140 125
101.906429258311050 -2.627441234695724 -52.951061378186267 141 138 123
101.126489774108109 -2.290011292045562 -53.690003187467056 145 142 127
99.474455225248931 -2.390514203815211 -55.226677578364132 145 141 129
97.663852950227380 -2.581465467016061 -56.908280452112109 144 141 125
95.932563455862734 -2.744828671699032 -58.517251381089807 144 141 124
94.518529443225589 -2.759249901719726 -59.836093839950451 145 142 125
93.501128234907483 -2.580956681092996 -60.792373354903390 144 141 124
92.483837054150968 -2.409437954015705 -61.748635773399400 144 141 124
90.594066570611631 -2.695756259677971 -63.502242071602495 144 141 124
89.418268924651031 -2.623393594707712 -64.603372647141498 142 139 122
88.877259185334708 -2.226421208014021 -65.124653872920135 142 139 122
87.304960877451251 -2.376780591357140 -66.588101725558886 143 140 123
85.812037168884288 -2.495673353394988 -67.978987131257412 141 138 121
84.795282880260700 -2.370294420867837 -68.935031457025531 140 137 120
83.937359719125268 -2.166326361927748 -69.746151237273438 139 136 117
82.920831990785615 -2.053899899663859 -70.702170622421676 141 138 119
80.634414147547503 -2.639899251178762 -72.817231840388814 143 140 121
79.379850270857105 -2.675957708623017 -73.990423772976101 142 139 120
78.601678569619196 -2.457712474276637 -74.728984455492082 143 140 121
76.712122957046034 -2.861475309212181 -76.481484631689995 143 140 123
74.981321553924374 -3.189437542111063 -78.088994761360397 143 140 122
74.838670616246446 -2.636652909042947 -78.248158901506031 141 138 121
74.855108592769369 -1.994638751364174 -78.262631347375134 141 138 121
73.521640454682711 -2.120246870728914 -79.508012857036050 139 136 119
72.108783066797272 -2.300298315625081 -80.825713294137643 137 134 117
70.775387949729279 -2.444140731713865 -82.070942042027269 135 132 114
69.362583484524308 -2.642990272265822 -83.388474298915838 140 137 119
69.379965112438441 -2.017803911923746 -83.403224967404384 142 139 122
66.139718431483615 -3.302274828557211 -86.385094639203402 134 131 114
65.839497170851857 -2.874941977792201 -86.689304108577943 134 131 114
64.665256606674873 -2.967969666471292 -87.789477140709863 138 135 116
64.365424135147165 -2.547039843032762 -88.093806695882279 141 138 119
63.509370115973780 -2.461789305844206 -88.904598648148010 142 139 120
62.176418931206030 -2.670146924354207 -90.149375684340214 140 137 118
60.207386805364735 -3.273780047092064 -91.972656088655299 140 137 118
60.067217911663306 -2.773831849786722 -92.132463758155495 139 136 117
61.040759973908834 -1.590410990685923 -91.280077870067487 138 135 116
60.583133972621184 -1.283980800204365 -91.729458709072929 141 138 119
56.784661044062602 -3.056011660573009 -95.215268352471128 145 142 123
56.486188692564568 -2.667574510082646 -95.519914120998038 140 137 118
57.222361265981789 -1.630823425047999 -94.885038392185407 138 135 117
56.606215604379329 -1.442945182473540 -95.479081424141924 141 138 121
55.273955073699540 -1.713985834203718 -96.723543638932256 144 141 124
218.342947258583990 -1.940266378510895 53.636441609036353 139 141 136
213.509132874696888 -2.372775574328114 49.190981895636583 162 163 158
208.675215449051024 -2.838357211174662 44.745911908310575 171 172 167
205.587533780466913 -2.766506542761433 41.898812127951089 171 171 166
201.150353676865734 -3.161224426300756 37.817509354051367 173 170 165
198.777050631101417 -2.897904768469692 35.624412367010336 173 170 165
194.974827889361904 -3.132255381269910 32.124568506132164 173 170 163
192.760299290921523 -2.852178712204295 30.077059649230819 173 170 161
188.958000187349455 -3.133069173448941 26.577731377631295 172 169 160
185.711383419950863 -3.246991501835086 23.586860088700178 165 163 152
183.655651024249750 -2.965519078817173 21.685087075360656 167 165 153
181.679351580085893 -2.669939277906802 19.856027280871928 168 166 154
178.670903265320618 -2.756796608110313 17.083515081713017 165 163 151
175.980039649319679 -2.749570452897118 14.601538542357531 165 163 151
172.177514111665971 -3.165699531320970 11.103710675071113 162 160 148
170.042453531706315 -2.994597753330502 9.130165208740806 158 156 144
169.177971014090815 -2.366453445055812 8.317817142927083 156 154 142
167.281247128150085 -2.130821274576315 6.562164630142206 158 156 144
165.225739859516978 -1.968123640984775 4.661506525359925 159 157 145
162.217259554863517 -2.182918316797795 1.890326553422454 152 150 138
159.605847525430704 -2.265420260564424 -0.517876851291248 150 148 136
157.788658776443469 -2.057342896986790 -2.200436180580738 151 149 137
156.050945830812736 -1.830495270520178 -3.810350788600630 149 147 135
153.677858268167398 -1.866516139750815 -6.000469599606390 150 148 136
151.463641965574055 -1.855382733574399 -8.045359489659972 150 148 136
149.646618448431013 -1.699661213961305 -9.727458940294184 149 147 135
147.988519391952792 -1.491863058730504 -11.264405589293460 146 144 131
145.774392963018556 -1.522646236665158 -13.308907006140203 144 142 129
142.924726525440093 -1.830503652113661 -15.933387276347275 146 144 131
140.075021024586874 -2.157800960778469 -18.557648754230968 147 145 132
138.337588653078484 -2.038357419719143 -20.166592023742908 147 145 132
136.282388968695642 -2.064980645243016 -22.065448501066783 144 142 129
134.386127533108123 -2.037876851431378 -23.819175761178769 144 142 127
132.648824285066553 -1.955401419233443 -25.427800271598926 145 142 128
131.467826063208804 -1.643936766408866 -26.528904106330373 144 141 126
129.333300019943493 -1.756426281039484 -28.499786145544022 145 140 125
126.880892500531715 -2.023196971358548 -30.760442222211992 145 140 124
123.713172416278113 -2.623626880769476 -33.673190662072074 144 142 127
122.611848038457509 -2.322921141881554 -34.701440558865357 143 141 126
121.033722370990688 -2.244185890057637 -36.164458808820967 141 139 124
118.740256966820098 -2.500484189356048 -38.279542276353084 138 136 121
116.367280626578022 -2.808708411671343 -40.466912369918759 144 142 127
114.073771524887860 -3.096503623379954 -42.581650719165140 145 141 129
112.654751817307570 -2.994390605732285 -43.899307584207605 144 140 128
111.394812314079672 -2.827558063589614 -45.072016294467915 140 137 122
110.771039995168579 -2.369855897072675 -45.665188192906982 141 138 123
109.670338431057957 -2.142352056231914 -46.692982537734167 145 142 125
108.172145125766463 -2.112033488917743 -48.082882893592682 143 140 123
106.037817095575761 -2.397760090309829 -50.052076445221616 144 141 124
104.142055271336147 -2.582446499256542 -51.803862654738680 142 139 124
102.643968082770286 -2.586022247007222 -53.193464885262983 141 138 123
100.986856263406509 -2.677840996320981 -54.727799717800792 144 141 126
99.329775658861962 -2.780865638602107 -56.262034135515449 145 141 129
97.593175156621086 -2.934719555175633 -57.868562180409270 143 140 123
96.254363061000575 -2.900833524482191 -59.113028912513045 144 141 124
94.120021213125241 -3.277706415656084 -61.081277639260321 145 142 125
93.736071869750049 -2.779131688832950 -61.457024094185840 144 141 124
92.795325339674619 -2.568013113789060 -62.339453947402461 144 141 124
91.456817694144320 -2.568149791612451 -63.583716114555585 144 141 124
90.357120788518841 -2.453417309049700 -64.610830272316178 142 139 122
89.018757148238251 -2.470693322448780 -65.854984907295943 141 138 121
86.406947738566117 -3.166403735183102 -68.256686143844689 142 139 122
86.103411678610982 -2.658552719801009 -68.560138638502309 140 137 120
85.163241743505552 -2.491629283318989 -69.442389410013220 141 138 121
84.621255875537386 -2.117528926100078 -69.962968225901392 139 136 117
83.203641891931980 -2.219329493944090 -71.279198599502166 141 138 119
81.626817798010521 -2.417131534553868 -72.739992980509072 143 140 121
79.970373922649429 -2.669097912493981 -74.272998875175460 144 141 122
78.632483637985786 -2.757114462443431 -75.516651793980202 144 141 122
76.737117723271609 -3.162602573440896 -77.266354582416682 142 139 122
74.363779620487691 -3.847085500081933 -79.449678590162620 142 139 122
74.937735456951344 -2.896528705268332 -78.958029459135332 140 137 120
74.157728785113150 -2.704979484217092 -79.695437502530098 139 136 119
73.696566736447465 -2.337725611209576 -80.143752797309901 139 136 119
72.120051431139913 -2.609870199332615 -81.603929656543187 136 133 116
71.499812517017588 -2.343658391764101 -82.196820817260573 135 132 113
70.959447335149250 -2.035334106116172 -82.717497897675855 138 135 116
69.064270131069591 -2.517702801117811 -84.466499594160410 142 139 120
67.966154482745523 -2.547034340298146 -85.492887296646614 135 132 113
66.389782169793378 -2.864922485770999 -86.952661701517201 133 130 111
66.009348479704684 -2.486086847772002 -87.328857498331274 137 134 117
65.708881513236975 -2.062014331183039 -87.632915862618574 140 137 118
63.813701769474321 -2.594078047330326 -89.381404808310208 142 139 120
62.795744448076263 -2.610995757293918 -90.335408876497837 139 137 117
61.219515390632324 -2.972674941871975 -91.794801051148255 141 139 118
61.956716636783554 -1.936359021228179 -91.160412956479973 140 137 118
59.742398018359467 -2.702063201181327 -93.197257519467144 140 137 118
58.884373537481892 -2.647566521419866 -94.006790244703893 141 138 119
57.547651684260643 -2.895217233871867 -95.249358942477613 141 138 119
56.210933650971029 -3.151862547867055 -96.491836881741420 140 137 118
56.789961275519943 -2.217539296792696 -96.002446976728663 139 136 119
57.848465252241283 -0.976800351543182 -95.080437696235236 140 137 122
54.037155995645065 -2.812685930208768 -98.559449195606192 140 137 122
217.353974070909402 -3.686495075945716 51.356065678304276 112 114 110
214.256901429765890 -3.556551439115652 48.512860526920349 135 136 132
212.354130360362916 -3.066925530739129 46.757486480836178 160 162 157
209.416299139675772 -2.923785230497269 44.059682709694783 171 172 167
206.319207216910740 -2.852513533976981 41.217090722328351 171 171 166
203.222096575318119 -2.802337557105770 38.374724838824818 172 169 164
197.258296737505759 -3.726336424366707 32.922881054521639 172 169 164
194.320331034657187 -3.674656741954892 30.226083069270487 172 169 162
191.860156629976530 -3.480865540704497 27.964401848976138 171 168 159
190.116723067994542 -3.058183785250669 26.355208145141830 172 169 160
187.417678901376718 -2.978096484647798 23.876395156789044 168 165 155
185.753968013740518 -2.554498996754833 22.339911857640658 167 165 153
182.895664623085935 -2.563811736073637 19.716490405852824 166 164 152
179.957703059138851 -2.620955795588136 17.020810618009392 165 163 151
176.940074619432210 -2.726747890666620 14.252885064202474 165 163 151
174.957884717101365 -2.477029934416936 12.427115323716180 162 160 148
172.497813837169190 -2.415956122022477 10.166750704291900 159 157 145
169.161533103373387 -2.695795411270384 7.109623331250134 158 156 144
167.259062781592604 -2.462940834131202 5.356748484837567 157 155 143
165.117652447658543 -2.333035356511939 3.386664773258474 158 156 144
162.338954393482368 -2.459987967669175 0.837230212582142 155 153 141
160.038242666173346 -2.422453096582416 -1.277411211230771 147 145 133
158.374908106029920 -2.153840807938770 -2.812479203648024 150 148 136
156.233595607335786 -2.083137501543099 -4.782000321581535 148 146 134
153.534574862694939 -2.246641684483369 -7.258317105417831 150 148 136
152.429121709883304 -1.795358782068246 -8.286141776795290 149 147 135
151.005043322255517 -1.479209681734950 -9.603581767564265 148 146 134
149.023245773205872 -1.398082005607208 -11.427803824069656 146 144 131
145.527394682918640 -1.947441029546793 -14.627536753344060 144 142 129
142.668989546444237 -2.258612303236244 -17.247802348745495 146 144 131
141.324758192513457 -1.961762890880382 -18.492383340438238 145 143 130
140.379107440538149 -1.507463068316818 -19.374970217452699 144 142 129
137.998932280797419 -1.663756816485292 -21.560460317139473 145 143 128
135.299926437276582 -1.971589726302333 -24.035298581530242 144 142 127
133.397980285782410 -1.956571303017071 -25.786181892248067 145 142 127
130.938073190735054 -2.195178523246600 -28.043540098384142 143 140 123
129.753620960661863 -1.895797969882817 -29.142867159718378 144 140 123
127.214009613204809 -2.198370074396687 -31.472295586938259 145 139 123
125.312164939533446 -2.236460408919811 -33.222680769175014 143 141 126
124.127908745803737 -1.967990100315215 -34.321783438946738 143 141 126
122.465352913808744 -1.922037096955196 -35.854932028363095 143 141 126
120.164948455926861 -2.175625773276282 -37.966723767895331 139 137 122
116.987368127828589 -2.844299679897844 -40.874052631152068 142 140 125
114.846366070584963 -3.058953098111426 -42.840784943094093 145 141 129
113.104106162193276 -3.103790444678371 -44.445727709804544 142 138 126
113.116482552144944 -2.343282196306313 -44.459476825781763 140 137 122
112.730294790885381 -1.769503302554081 -44.834926543533527 140 137 122
111.068074048080732 -1.801191348222338 -46.367436240148834 143 140 124
109.086819316778801 -1.995956122384200 -48.189078079216813 144 141 124
105.908962969352828 -2.777786002010692 -51.095110124498490 143 140 123
104.645637894311520 -2.656837278232782 -52.265726883615542 142 139 124
102.504779016154345 -2.971086752750344 -54.231502499701435 143 140 125
100.603256343341357 -3.182641921040713 -55.980256165369923 143 140 125
99.419874959796104 -3.052929217343548 -57.078349039602074 144 140 128
97.837589249829733 -3.129229820570250 -58.537781277546031 143 140 123
95.936122378236277 -3.375790066630150 -60.286201313476056 143 140 123
94.992363828066757 -3.153080577135385 -61.167309537709230 145 142 125
94.048726444090661 -2.936593840842518 -62.048411673509264 144 141 124
92.865747267928342 -2.848523308454378 -63.146268318586266 144 141 124
91.762682027744361 -2.727322339657758 -64.171837660018127 144 141 124
90.500049388620951 -2.696018128476934 -65.341862922103076 142 139 122
89.157651706966888 -2.714709367866934 -66.584073117885282 140 137 120
87.416090006552380 -2.951600136168129 -68.187373002549435 141 138 121
88.469313575895200 -1.726019576174249 -67.262681560391457 140 137 120
85.769674409230063 -2.485494538105215 -69.732567866632962 142 139 122
85.306063157238412 -2.068437054745947 -70.180224124517309 139 136 117
84.283558026851153 -1.954924888778796 -71.133395116708357 141 138 119
82.063004088991875 -2.496691519937341 -73.169561825936910 143 140 121
79.922237641877629 -3.010061715941329 -75.133332011101004 143 140 121
78.580290870739873 -3.100059431851223 -76.375023927544476 142 139 120
76.599207946943778 -3.551627065045994 -78.194104557899635 141 138 121
75.017580052690420 -3.794887519321422 -79.652132891005607 141 138 121
74.235072735707831 -3.602480002998670 -80.388353469199245 138 135 118
74.251904962998779 -2.965999400258254 -80.402957563623602 138 135 118
73.789467484913928 -2.600131282664476 -80.850648433064407 141 138 121
73.007496333913963 -2.418967930413780 -81.587009769396929 137 134 117
72.465498846732089 -2.105583332964593 -82.106958048876749 138 135 116
69.924928326652321 -2.946480558521414 -84.430386360299508 137 134 115
70.102746085230223 -2.229968708684975 -84.301111413069009 138 135 116
67.961863159246562 -2.863144763078239 -86.263592653255529 137 134 115
68.140125905095474 -2.151349924344889 -86.134482031845238 132 129 110
67.918817150508744 -1.673634704013388 -86.366102699741703 134 131 113
66.657872914917007 -1.813804506801095 -87.535170620121960 138 135 116
65.076964802789632 -2.153309645544151 -88.992552599643375 142 139 120
61.895819818261259 -3.463769129838610 -91.891569922126195 140 137 118
62.395161099065774 -2.574583937878244 -91.474452599610686 140 137 117
60.414053584508665 -3.187349196376815 -93.291862177694043 141 138 119
59.633375562147819 -3.080672639999091 -94.028075412326217 140 137 118
59.253075143322789 -2.733260278256864 -94.404011510087827 140 137 118
57.912325212935087 -2.981223467787619 -95.644649973068653 139 136 117
57.372248734757449 -2.740985772117032 -96.164764318865650 140 137 118
58.193683778904500 -1.653949481659100 -95.460336589755002 142 139 122
57.413919676489044 -1.566298447806335 -96.196791201295383 141 138 121
56.153711945260994 -1.787098568903400 -97.365381494467130 141 138 121
218.765197365431703 -2.460322450875877 51.222614105269656 131 131 129
215.099721875930129 -2.516953314422749 47.877239238834477 154 154 152
210.475763367768309 -2.906360637587502 43.663518179347051 171 171 169
207.529012841445933 -2.782722389339315 40.970182117866983 173 172 169
202.265905977360347 -3.438895812673510 36.178102319153311 170 170 162
198.200801793501512 -3.733779614613932 32.472066482866580 172 169 160
194.614891676110346 -3.895823490325279 29.200571769150486 172 169 160
191.827737399256876 -3.812055483155646 26.653013583236117 171 169 157
189.120459517562949 -3.719909431471155 24.178015449170232 173 169 160
186.652835318968528 -3.563441990829059 21.920282376966242 168 166 155
185.383540352884324 -3.006182447675330 20.748030426813528 164 162 150
183.395317061038952 -2.710437700584603 18.924673262310193 165 163 151
179.329920688033638 -3.166022573445622 15.220431385161817 165 163 151
177.501504048337893 -2.846964357262635 13.542101058633364 165 163 151
175.593240079706845 -2.569189003735429 11.791535480897409 164 162 150
173.045816511611491 -2.537898367450053 9.462407776343525 161 159 147
169.379748367139058 -2.936463091776380 6.120836131016659 159 157 145
167.471539520159922 -2.705567173067545 4.370726736844205 158 156 144
165.563375230932053 -2.487565380566872 2.620728752114758 157 155 143
163.415520057918940 -2.373324469944132 0.653889472717282 156 154 142
160.788203526001439 -2.456988169006936 -1.746693313992893 149 147 135
158.800219027189002 -2.311767785834246 -3.568615293369902 147 145 133
157.052033859718733 -2.086651685935441 -5.173502202884691 147 145 133
155.064132527044194 -1.967473075520118 -6.995195907607723 149 147 135
152.756559767493627 -1.988345376183785 -9.105953822753833 148 146 134
151.248298304373463 -1.705538576502364 -10.493636594632846 148 146 134
148.700976540059855 -1.851509754997103 -12.820988356858720 146 144 131
145.354275293464298 -2.339496660152714 -15.870988024320781 144 142 129
143.286533315552305 -2.326209606250202 -17.764255127967004 146 144 131
142.657799056301627 -1.732463898231342 -18.356453615670802 146 144 131
141.629478580774787 -1.309315643788766 -19.310029806486909 145 143 130
138.602507394953648 -1.732298185213849 -22.070220821969883 145 143 128
135.895287559924213 -2.040438176990231 -24.541126380029283 144 142 127
133.347943654513244 -2.298688177912423 -26.867311807706841 145 142 127
131.999998619693827 -2.058284576134787 -28.109535162107676 143 140 123
129.452653058823046 -2.346929628301667 -30.435406926287271 144 139 123
128.424696661892767 -1.988921298073329 -31.388486773092609 144 139 123
127.556803217766742 -1.567304358730454 -32.197077173396480 143 141 126
125.729310317659255 -1.577310897263409 -33.872462184949399 143 141 126
123.581924382531724 -1.742694915068199 -35.836647626283082 143 141 126
120.954620822813922 -2.138836443122421 -38.234020127579925 141 139 124
119.127166142421402 -2.189625206885421 -39.909003631381950 140 138 123
116.499791752420819 -2.618638929936373 -42.306003877697663 142 138 126
115.232342732740818 -2.438735991879946 -43.475254601178847 144 140 128
113.804973981091976 -2.341574104204501 -44.788866347688980 135 132 117
113.257768280601610 -1.842377291909733 -45.308235694245752 137 134 119
111.350509778861124 -1.987452396700833 -47.054929671706361 139 136 119
109.283225819312207 -2.221324835290030 -48.945871752949046 144 141 124
107.055884440152823 -2.545650591539177 -50.981029601683446 144 141 124
105.148620592175249 -2.730963818429016 -52.727306830317900 143 140 125
102.521061179574104 -3.278311584865807 -55.123000490701202 143 140 125
101.254059256598325 -3.179255028553129 -56.291632911292140 143 140 125
100.707530297551187 -2.734496364154879 -56.810765649432057 144 140 128
98.640247509994964 -3.046098208741260 -58.700908183528128 144 141 124
96.492880654582393 -3.411577344093599 -60.663043072968009 143 140 123
94.985949661896868 -3.470148116799426 -62.047848366496453 145 142 125
96.041164415611235 -2.244193676545222 -61.124113348653964 145 142 125
94.534501250676527 -2.314092776492824 -62.508930161897297 146 143 126
93.268112137685392 -2.271051522047880 -63.677279155042555 146 143 126
91.040797895798491 -2.731913382535017 -65.711044551444303 146 143 126
89.534217565987916 -2.833765132391766 -67.095572088049892 143 140 123
89.068916876385956 -2.401724002862473 -67.542574358969489 142 139 122
87.001772240295537 -2.815017869905008 -69.431736217180458 142 139 122
86.296414063637769 -2.521470966246826 -70.095046873261822 143 140 123
85.110525497628728 -2.488532771316530 -71.190944171363128 143 140 121
83.764474431542808 -2.549379140672602 -72.430972676626254 142 139 120
82.498604599567116 -2.575967385511227 -73.598853360614385 141 138 119
80.110903378799932 -3.220225683546277 -75.775720154259119 143 140 121
79.085490236635607 -3.136177868612542 -76.727196672217076 141 138 119
78.541077432247945 -2.794414231189006 -77.246281591939550 142 139 122
76.714343643856850 -3.165744137100861 -78.918310477001882 141 138 121
76.009864105421727 -2.924498867060025 -79.581503103608270 139 136 119
74.664170271098357 -3.047089371203498 -80.821066943925103 139 136 119
74.681566640235701 -2.410294728003717 -80.835944154451255 139 136 119
74.458702458702192 -1.909369156058033 -81.067059627236972 139 136 119
72.952972569330825 -2.141712629780371 -82.450650794766489 137 134 115
71.126432536293592 -2.568325008799548 -84.122203321458699 137 134 115
69.219615007289860 -3.053619733715341 -85.865606207303443 137 134 115
68.756667350318679 -2.712950841962941 -86.312793620623211 139 136 117
69.657814098054303 -1.577972728425386 -85.536134301628891 131 128 109
68.714017498557268 -1.521066305254277 -86.415517628940194 134 131 112
67.128367670329794 -1.849932029642692 -87.870740704569300 138 135 116
63.696828610231236 -3.287399172021293 -90.981239660712049 143 140 121
61.709585297199979 -3.884239344157209 -92.795877818751165 140 137 118
60.765756312398480 -3.866673416077610 -93.674840701564904 137 134 115
61.588243047579795 -2.786352507097289 -92.970846973045070 139 136 117
60.725119122394389 -2.725973601369359 -93.778000690311217 139 136 117
59.219704405243050 -3.064420140897859 -95.160650462992521 142 139 120
60.203913083673513 -1.880332746347315 -94.313374308509481 138 135 116
59.742914798278264 -1.583768222810615 -94.761040306091076 140 137 118
58.880483065155033 -1.539971577070691 -95.568354476134886 144 141 124
57.134410953130669 -2.055013342148396 -97.166633447404394 143 140 123
57.557754266787924 -1.216135612729107 -96.823500002841115 141 138 121
215.765049915747113 -3.724325907480913 47.127941138089966 129 129 127
214.411646668584297 -3.058252944443869 45.883947345191643 149 149 147
215.942496146769201 -1.477766912238942 47.241644278932341 167 167 165
208.420215717246322 -2.816424891471543 40.433321748736461 172 171 169
203.621767915185842 -3.315388498263155 36.082485717373771 170 170 162
198.422589224275669 -3.979236748394348 31.370760785508679 172 169 160
194.745643159652843 -4.170224119453088 28.032256401920279 172 169 160
192.591059369971958 -3.872823680002659 26.066750716631248 170 168 156
189.635207632028084 -3.862854265222834 23.378938693999743 170 166 157
187.079998782623420 -3.735082046010900 21.052542307937273 168 166 154
185.887085536649238 -3.151420829760617 19.954336723934688 163 161 149
182.851106084649473 -3.222191780473722 17.194829741274759 163 161 149
180.456219114556177 -3.086476653236160 15.013371927185574 163 161 149
176.378355113135285 -3.568610060189426 11.315367798134019 164 162 150
175.586342045931616 -2.892497655695501 10.578715720856707 165 163 151
174.233414764717338 -2.426022744947295 9.336548790501780 161 159 147
170.876806810833699 -2.705362808590730 6.289140751094180 159 157 145
168.562137438510717 -2.620770281622048 4.180692228721426 157 155 143
167.289515784138757 -2.161598623872074 3.011041422722201 157 155 143
164.894756556048549 -2.134988012369085 0.830645564886424 155 153 141
162.580168516479603 -2.093980595868469 -1.277393223359695 155 153 141
159.463942162863134 -2.376939663387232 -4.107185089389674 147 145 133
157.470023018322081 -2.245465759017911 -5.926126455180366 147 145 133
155.796825821201452 -2.001894744077072 -7.456218433464187 149 147 135
153.241768400021272 -2.117767944532736 -9.780179297568594 149 147 135
149.965098725541367 -2.538251104434857 -12.753517794123042 149 147 135
147.730712761432699 -2.562286338122110 -14.788396578766196 146 143 134
145.897261675769244 -2.439008789551961 -16.462303174836848 145 143 131
144.865736440892221 -2.000564689196681 -17.414503667590765 146 144 132
143.754133946356148 -1.601992999961630 -18.438843931968336 145 143 131
142.402054183139626 -1.310705310713210 -19.679613021950956 143 141 128
140.408470737231937 -1.297019158265943 -21.497502536315153 142 140 125
136.089039310781629 -2.278259329707142 -25.407380735361301 144 142 127
133.774575170953995 -2.435830634575974 -27.513434726282668 144 141 126
131.861154921253672 -2.437043331398015 -29.258661792675525 141 138 123
130.589477950815024 -2.173777832449173 -30.426747971722989 143 138 124
129.317893160632991 -1.918986194604047 -31.594791023780061 145 140 125
128.287067853007329 -1.567013565564263 -32.546436265038068 143 141 124
127.176133710371388 -1.257351924008002 -33.570181070888367 143 142 125
123.979309906313048 -1.884989635129834 -36.468726327382058 142 141 124
122.467308623757773 -1.777409857116805 -37.852816282701809 142 141 124
120.313456510336849 -1.970474280834422 -39.813623398180653 138 137 121
118.801548767631246 -1.885314900875905 -41.197527318223564 146 143 128
116.647715523830556 -2.105200806286931 -43.158067373879021 143 140 125
115.376655056870476 -1.931030618668947 -44.325531383280321 135 132 117
113.303103953178521 -2.139494363905318 -46.213736828691793 137 134 119
111.470333190133047 -2.248839646236662 -47.885574385112761 144 141 124
109.316510204598686 -2.522373496334451 -49.845567123042599 144 141 124
107.644299696045934 -2.580951017472899 -51.373020963086901 146 143 126
105.089067299858996 -3.074475281539675 -53.693010767634519 145 142 127
102.694318736370860 -3.507687841703801 -55.868678536478001 145 142 127
101.744693349401871 -3.253743030323951 -56.747301606955602 145 142 127
101.678421581841391 -2.573167725371478 -56.833461808941308 146 142 130
100.167009097624288 -2.606032503750673 -58.216387776995560 146 143 126
97.129853313777275 -3.407185261049005 -60.967813819684437 144 141 124
95.136562405691564 -3.706601225034849 -62.782620365766547 144 141 124
95.472414082769248 -2.846133396628276 -62.508712344815081 144 141 124
95.888897972200340 -1.942270118514588 -62.162966304112842 145 142 125
93.815537701346457 -2.306614799457743 -64.049658482520840 145 142 125
91.822466230461131 -2.643649985098826 -65.864182773060634 144 141 124
90.311400048239918 -2.744697186265112 -67.246572574873085 142 139 122
89.523489182039640 -2.479209850331714 -67.980960360938184 140 137 120
88.333960402518372 -2.429440481039648 -69.075289445105795 142 139 122
86.823075931652298 -2.557157738493497 -70.457491648720406 144 141 124
85.231854018415078 -2.737654373545266 -71.911576295551129 143 140 121
83.962137900982043 -2.756955814393604 -73.077691936494489 142 139 120
82.290586468819114 -3.000888611415596 -74.603553121455406 140 137 118
80.458254196292799 -3.343079798478953 -76.273203650368572 137 134 115
79.429826304873700 -3.259602134155270 -77.223232053770062 137 134 115
80.009532516805294 -2.301260160343942 -76.734414019414345 143 140 123
79.222684180278023 -2.092587628031236 -77.468725292718005 141 138 121
76.988487716362329 -2.692504467634794 -79.497766894936149 139 136 119
75.317134158838741 -2.993120862004865 -81.023139269703393 137 134 117
75.254396074752805 -2.400920577681219 -81.110080285267713 137 134 117
75.513706845981517 -1.626776617107235 -80.909525667301892 137 134 116
74.807999919728957 -1.399534774964345 -81.571986971465549 135 132 113
71.930143230863365 -2.420008541434617 -84.175645803996190 135 132 113
69.534790482815339 -3.182199338394398 -86.347638194761345 136 133 114
69.472962565204540 -2.609015051731456 -86.434818889630861 136 133 114
68.767581767820630 -2.410920796757845 -87.097136181970171 133 130 111
67.981874403492498 -2.264463238597715 -87.831352882479848 136 133 113
65.747325692530765 -2.977273746982585 -89.859063899672918 138 135 116
64.800731500313645 -2.941438808942453 -90.736891968834442 140 137 118
63.129585785830855 -3.343982389750622 -92.261314587266128 145 142 123
62.022066653660858 -3.419626582444674 -93.282726975904751 141 138 121
63.089100657811670 -2.190550536588435 -92.364678379212648 140 137 118
62.545797136380060 -1.930950788371651 -92.883448221911834 138 135 116
60.633243749314417 -2.510404482414883 -94.623137867349982 140 137 118
58.720555228010099 -3.102841269513728 -96.362629223532650 138 135 116
60.514236903756967 -1.420553079615646 -94.799141558180963 141 138 119
59.327014031285444 -1.575668676992150 -95.892464796489890 146 143 126
58.623415445140026 -1.436801626806299 -96.555025037204729 146 143 126
58.967886931507095 -0.644653554354230 -96.284537453902175 144 141 124
217.642520000361458 -3.456363302828973 47.446455345462056 123 123 121
219.419213733306151 -1.797304074387362 49.018309091789973 147 147 145
216.294037440037812 -1.690877381541350 46.188790702969584 166 166 164
198.881444069116299 -4.145029020655395 30.487799474182140 172 169 160
196.640037746793837 -3.856055748341189 28.453057251050382 172 169 160
195.122024748316505 -3.339055952286913 27.067628914100681 172 170 158
194.086341373298069 -2.668527717065992 26.115028702748248 174 170 161
189.272938931141198 -3.300178909126701 21.772712739919143 170 167 156
186.147416206881900 -3.379906189314815 18.945276258857547 163 161 149
183.504167475304769 -3.312095510471186 16.550756179987530 161 159 147
181.262851477405377 -3.120214214085239 14.516970162444466 163 161 149
178.700001202197285 -3.058015885131424 12.194904393287629 164 162 150
175.654798948956341 -3.186617312006626 9.440404845271019 163 161 149
174.619441398610917 -2.605874004544572 8.488572961877395 160 158 146
173.101803307684378 -2.208831448828847 7.104200050576566 158 156 144
170.056624143113709 -2.387035773489567 4.350200044564531 157 155 143
168.941097995271377 -1.865431705290635 3.326470408396659 157 155 143
166.699982178975716 -1.775277998490827 1.293635757843703 155 153 141
163.333150249887126 -2.128044575384466 -1.748125350883527 157 155 143
161.011618624679613 -2.102690911353160 -3.852681219622923 152 150 138
158.850930736576402 -2.030738435236889 -5.812946076007847 148 146 134
156.851104620192501 -1.910545656257998 -7.628945444425540 147 145 133
154.047088484454463 -2.120320233152452 -10.165415393566292 147 145 133
150.197503697182981 -2.764050437292586 -13.638387464417207 148 146 134
148.197669007944711 -2.693159931126616 -15.453875238549358 147 144 135
148.208683909197646 -1.823815790199360 -15.468093325516406 146 144 132
146.852488386894322 -1.510934617502022 -16.707115723032302 147 145 133
144.450662269801001 -1.636386079137809 -18.882565554083982 147 145 133
142.451046934127334 -1.611510272010528 -20.697684613796582 144 142 129
140.371012423900453 -1.633621381917496 -22.584706641036036 142 140 125
137.727839439414737 -1.906611007975024 -24.975754928313194 144 142 127
134.440989971908635 -2.470357441426443 -27.942748765933374 144 141 126
133.326428124546567 -2.127669283752915 -28.965098048798922 141 138 123
131.568271670935360 -2.069703047730242 -30.563494171684852 143 138 124
129.488291173058087 -2.163273815958945 -32.449806468085796 144 140 125
128.454446047907311 -1.812980987642154 -33.399989747958216 142 141 123
126.696439773690344 -1.788935547631387 -34.998108552357849 142 141 123
124.214156274891110 -2.098555847266486 -37.244030990338729 140 139 121
122.939096076657094 -1.884255927028674 -38.409994617505760 140 139 121
121.744615936840802 -1.642098147437954 -39.503935338434957 141 140 122
119.986783352890313 -1.663993924633987 -41.101664339635107 143 140 123
118.228986195640132 -1.697647818194355 -42.699289256648740 142 139 122
116.793233538737852 -1.594485507242789 -44.008951936994407 138 135 118
114.149938796527707 -2.062161612001918 -46.397937970066209 138 135 118
111.265028964552542 -2.660746185841417 -49.002565320508040 145 142 125
109.346215847968963 -2.823164660818513 -50.743553085811754 146 143 126
107.507929201186784 -2.960200272352282 -52.412466831890981 146 144 129
105.186487630303120 -3.340687327015301 -54.512888259915854 145 142 127
103.026057762559532 -3.659205376739196 -56.469257243078374 145 142 127
102.959590143062712 -2.976274527711390 -56.555347996967583 141 138 123
102.490647150714096 -2.490250464667938 -57.001163476191294 147 141 127
101.296950684188658 -2.363794802293723 -58.094288123720389 144 143 125
97.364469478108717 -3.602043690710346 -61.632342037401088 142 141 123
95.606832821238527 -3.782059154215622 -63.228537164081160 143 142 124
95.299404983297805 -3.245540921647394 -63.530422931558093 141 140 122
95.153340942318721 -2.629321869825001 -63.688607217122609 142 141 123
93.879416355736097 -2.587988691632145 -64.853333683444220 145 142 125
91.719129280966584 -3.009320948568515 -66.808712659991869 145 142 125
90.928832646741057 -2.738470144794079 -67.542014311680248 143 140 123
89.735694640367115 -2.681961503472767 -68.634686124805484 140 137 120
88.703849401183064 -2.549064254620383 -69.583588381359760 142 139 122
86.785390536701385 -2.889404541046850 -71.322914181069279 144 141 124
85.189363394405689 -3.071884086092257 -72.774679611700662 142 139 120
83.996471407337282 -3.050192404215490 -73.867110731164303 141 138 119
82.803657478133971 -3.036366550820121 -74.959498226318999 140 137 118
81.288364182403612 -3.204503121691402 -76.339175206932794 136 133 114
80.256966201056855 -3.119915869176276 -77.287794151042164 137 134 115
80.193516204818195 -2.513061926498984 -77.374545427739690 142 139 122
80.211010794092303 -1.861859747994848 -77.389617930441233 139 136 119
78.050747493132988 -2.415512427620335 -79.343646239715326 136 133 116
75.567663823649013 -3.163457163246867 -81.584673985168394 139 136 119
75.101512410986501 -2.798086098198544 -82.030583004625981 137 134 117
75.200421317018112 -2.117099146766345 -81.974051542109265 137 134 116
74.896154130222570 -1.663807757129748 -82.276592658556382 135 132 113
72.170860224014717 -2.593695487370676 -84.732451681105516 135 132 113
69.768181077058301 -3.356816432189075 -86.900929573266552 136 133 114
68.495473378434710 -3.483648152484134 -88.064507188837723 137 134 115
68.272361874142462 -3.009234060575163 -88.295231447281168 137 134 115
67.080591541241034 -3.102056501766491 -89.387020410857843 138 136 115
67.100172452855844 -2.490780888782462 -89.402680018819552 138 136 115
67.200845149631789 -1.831111882932753 -89.346772911426058 140 137 118
66.090295564188821 -1.890677425647120 -90.366901047227856 143 140 123
64.172006023604155 -2.440671353425554 -92.104149780657934 142 139 122
63.465456658712512 -2.274645212491667 -92.765577941099565 140 137 118
63.243877307757444 -1.819752522494628 -92.996834232851143 139 136 117
63.022584082728031 -1.365871466717322 -93.228216993005532 138 135 116
62.801580435627926 -0.912991245724450 -93.459727984153545 140 137 118
59.024291713359645 -2.649657747291240 -96.845177217417842 144 141 122
58.237521744598055 -2.561514208089370 -97.578285316117274 146 143 124
58.501977612776500 -1.824302628727447 -97.379811931343312 146 143 124
59.009449028305525 -0.932827037831463 -96.966607613639042 145 142 123
219.051189234726792 -2.236613468822897 47.314291739066903 142 142 140
199.579596755785303 -4.231170143269400 29.822115661034019 168 165 156
196.847774290815806 -4.103229401468325 27.358491118748304 171 168 159
196.212096070785947 -3.291341438175433 26.767369150260606 168 166 154
195.576543077706674 -2.483644014571101 26.176230408959043 170 166 157
191.635445385193407 -2.809979089294191 22.632911805862705 167 165 153
186.484833952388101 -3.580302152522989 18.009907347854892 165 163 151
183.430474292872191 -3.654678391724279 15.259230504514079 163 161 149
182.795107431318115 -2.898333278391292 14.668531313655762 160 158 146
179.982678575501723 -2.919661555948680 12.134146208537743 163 161 149
177.815351242749841 -2.728522168373034 10.175830788960610 163 161 149
174.841627642358333 -2.843856958283945 7.497858423190735 162 160 148
172.271101036433151 -2.831847967115248 5.179981608403466 157 155 143
170.507055145535048 -2.539698542911196 3.581992406928833 158 156 144
168.823716820164719 -2.229333285678572 2.056064362948376 157 155 143
166.011279822525580 -2.354226501889139 -0.477250801209465 156 154 142
164.892625711523749 -1.856262651144844 -1.499240689889461 157 155 143
163.451435650539594 -1.489047821328436 -2.809020159985494 155 153 141
160.639041705168722 -1.660242073737415 -5.341879320375597 150 148 136
158.229954677945784 -1.693431306987472 -7.514805258374935 146 144 132
155.417517013470274 -1.901047269052299 -10.047268596741048 145 143 131
152.685719478155477 -2.095631379808811 -12.507585154958178 145 143 131
150.276602020983546 -2.179760956560215 -14.679972180828287 146 143 134
149.723142828757773 -1.533134109682957 -15.197867449782450 145 143 131
148.040259570859348 -1.348546293326434 -16.722718506097578 146 144 132
145.469865123849956 -1.538430826713568 -19.038580353786273 147 145 133
143.141523493218557 -1.645678477495743 -21.138513407326997 143 141 128
140.893874649967074 -1.734964030546333 -23.166375621733465 142 140 125
138.404129256453757 -1.940844490466741 -25.409796161144925 144 142 127
136.317878789544181 -1.992835133952124 -27.293536930964535 144 141 126
134.312350105308042 -2.024395101366548 -29.105246143215936 142 139 124
131.419012219483392 -2.450719305712880 -31.707614704104486 144 138 124
129.817056498505565 -2.337412924579634 -33.159588596144033 144 138 124
128.134439136327899 -2.269990660960444 -34.683360812167280 142 141 123
126.855493727131588 -2.036320096793967 -35.847665159496302 143 142 124
124.769350763035021 -2.168787972092477 -37.730628965717813 141 140 122
123.894212310495021 -1.774578373409885 -38.535471261304650 143 142 124
122.292568641165118 -1.712935617865332 -39.987062638131192 138 137 119
121.175435890876159 -1.442390914464522 -41.007439401032258 140 137 120
118.927948923204397 -1.695358833303146 -43.033694191343159 142 139 122
117.730217444480829 -1.480514154344502 -44.125798335418040 141 138 121
114.594412225000724 -2.171648582161096 -46.942022185096334 141 138 121
111.054655001918661 -3.072399163282043 -50.117133521117324 144 141 124
108.887744665516607 -3.351528735964624 -52.070807715668053 146 143 126
108.174710871122869 -2.956713706565423 -52.731488786225299 145 143 128
106.330944250469074 -3.105820195649918 -54.397656679981651 145 142 127
104.891101723989649 -3.073235583218032 -55.704636289034482 148 145 130
104.016840480759072 -2.776656190278641 -56.508893281795082 145 142 127
103.061921920321993 -2.525103751928877 -57.384959490331596 148 142 128
100.895129398744984 -2.874244068473710 -59.337969391333900 145 144 126
98.405066751703146 -3.397550014828693 -61.577970737752054 143 142 124
97.207893218194684 -3.294636967120700 -62.669189632395216 143 142 124
95.525901506271481 -3.442384398472805 -64.191046307593382 141 140 122
94.975457392173908 -3.030969810681258 -64.707962821645992 141 140 122
93.616898438517339 -3.033175104727770 -65.942611218415692 144 142 124
92.500909410775023 -2.920476682711175 -66.961910343193239 145 142 125
90.899961570120865 -3.064544333552188 -68.411717121520212 143 140 123
89.945827339885042 -2.884440268530867 -69.287423096937289 140 137 120
88.425823808509463 -3.005458223224756 -70.665331732550413 141 138 121
87.310162169365427 -2.924520955493699 -71.684460545394700 142 139 122
85.790246447409857 -3.064341506891102 -73.062217644159915 140 137 120
84.351230893798729 -3.171292481712364 -74.368156564301955 140 137 120
83.397553668412257 -3.028295033900252 -75.243699212220804 141 138 121
81.554193827549042 -3.370292489449762 -76.908076184416728 139 136 119
79.710791057512793 -3.724630899664827 -78.572305587797501 138 135 118
79.889992555076844 -2.989114478127722 -78.443888240158458 141 138 121
79.664956255771486 -2.473772754418389 -78.674112971939678 140 137 120
78.064512496070918 -2.718589013446259 -80.123123844831156 140 137 120
76.464060865459928 -2.974069968154955 -81.572021175235960 139 136 119
75.672972560000247 -2.788110022350364 -82.304070269872994 137 134 117
75.205815603893470 -2.425225562410375 -82.749472644918058 137 134 116
74.657920311671418 -2.110902209217352 -83.266609097767144 136 133 114
72.248088664350888 -2.859203551265153 -85.431817803886759 137 134 115
69.595149627959202 -3.762834089352232 -87.811702541693052 136 133 114
68.561552791787662 -3.752081911580983 -88.758509539675401 136 133 114
68.256946356417913 -3.325932788454709 -89.060608971783154 136 133 114
68.600575972206258 -2.523930420354621 -88.789820075696923 136 133 114
67.972524544762550 -2.288652002678385 -89.378655343898629 137 134 115
69.370069092818497 -0.863434280255943 -88.177305303643550 140 137 118
66.716978826153081 -1.829736687522454 -90.556472580372144 144 141 122
64.549809570388959 -2.524187057819991 -92.505747803178508 145 142 123
63.111863998086179 -2.795865153855929 -93.810502979700487 142 139 120
62.565515049871024 -2.539311610768467 -94.327784544545551 140 137 118
63.316422830287507 -1.499241184909156 -93.699992255895950 138 135 116
62.608500980044880 -1.343619824569946 -94.360656722416564 141 138 119
58.738374422056623 -3.132549231651709 -97.812013569873272 143 140 121
57.381597878012201 -3.397186706280965 -99.044813319022438 145 142 123
58.052513018835228 -2.412835156431703 -98.489038168322082 145 142 123
57.993894115980950 -1.878608276379975 -98.577353036694831 142 139 120
219.564603287436000 -2.396492748632786 46.405168624307578 139 139 137
