ply
format ascii 1.0
element vertex 687
property double x
property double y
property double z
property uchar red
property uchar green
property uchar blue
end_header
-115.403283475414810 -8.240650233705704 -0.704159359526045 9 15 10
-115.436934279029188 -7.484573860964677 -0.363266949585636 9 16 9
-115.380394264254960 -7.809092182503728 -2.715011652073031 8 15 8
-115.441295439814439 -6.737154591903214 -1.588321881347611 0 4 0
-115.605444445461032 -4.424850563278238 2.568183475387116 2 9 2
-115.664149249807480 -3.378173838695170 3.583223647516121 7 14 7
-115.643245625010934 -3.297333408958981 2.242084674865367 6 11 5
-115.703038924442239 -2.244787792448590 3.257585167859020 14 19 12
-115.744283709489764 -1.420514289388265 3.712267410085929 13 16 7
-115.459925227265259 -1.903309277656278 -13.158490684752962 67 70 59
-115.469816602610294 -1.550537682539484 -13.711684364540872 72 74 60
-115.427843287823976 -1.858104749520674 -15.724058240701822 77 80 63
-115.361658568965211 -2.480932603561376 -18.409922941449508 78 81 64
-115.412697577278067 -1.631245281820353 -17.839957888666333 82 86 71
-114.689383599089297 -177.074632250327426 -19.373251792114985 89 80 65
-114.669970389445467 -176.515934024618588 -19.388289966568777 27 13 1
-114.572704249547868 -175.208485405274814 -21.776316563270029 64 49 36
-114.587473846884620 -174.975059841333888 -20.773923640838376 76 63 47
-114.576439225587180 -174.491192038254013 -20.562465490374024 64 52 38
-114.624736419901126 -174.563950652382317 -18.543151408628603 43 34 19
-114.639824440629212 -174.316033477203405 -17.540755322972416 37 29 16
-114.603570997521459 -173.583614844980190 -18.119932423408159 33 27 15
-114.531010137789281 -172.514408389005723 -19.828534442967879 28 24 12
-114.488236109500747 -171.723678792043216 -20.633148962897309 30 26 14
-114.464087003367695 -171.104401704975203 -20.872794112491420 27 23 11
-114.505762797679751 -171.083449069394703 -19.079330072621332 21 17 5
-114.511098189133122 -170.725120084558682 -18.415312790365334 20 16 4
-114.440469366960087 -169.679150857977504 -20.122751337303697 21 17 5
-114.406492205559857 -168.965097269828135 -20.700650431748528 21 19 6
-114.416138376456217 -168.638691465873677 -19.923383401124966 16 15 1
-114.461921171410864 -168.626382348241378 -18.017006729232264 15 11 0
-114.475338517122537 -168.321531618986398 -17.126854819370891 30 20 12
-114.460181972044609 -167.762849637560663 -17.139856452876415 50 27 21
-114.484616389826655 -167.544745584436271 -15.910964431623313 51 17 13
-114.480548563871281 -167.075578439862028 -15.585163183964056 102 63 58
-114.480225559769579 -166.635417392296858 -15.146412967117755 118 77 71
-114.451613437068289 -165.952503112803811 -15.610566027971288 114 71 64
-114.430374886617159 -165.331734346171118 -15.848834132310827 119 76 67
-114.420006966127872 -164.800991368223777 -15.748398429108590 125 81 70
-114.420444894587206 -164.357777311114006 -15.309315610894288 125 81 71
-114.417508130971186 -163.883615606955942 -14.983024678399659 123 81 72
-114.411214424149961 -163.379331435054723 -14.769508646640901 130 89 79
-114.391031781849833 -162.760420946424546 -15.007252479951404 147 109 97
-114.378094212163617 -162.199193247211497 -15.019218767587574 153 118 104
-114.368856704474794 -161.666095278281773 -14.918266519881513 151 117 102
-114.377288004264855 -161.270752061037882 -14.253149171777665 153 122 104
-114.368379269108416 -160.735634021662008 -14.152060434018949 143 114 96
-114.356161056680776 -160.173125963204541 -14.163695762989306 104 77 58
-114.319770789022797 -159.423326112471443 -14.964835003275482 83 59 39
-114.346172431205048 -159.154810603298927 -13.735520779054042 96 74 53
-114.351818576132302 -158.723026494407009 -13.182969828814407 84 58 41
-114.350660447951697 -158.236772383096337 -12.855952476445651 67 41 24
-114.325445384022359 -157.569267256293784 -13.318321781877302 67 41 24
-114.331508927789699 -157.132856265041482 -12.765618776287766 74 48 31
-114.337687646802337 -156.693886807275589 -12.212887006836723 62 36 19
-114.337098585604110 -156.202634363428928 -11.885648865121937 70 45 28
-114.329771604674008 -155.660745019854403 -11.783873121998909 65 41 28
-114.315735628194375 -155.069863853342923 -11.907529006636025 67 41 28
-114.322421126906349 -154.623926304053384 -11.354626521580457 86 58 45
-114.318952615276416 -154.104128821110464 -11.139918612429938 102 73 59
-114.322449912598515 -153.630375697033827 -10.699686556596134 111 79 66
-114.319239644685766 -153.108165311883823 -10.484879941751103 111 82 71
-114.316160383240515 -152.585017814038281 -10.270020300032797 116 86 75
-114.309808993349449 -152.038265560003111 -10.167827893881025 117 87 76
-114.296800872699038 -151.446337811569151 -10.291002828806114 115 88 76
-114.294120708639554 -150.921455200411486 -10.075970120659463 116 94 83
-114.294950664953291 -150.417463626409358 -9.748184256097204 115 97 87
-114.289126542669223 -149.868834515483883 -9.645758926360372 41 37 25
-114.280051397717898 -149.298502398355197 -9.655971159589967 33 35 27
-114.257612996427682 -148.644225641728696 -10.116875952873073 38 40 35
-114.235340279899958 -147.992271243515546 -10.577677577931951 44 46 41
-114.216596206258899 -147.363107559940516 -10.925697631133630 49 52 48
-114.198003687093561 -146.735710794374654 -11.273626993418986 49 51 48
-114.192991150351290 -146.189777729777745 -11.170785652181593 52 54 51
-114.184739092826717 -145.623764106265185 -11.180559670783310 55 57 54
-114.190006703982462 -145.135377793837591 -10.739631329638428 56 58 55
-114.178631506094206 -144.549393005277580 -10.861963906039819 58 60 57
-114.167380258788555 -143.964064424856616 -10.984230430227370 61 63 60
-114.126205063547062 -143.212368579152638 -12.120254934658306 61 63 60
-114.095220338027644 -142.521095968895679 -12.918205731826276 64 66 63
-114.074389634513963 -141.887783061143523 -13.378125616576028 63 65 62
-114.076987304527165 -141.380919510388537 -13.049523646538631 61 63 60
-114.056401715750042 -140.750257203379249 -13.509298985273631 63 65 62
-114.029306959414328 -140.087488322582999 -14.194236546390954 62 64 63
-113.995721315320992 -139.394248266180739 -15.104310750921485 74 76 73
-113.985484414050262 -138.821983027805771 -15.225957547900663 42 44 41
-113.968731196346852 -138.217602294083292 -15.572770079093232 69 71 67
-113.965320925865242 -137.679339677260288 -15.469083263396584 35 37 32
-113.938872519374769 -137.029822599171155 -16.153575205501028 41 43 38
-113.929056832533817 -136.461426607576982 -16.274980666840008 53 58 51
-113.909445976305932 -135.847807435407901 -16.734114263315888 57 62 55
-113.922889732294252 -135.386526023598037 -16.067277708309177 68 73 66
-113.916637112838671 -134.833628236417894 -16.075960194699974 64 69 63
-113.913757936556422 -134.295261474642899 -15.972020377375145 60 65 59
-113.891246818494508 -133.671274889778175 -16.543507051078649 56 58 55
-113.885257851058611 -133.119666466599568 -16.552050135175563 47 49 46
-113.889186950021852 -132.609054660461993 -16.222849796767889 45 47 44
-113.873520789204377 -132.016634401863598 -16.569019168493412 46 48 45
-113.867769814140232 -131.465207063418859 -16.577446533859330 46 48 45
-113.868636469037767 -130.939490582863954 -16.360725623117702 41 43 40
-113.863031572368499 -130.387629918118307 -16.369087565525518 42 44 41
-113.854235451893615 -129.823540546168118 -16.489960939610256 44 46 43
-113.832467752085464 -129.212009506528261 -17.060963753385209 44 46 43
-113.843394972943599 -128.720624164186802 -16.506499859959234 47 49 46
-113.838080248446360 -128.169239391703059 -16.514718086396442 50 52 49
-113.839343190075141 -127.640286073204493 -16.297840911839927 58 60 57
-113.837411419781674 -127.099368659347277 -16.193474113880711 61 63 60
-113.855037393359893 -126.621835812718430 -15.413945199576602 59 61 58
-113.853212153134265 -126.078281358810315 -15.309554582376052 59 61 58
-113.835223993967858 -125.483708884266790 -15.767715828912941 50 52 49
-113.820560497701706 -124.901185198733913 -16.113303658955800 44 46 43
-113.818931872884903 -124.358566912031065 -16.008809345178292 39 39 37
-113.814122075267605 -123.806155011710842 -16.016796589069713 35 35 33
-113.815841913805912 -123.271806508005767 -15.799756371949428 36 36 34
-113.824076504263815 -122.753886792447901 -15.357712640231028 35 35 33
-113.829120382536729 -122.225353243229975 -15.028163472727357 34 34 32
-113.814839388816836 -121.646035306351408 -15.373535316481878 30 33 28
-113.803853765047705 -121.076306421588086 -15.606373076696514 27 32 26
-113.799379384112001 -120.523001694742007 -15.614209048709114 27 32 26
-113.801402156124595 -119.984487022326860 -15.397066793720512 27 32 26
-113.787373170007072 -119.409368281337436 -15.742274853469098 29 34 28
-113.783061078695368 -118.856418127688670 -15.750029536881783 25 30 24
-113.775585614107996 -118.296928923812345 -15.870223761875877 29 31 28
-113.768165230484797 -117.738008199135848 -15.990385784683497 27 29 26
-113.751166183511245 -117.161594336202555 -16.447886927626286 29 31 28
-113.740650623939672 -116.598875556321801 -16.680427652208948 30 32 29
-113.743019473689628 -116.059170483093126 -16.463132088210642 33 35 32
-113.751838265806313 -115.528805465756562 -16.020936982164329 36 38 33
-113.747876635459562 -114.976555645162435 -16.028516797372760 38 41 34
-113.740760667392479 -114.419664395552502 -16.148512298415454 38 40 35
-113.727296290811537 -113.854559007938974 -16.493347178420407 39 41 36
-113.720283394781390 -113.299334182394489 -16.613276216813887 40 42 38
-113.713319175178384 -112.744669196157062 -16.733176205864197 38 40 37
-113.700015833489729 -112.183419459707665 -17.077894359174365 36 41 38
-113.702726241559674 -111.640315146074556 -16.860470384935638 37 42 38
-113.708662825520591 -111.099164036998275 -16.530624028972909 35 40 35
-113.705067073924411 -110.548125850192264 -16.538016337085907 32 37 31
-113.691954544582700 -109.989647643076623 -16.882614677679641 31 36 30
-113.682079370549133 -109.435024149734446 -17.114765715164907 30 35 29
-113.675435864564975 -108.883438652220534 -17.234480577194802 26 31 25
-113.672018490106666 -108.334074474870278 -17.241770318876235 27 32 26
-113.668642203364158 -107.784718925757232 -17.249040315520460 34 39 33
-113.662128712896845 -107.234247163385703 -17.368681514337482 36 41 35
-113.662011773145352 -106.686030752757944 -17.263521639908163 38 43 37
-113.652407608538482 -106.135536264636031 -17.495500525487614 39 41 38
-113.642849905546385 -105.586135259360674 -17.727445928221613 37 39 36
-113.636509961624256 -105.037863320713356 -17.846981459075550 33 35 32
-113.646063036258909 -104.488961401969220 -17.404625884427929 33 35 32
-113.646137829870753 -103.939410229356497 -17.299388024790460 30 32 29
-113.639915088151611 -103.390877049049124 -17.418870175603871 34 35 33
-113.633734767001002 -102.842889904103558 -17.538326411946457 33 34 29
-113.640252895730086 -102.290154603283497 -17.208321088865063 32 33 27
-113.649964190422367 -101.734193149860531 -16.765962489621046 30 31 25
-113.653381077475544 -101.179790766542851 -16.548316834965277 29 30 25
-113.644192840833313 -100.632856713450167 -16.780060092685801 30 30 28
-113.635049736971155 -100.087009062069455 -17.011770576160444 31 33 30
-113.625951721532672 -99.542247112522276 -17.243448313813388 32 34 31
-113.607431966763826 -99.007435127167184 -17.812107614048500 35 37 34
-113.598428107132094 -98.465658299890592 -18.043709580523057 36 38 35
-113.586316346317716 -97.928463946489629 -18.387610071485284 34 36 33
-113.590010540106945 -97.374042315357713 -18.169831952364945 35 37 34
-113.587438930370567 -96.826612825685459 -18.176697168390263 37 39 36
-113.581758523698980 -96.283491720227829 -18.295864158770712 35 37 34
-113.582416920008967 -95.731734129500467 -18.190369817372925 28 30 27
-113.573673722929939 -95.194000684924973 -18.421805463206397 27 29 26
-113.577558322519877 -94.636824188641626 -18.203964611814598 25 27 24
-113.572046785032626 -94.094758160294703 -18.323039955317370 28 33 27
-113.569722521308520 -93.547551451840633 -18.329784548659234 31 36 30
-113.564298444189916 -93.006280361343457 -18.448809868726784 35 40 34
-113.565200957210294 -92.453104594987124 -18.343213340725669 30 35 29
-113.563004489548476 -91.905862840266323 -18.349897157618216 19 24 18
-113.560851495683551 -91.358607775324089 -18.356560313804152 45 51 46
-113.543054071009152 -90.846510907269789 -18.924640235684535 57 63 59
-113.544131271440889 -90.293280267359265 -18.818960702665663 26 32 30
-113.529573107407501 -89.777382248387283 -19.274671215594140 5 11 10
-113.537010909094533 -89.208690060863177 -18.944390176372877 6 12 12
-113.535087782869169 -88.662715756054752 -18.950930181160487 4 10 10
-113.536344047938627 -88.108328324599583 -18.845176891669212 2 12 13
-113.540777600847505 -87.544710669428838 -18.627139724975478 3 13 14
-113.542124559358314 -86.988923053971433 -18.521357460850055 6 16 17
-113.527867899453412 -86.478623844389986 -18.976866103879246 7 17 18
-113.529313699816115 -85.923064487883721 -18.871034204566627 7 17 18
-113.515165610552231 -85.415712428840749 -19.326460571272293 7 17 18
-113.526095991486699 -84.830296087281937 -18.883821959309131 8 16 18
-113.502675790967743 -84.355968622230677 -19.675920788282468 10 18 20
-113.501201492204430 -83.811425028079029 -19.682231348527154 10 19 21
-113.496654783658570 -83.277697313281564 -19.800759290721345 13 22 24
-113.507787226452862 -82.688906875911911 -19.358058744320232 14 23 25
-113.512720941770638 -82.120684792502274 -19.139829697337404 11 21 22
-113.498966971737701 -81.621302991644512 -19.594985476882499 12 22 22
-113.482151675974308 -81.135998731728790 -20.162319761883310 13 23 23
-113.496622911714070 -80.531338468309173 -19.607326419552891 13 23 23
-113.495538283320613 -79.986304589430290 -19.613455609575340 10 20 20
-113.506998327281948 -79.390238660464234 -19.170673230188754 10 19 20
-113.490428086713493 -78.909148354386403 -19.737846905280520 12 19 21
-113.486405513182362 -78.377567906809418 -19.856102000180073 13 21 23
-113.479326613674147 -77.860057780335950 -20.086533282987858 17 25 26
-113.472313091910820 -77.343595412748115 -20.316922504198033 16 24 26
-113.477842575871506 -76.771737126504917 -20.098445872801022 16 24 26
-113.474080209618762 -76.241893744335670 -20.216558604943629 13 23 25
-113.482859905216628 -75.653927612525806 -19.885834004666009 11 21 23
-113.488588181214681 -75.079207118691713 -19.667291733980278 10 20 22
-113.494385331385516 -74.503347543723294 -19.448728239260731 11 21 23
-113.475309594288717 -74.050129122101424 -20.127672520915695 14 24 26
-113.475014613290824 -73.505656563069323 -20.133418168383628 14 24 26
-113.471675523785805 -72.977147575246917 -20.251314670789640 15 25 27
-113.496469608296636 -72.302514480405833 -19.359526523734644 17 27 29
-113.518221789590214 -71.640025111732371 -18.579927496198565 17 27 29
-113.524464211615211 -71.057837097848690 -18.361216126751088 15 25 27
-113.527668812074580 -70.491604789258759 -18.254652685558341 18 28 30
-113.537190034247104 -69.890001371615782 -17.923713716942984 24 33 37
-113.581090354506529 -69.092505757024497 -16.358896588310330 28 37 42
-113.587664092418123 -68.502421682606681 -16.140107996596100 28 39 43
-113.613034059960924 -67.801980833220156 -15.248310001254822 28 39 43
-113.647851363997717 -67.041686045289254 -14.020031884413640 29 40 44
-113.738902055014933 -65.937905725112529 -10.772927648560113 30 41 45
-113.780159737585691 -65.122503446377124 -9.320417955949523 24 32 39
-113.824642022790911 -64.280632776029378 -7.755779192022629 22 31 37
-113.859874233868496 -63.489725482613409 -6.527617694972633 15 23 28
-113.904577928639640 -62.633214455507115 -4.963023710015136 7 12 16
-113.918189736939340 -61.970064851695327 -4.519902459909815 0 3 6
-113.935032312271943 -61.284254076596298 -3.964609999829662 1 3 2
-113.945743734402186 -60.636927462341177 -3.633572295466365 3 6 4
-113.950322596852700 -60.029720764503189 -3.526773182019866 1 6 2
-113.951890418723025 -59.443067794388831 -3.532061855141677 1 6 2
-113.944198410782491 -58.920736880933440 -3.873694954624568 2 8 4
-113.961617350958022 -58.225945461756531 -3.318219205860174 2 8 3
-113.979162076942615 -57.528309259863754 -2.762712564373516 4 11 4
-113.993708515841178 -56.850120358795024 -2.319298997235109 5 12 5
-113.992744753858176 -56.282472987245924 -2.436462022141626 4 11 4
-113.976257695353908 -55.829466671533190 -3.114165705518474 4 11 3
-113.972403782471901 -55.287153329731268 -3.343309477734067 4 11 3
-113.965541682755941 -54.769197916003534 -3.684500512750276 4 11 4
-113.993260184374321 -53.992450733524393 -2.792364446176862 4 11 4
-114.002328332492482 -53.354816030286329 -2.572871999679762 5 12 5
-114.005266232277222 -52.764371684214083 -2.577544258760923 2 9 2
-114.005204650998792 -52.198271715343367 -2.694259755317688 2 9 2
-114.017832123085711 -51.533536609183955 -2.362484613575219 3 9 3
-114.021191651531808 -50.942109539069477 -2.366965282622232 4 9 3
-114.027836879856736 -50.325222217987687 -2.259277274342480 4 9 3
-114.037775309777260 -49.682048165309119 -2.039425507320800 4 9 3
-114.054159657513949 -48.985904128206293 -1.595317512129157 5 10 6
-114.045537828713634 -48.496445579479662 -2.047915947880881 3 8 4
-114.055946570521073 -47.850583313983293 -1.827866856389477 2 9 2
-114.060219309034395 -47.256809307376969 -1.831934807066915 1 8 1
-114.080414467902614 -46.528087324675802 -1.275480189131628 2 9 2
-114.072401420878421 -46.041496483751359 -1.727757867011348 2 8 4
-114.080320475588195 -45.419399380815761 -1.619514091457233 3 9 5
-114.085252790540110 -44.824340466438109 -1.623279729228443 4 10 4
-114.099840202837044 -44.144926131054426 -1.290718059488171 5 12 5
-114.095632088794929 -43.633632271357847 -1.630570866132985 5 12 5
-114.097918181013526 -43.066577124561022 -1.746173075862174 4 11 4
-114.109885216864797 -42.413226551045568 -1.525455582757900 5 12 5
-114.134731701218200 -41.641943854150725 -0.856355000545278 4 11 4
-114.150272791216480 -40.955425095527936 -0.523410224058978 7 14 7
-114.156487264976462 -40.356143079892384 -0.526605951953997 8 15 8
-114.166073591603165 -39.726649504419768 -0.417640694837274 8 15 8
-114.198143912087275 -38.884573023518406 0.475904799677437 7 14 7
-114.204970254619738 -38.282099695472425 0.472968937924065 4 11 4
-114.186480695335518 -37.925844589355847 -0.426414595998892 1 6 0
-114.164949837951724 -37.604837508231988 -1.437749135800061 4 6 1
-114.143564753781860 -37.288543601233080 -2.448965423126452 4 6 1
-114.154325057488407 -36.660591188175374 -2.339422675439778 2 4 0
-114.181321856690701 -35.872251002660661 -1.669468971273460 5 7 3
-114.221407017091067 -34.951557954429646 -0.551180674795489 4 8 4
-114.258576246143647 -34.057516397710970 0.455128102390859 7 13 11
-114.286394427994807 -33.256433670299288 1.125343587815848 8 14 12
-114.269423553897752 -32.914017772661978 0.226829041605953 8 14 12
-114.281625991261365 -32.276054056628837 0.336958649720145 9 15 13
-114.294071341536409 -31.637226987550353 0.447195579611957 7 13 11
-114.297068691229384 -31.099086183991062 0.221372377960279 12 18 14
-114.316470237425065 -30.391083966470703 0.555942843424077 12 18 15
-114.329663130096023 -29.749901288455202 0.666513147569560 8 14 10
-114.352850331600791 -29.003770093991122 1.113361061763499 5 11 8
-114.395829088192883 -28.045290546951289 2.232644689326605 3 9 6
-114.387084032927277 -27.644760109285059 1.559184914336100 8 14 12
-114.385060908040401 -27.176168882917832 1.109958073749993 9 15 15
-114.402852694395577 -26.494647761933905 1.333172133933033 11 17 17
-114.417663989954889 -25.847714312268835 1.444457480891373 11 17 17
-114.445862135325129 -25.054416713548839 2.004075990881574 12 18 18
-114.451423641973435 -24.514382377486854 1.779459982046887 11 17 17
-114.509835175269870 -23.384438664952285 3.347797169976445 11 17 15
-114.499547452137222 -23.027328303104831 2.563187447698482 9 15 13
-114.529051979559938 -22.224035812115517 3.123328043937619 8 14 12
-114.545693337514351 -21.568531066632687 3.235400657819099 8 14 12
-114.599066015442688 -20.493668979058121 4.580176487607730 9 15 13
-114.599820529260455 -20.024646726030831 4.132274023083028 11 16 18
-114.610804679049821 -19.441630977211570 4.020668643786706 11 16 19
-114.618759867141748 -18.897585840840577 3.797156478767363 12 17 20
-114.637017651703260 -18.236725696983104 3.909947259791238 10 15 18
-114.652268473987633 -17.614256597332439 3.910835813752300 11 16 19
-114.671197988583998 -16.951577766876873 4.023929227467619 12 17 20
-114.687116390084071 -16.327832152691084 4.025124009231860 12 17 20
-114.662987929472351 -16.186937373772960 2.681824116596090 12 17 20
-114.689614704980926 -15.443853021673632 3.019489988962135 12 17 20
-114.713252122380169 -14.739389843882481 3.245264424883715 12 17 20
-114.710164995582772 -14.362270353785314 2.574752364122617 12 17 20
-114.710734487133280 -13.946581081200511 2.016451483818912 10 18 20
-114.735413490279981 -13.241312370979385 2.242715919041814 11 21 23
-114.757077282106493 -12.576315252990874 2.357093538313507 14 23 26
-114.772285480727362 -11.994686510618136 2.247523206653483 15 23 26
-114.822149541472058 -10.987602581439058 3.258741545879730 16 21 24
-114.800341856659770 -10.874164207125164 1.916834526996979 17 22 25
-114.782153454263693 -10.723817671679109 0.687137931093105 20 25 26
-114.791808089737117 -10.231937956850818 0.354116855844978 22 28 28
-114.791402574677136 -9.872171855781838 -0.314933703901829 19 25 23
-114.780855109625918 -9.647076278018639 -1.320026561173137 18 24 20
-114.777507188900429 -9.337957703300791 -2.100822302193222 10 16 12
-114.868799167611002 -7.829674397076677 0.144503648141239 0 3 0
-114.831210554653353 -7.967719537880227 -1.756658691120549 6 13 6
-114.856974633366292 -7.302834642442289 -1.640318353493910 5 12 5
-114.914918569741914 -6.228104963286018 -0.515072056227666 2 9 1
-114.980580034570380 -5.055547872193637 0.834577063342550 0 7 0
-115.093060169283859 -3.277738738148277 3.641559414740385 7 14 6
-115.085545965569935 -3.057571118402836 2.637968385243113 9 14 7
-115.146117022715998 -1.957429325680911 3.764209908430075 10 15 8
-115.157240566024740 -1.506417906739708 3.321453346634939 5 9 2
-114.914089606181719 -1.694015625646678 -14.197783134054987 70 73 56
-114.947842011459130 -0.843864245376315 -14.966399328743648 77 80 63
-114.157321983768824 -176.881097833519760 -20.184074816707607 92 83 68
-114.159113601306672 -176.539815710295358 -19.521577391835592 57 43 30
-114.067581400225365 -175.232523353652681 -21.906859283370949 37 22 9
-114.035434238799468 -174.539016674358635 -22.372812527525582 65 52 36
-114.093191296777803 -174.760975187942108 -19.904001550230220 63 51 37
-114.130211084478461 -174.762037296082951 -18.112538319147177 59 50 35
-114.143232243889926 -174.512691127185235 -17.111145722210523 37 29 16
-114.094846282525864 -173.641835034920064 -18.140987523796355 33 27 15
-114.043473191761336 -172.742387745126308 -19.283411546328011 29 25 13
-113.948323828936481 -171.410632365619392 -21.892393455667332 29 25 13
-113.965759688115668 -171.195346634282913 -20.777679395379266 28 24 12
-114.000200741937803 -171.140602885232880 -19.098883144387571 23 19 7
-114.007638861629104 -170.814836753224000 -18.322665853427310 18 14 3
-113.951220840038175 -169.866157280123304 -19.689727895009582 20 16 4
-113.928834963185054 -169.247675119676273 -19.928521339180946 21 19 6
-113.940240887273490 -168.951037295785227 -19.039247146968819 15 16 2
-113.958448265777719 -168.713793507128742 -17.924390019795027 17 10 0
-113.950039980023320 -168.219417925258512 -17.711783601254979 20 3 1
-113.935172039503684 -167.661818610193961 -17.724636022900341 105 65 65
-113.953754783609767 -167.413823192010739 -16.609709994033096 106 57 57
-113.962471026342925 -167.068612583838075 -15.833081405151830 87 39 35
-113.964692519655841 -166.659055267757765 -15.281940004961569 101 53 49
-113.950556248856387 -166.096511820242000 -15.294493290759789 118 71 65
-113.936635263409826 -165.534243550571205 -15.306940752239313 113 66 59
-113.929501581223221 -165.031336173420470 -15.093812389776218 153 106 98
-113.925831114110878 -164.556855149120338 -14.767875745441955 133 85 79
-113.912503879190751 -163.993995028453611 -14.780045250924474 125 77 72
-113.899379637904673 -163.431387628589505 -14.792115043566099 125 79 72
-113.896240228599709 -162.954348145472522 -14.465950678498928 122 78 69
-113.893260120977601 -162.475893866764864 -14.139724667254512 141 99 89
-113.883938649742987 -161.940244127980350 -14.038838854069979 143 104 93
-113.871553207064551 -161.376662170519410 -14.050565239601013 146 113 96
-113.859356216008010 -160.813306969466169 -14.062199136404473 148 117 99
-113.844113406217488 -160.223112504272933 -14.186425297399211 132 103 85
-113.829064783403211 -159.633685776460936 -14.310550657303651 140 113 94
-113.846405599512408 -159.310121229710063 -13.307855518456648 134 108 89
-113.847750951218003 -158.850634298432254 -12.868506096940337 117 91 72
-113.849226758418013 -158.389148412423253 -12.429114842207895 107 82 62
-113.828408523340798 -157.745870154710161 -12.778272455533198 104 78 58
-113.826979605017499 -157.256891924784952 -12.451412688961909 97 72 52
-113.819300662486640 -156.716185035352396 -12.349793151467736 94 68 49
-113.814963140115964 -156.199973295832450 -12.135464064218525 90 63 44
-113.807584699323897 -155.658258986206192 -12.033711137604712 89 59 45
-113.797178320604843 -155.091862392287680 -12.044519718188241 91 60 46
-113.799617831218882 -154.621780247753321 -11.604755916653204 103 72 57
-113.792670395350981 -154.078388192777282 -11.502814068636695 110 79 62
-113.801678070001941 -153.652044454469632 -10.837740088711655 113 81 64
-113.794989437032342 -153.106509256278258 -10.735696490725473 109 80 66
-113.794745250600101 -152.606458767294555 -10.408383924803161 113 83 72
-113.785173113336043 -152.036926252501985 -10.418825686743048 112 84 72
-113.778887927154614 -151.489933552763944 -10.316604083991905 111 85 74
-113.772734393295778 -150.942539390631765 -10.214323631674972 111 93 83
-113.769845432298396 -150.416581703012440 -9.999401877569767 86 73 64
-113.754552169425324 -149.803398127731015 -10.234747698525638 34 34 23
-113.736283398879749 -149.170152656367208 -10.582582384247928 33 37 31
-113.708804592410957 -148.475623320005298 -11.268030599956745 39 42 38
-113.697095137727842 -147.888238125702117 -11.390537498742873 45 46 41
-113.682406291855187 -147.281053366083654 -11.625532419854324 50 52 49
-113.677187731411095 -146.735681452574852 -11.522783863439685 53 55 52
-113.665871145645042 -146.150030942449774 -11.645084959106867 54 56 53
-113.667090689182672 -145.643649974732597 -11.317137312582020 55 57 54
-113.668404848315618 -145.135741060415569 -10.989160130202521 58 60 57
-113.657434275564526 -144.549882418494235 -11.111297836834524 60 62 59
-113.640403776640156 -143.927014709270992 -11.458433314138603 63 65 62
-113.608072284886717 -143.213100158080607 -12.368120349449470 61 63 60
-113.588242296632458 -142.576798634462818 -12.827592258773734 64 66 63
-113.553149470983300 -141.852722257999631 -13.849563792448066 63 65 62
-113.561293187047696 -141.381998150376518 -13.296218841706093 64 66 63
-113.535704549445342 -140.716515112003435 -13.980463818971316 64 66 63
-113.528674561577404 -140.157553340143153 -13.989580615386586 63 65 64
-113.488018374185657 -139.412565580930504 -15.236146663457561 75 77 76
-113.465908826301217 -138.773546688914934 -15.807595962453718 39 41 39
-113.450046074728093 -138.170086164334606 -16.153973025526824 52 54 51
-113.437352157719474 -137.584443131466315 -16.387791839692682 70 72 69
-113.433921135143862 -137.047451813504637 -16.284101865608875 70 72 67
-113.424474064050784 -136.478879943622019 -16.405332792841108 64 69 62
-113.409028118090120 -135.880362207718179 -16.751459578930991 55 60 53
-113.399774141783865 -135.313570266866634 -16.872579808575409 48 53 47
-113.396692010944435 -134.776865427379420 -16.768719977014058 46 51 45
-113.399762130765680 -134.268609447298388 -16.439906321582498 45 50 44
-113.387723371089379 -133.687825607471552 -16.673361692611280 42 44 41
-113.378808224060180 -133.122113522168462 -16.794308711995313 42 44 41
-113.369977575599336 -132.557007287791038 -16.915209071225974 42 44 41
-113.358203891847396 -131.979131489795236 -17.148507696905682 42 44 41
-113.349540382107662 -131.415503754957399 -17.269312878606570 42 44 41
-113.362099725443798 -130.942275254050543 -16.603022400971014 38 40 37
-113.356593153529531 -130.390494634668215 -16.611336481205910 36 38 35
-113.348143392277933 -129.826482410658599 -16.732043364102935 36 38 35
-113.330732325281872 -129.227032121617441 -17.189978741518672 39 41 38
-113.334479687817549 -128.711980288266318 -16.860911048625553 42 44 41
-113.323243471305531 -128.138009778943996 -17.093912352721816 43 45 42
-113.321098001340175 -127.598755932651883 -16.989630664016460 41 43 40
-113.325017116680030 -127.080844488316714 -16.660510240582994 43 45 42
-113.334984824922145 -126.582640125773651 -16.106575566304031 43 45 42
-113.333002471168797 -126.040246186062049 -16.002248165920975 53 55 52
-113.316103695338640 -125.446824293688834 -16.459876411683666 56 58 55
-113.308262258552588 -124.885116214987107 -16.580268556516359 55 57 54
-113.306465457757284 -124.343110055547811 -16.475848396617067 51 51 49
-113.298747483891930 -123.782019420388735 -16.596175121555149 45 45 43
-113.306018747829810 -123.266586338179735 -16.154566645775674 43 43 41
-113.313328585938109 -122.749009031792767 -15.712961787821968 41 41 39
-113.317695515917492 -122.220815141061735 -15.383732973786124 38 38 36
-113.301253905555086 -121.633625065653348 -15.841078365933441 32 37 31
-113.290836918099970 -121.064496175078176 -16.073637916442948 30 35 29
-113.292378807178039 -120.527104173376969 -15.856714157988307 28 33 27
-113.296936505895303 -119.996034098167428 -15.527423686853865 29 34 28
-113.286683056896891 -119.427804576521353 -15.759895743470054 30 35 29
-113.273520822024309 -118.853850400528515 -16.104677164941450 26 31 25
-113.266352521143602 -118.294686212520205 -16.224721098319520 28 30 27
-113.265164890824650 -117.748678480048113 -16.120050703553858 28 30 27
-113.255136211061739 -117.184081972918491 -16.352377834894753 27 29 26
-113.242203322805366 -116.614844841883809 -16.697000982817684 27 29 26
-113.244118005119802 -116.074651908272912 -16.479927712755824 28 30 27
-113.251982612380630 -115.543802964616177 -16.038194066770643 33 36 29
-113.248061655922129 -114.991059625540117 -16.045759503763975 34 37 30
-113.241233649532575 -114.433671918354435 -16.165622355214367 36 38 33
-113.228553548178070 -113.868064756536313 -16.510087205653292 38 40 35
-113.224773117167885 -113.316460380061457 -16.517573691839601 40 42 39
-113.215143035856187 -112.757178788278779 -16.749655425954074 37 39 36
-113.202618296589478 -112.195425303349097 -17.094006283870584 36 40 39
-113.201917572681566 -111.648526452888746 -16.989112127471969 39 43 42
-113.201254861441527 -111.101096493946116 -16.884205252909737 36 41 37
-113.200629785139697 -110.553134668202617 -16.779285848694229 31 36 32
-113.188292004680875 -109.994694593269756 -17.123513159564254 27 32 28
-113.178940715242732 -109.440111223431344 -17.355413159443430 25 30 24
-113.169636199399122 -108.886625423268541 -17.587279485159172 27 32 26
-113.163310398611728 -108.335907007284518 -17.706833432806206 33 38 32
-113.154096433704566 -107.784342145343089 -17.938636666082317 37 42 36
-113.159573440676780 -107.239506137598013 -17.609048100688767 37 42 36
-113.153369479750992 -106.689626343180606 -17.728535128210581 35 40 34
-113.155984792871124 -106.142045149662238 -17.511202729843603 39 41 38
-113.146934887074664 -105.592138065438633 -17.742910413464557 40 42 39
-113.143774772818034 -105.043401498730830 -17.750070622435686 37 39 36
-113.140652562177465 -104.494669069039432 -17.757212655862389 34 36 33
-113.137568123698742 -103.945940098059410 -17.764336583614124 31 33 30
-113.137439480679163 -103.396437163358556 -17.659195550826723 34 34 32
-113.137345441049646 -102.846392509723344 -17.554043540081238 30 31 26
-113.137286005624318 -102.295805468059044 -17.448880557875583 33 34 29
-113.143088623676789 -101.741490389107270 -17.119233794099188 32 33 27
-113.146007906147602 -101.187408330615185 -16.901822894505642 29 30 25
-113.140226573728313 -100.638646994838624 -17.021096225141918 28 28 26
-113.131576291173943 -100.092836470774486 -17.252570562422051 32 34 31
-113.122969295398917 -99.548111683122926 -17.484013015425006 33 35 32
-113.114405572395398 -99.004471959854769 -17.715423597769586 38 40 37
-113.105885133209242 -98.461916627968947 -17.946802311099077 38 40 37
-113.097408013808405 -97.920445012759757 -18.178149145151593 35 37 34
-113.091877025951007 -97.376288611258929 -18.297255310905740 36 38 35
-113.092189864788750 -96.824591215963565 -18.191925663396347 36 38 35
-113.083838103056223 -96.285278961234511 -18.423190299387869 35 37 34
-113.087125938862783 -95.728713234554135 -18.205628650786139 27 29 26
-113.075959275622751 -95.195330035163281 -18.549037780185529 27 29 26
-113.082218338490577 -94.632805357813766 -18.219257160294489 25 27 24
-113.068242613458025 -94.106436105777718 -18.674796822063598 31 36 30
-113.071681251479632 -93.548204489932189 -18.457180178033184 32 37 31
-113.066476610641629 -93.006704637947351 -18.576102875293174 33 38 32
-113.072882554056704 -92.440876338904857 -18.246285994089476 32 37 31
-113.070650722240458 -91.892866046378685 -18.252994640017988 0 3 0
-113.077129672244183 -91.324565279091388 -17.923168283070225 0 3 0
-113.060535431198247 -90.810868705410257 -18.490689072600617 0 6 0
-113.052657133063462 -90.277967964717959 -18.721661208294961 38 43 39
-113.036166444073828 -89.768865509362129 -19.289085169308720 56 62 60
-113.034157231603118 -89.223231039655047 -19.295662859367610 1 4 2
-113.029307605402991 -88.685698849745336 -19.414374877702869 4 10 10
-113.047573591028680 -88.081563162880613 -18.635842970463358 2 12 13
-113.048575765782971 -87.525579846301383 -18.530227664155206 4 14 15
-113.049622297375578 -86.969032757431222 -18.424596940879013 7 17 18
-113.027666878674538 -86.485579552577960 -19.216088959075620 7 17 18
-113.025931300263963 -85.939557815021161 -19.222539729880623 7 17 18
-113.006968837649225 -85.452022275196128 -19.901783064748741 8 17 18
-113.011091982014875 -84.887539835817364 -19.683903298096340 9 17 19
-112.995118538925453 -84.394013933558810 -20.250919473158433 10 18 20
-112.993587181952620 -83.850344793967039 -20.257248328654924 16 24 26
-112.994982996839582 -83.295809177516745 -20.151429804351864 17 25 27
-112.999304689522191 -82.729589579690440 -19.933472934309833 13 21 23
-112.992177859659208 -82.207789095603800 -20.163971309641227 9 21 19
-112.996603479809067 -81.640421992849724 -19.945976532899778 10 22 20
-112.978094355101149 -81.167362849569130 -20.624853979645195 11 23 21
-112.985503007640460 -80.587731482851254 -20.294699487743145 12 24 22
-112.972859450891121 -80.093743499662907 -20.749268528104636 6 18 16
-112.986122537666532 -79.487192352785954 -20.194872623910896 10 20 19
-112.985083380499475 -78.942969439231106 -20.200971712981016 13 19 19
-112.989845159129857 -78.372129697340654 -19.982851864793872 15 21 21
-112.988925555184096 -77.827285732559730 -19.988900152804973 16 22 22
-112.979458697240034 -77.323904090465632 -20.331187280076449 15 21 21
-112.975795956068282 -76.793901511717536 -20.449253990612135 14 20 20
-112.975067037513682 -76.250021536665599 -20.455201132555175 13 23 24
-112.980140659841624 -75.676794348029773 -20.236956674600691 13 23 24
-112.991016230304879 -75.072584048456193 -19.794537739430240 9 19 20
-112.996221299295456 -74.496538758419007 -19.576259405976344 10 20 21
-112.978551868385082 -74.043102396569765 -20.254533158940347 14 24 25
-112.978161166438682 -73.498438450182093 -20.260326569028138 15 25 26
-112.980709550445667 -72.937708255214744 -20.154020423517323 15 23 25
-112.997667433521741 -72.294948470836047 -19.487370770213033 15 23 25
-113.011831327471810 -71.665420373600142 -18.932780436247327 16 24 26
-113.011734521573644 -71.117263937637645 -18.938469197422705 14 22 24
-113.023184125027157 -70.500632238168805 -18.495903506546369 14 22 24
-113.020376689295020 -69.968639209741539 -18.613581530589983 17 28 30
-113.057792175600781 -69.190040416342143 -17.162531094739620 22 33 35
-113.063750856948076 -68.601424542872067 -16.944021631047633 23 36 37
-113.089867321622776 -67.884287501692683 -15.941179491406302 23 36 37
-113.093130822414366 -67.309907928560904 -15.834671736383228 29 43 44
-113.139502703624245 -66.453808097677964 -14.047557694261258 31 45 48
-113.165894895898887 -65.721992170044260 -13.044734744633558 30 40 49
-113.215333637257046 -64.830899343569939 -11.145654842691073 30 40 49
-113.270616800851812 -63.891328521566095 -9.022560227703877 28 38 47
-113.328881560230016 -62.921469179033934 -6.787492117550926 27 33 40
-113.355695281981639 -62.161754035502028 -5.784754690310933 14 19 23
-113.379749583923342 -61.417410973264609 -4.894038012414939 4 10 11
-113.401045947046541 -60.689255469542303 -4.115332981245018 4 10 10
-113.416714055837801 -59.999027165857505 -3.560647853773446 1 6 6
-113.418136261480328 -59.411952981536132 -3.566010524968931 0 6 4
-113.422542185929430 -58.803305406507285 -3.459308976142353 2 8 6
-113.432809810170539 -58.150518021024787 -3.128539793629415 2 8 4
-113.440322669526893 -57.517998814557217 -2.909738735566833 2 7 1
-113.442205284095635 -56.928854879874848 -2.914902453690388 2 7 1
-113.444207128173034 -56.339595757173718 -2.920010318513846 4 9 2
-113.440575696341696 -55.795892993527438 -3.149061958574435 4 9 2
-113.437063565114499 -55.253162902210569 -3.378046513429979 4 9 2
-113.433672549274931 -54.711402564590230 -3.606963144937339 3 10 2
-113.444807531012358 -54.052318181853671 -3.275843839727315 4 11 3
-113.458961356454296 -53.367528382268461 -2.832686043885218 4 11 3
-113.458842001525895 -52.801441873811044 -2.949429040603349 3 10 2
-113.467507978367564 -52.162325868267224 -2.730144239255196 4 11 3
-113.476316490539418 -51.521972045582856 -2.510803990967304 5 11 3
-113.476608260783593 -50.955458663569274 -2.627354700836065 4 9 2
-113.479927714251062 -50.364042051965278 -2.631854433960768 4 9 2
-113.489172354726534 -49.721320573323567 -2.412329914859527 3 8 1
-113.501462507096008 -49.051494949253566 -2.080768544971704 1 6 0
-113.490761230781899 -48.588854935521262 -2.644944609553619 1 6 0
-113.503359478184805 -47.917604810216709 -2.313250511164654 0 7 0
-113.513225610794166 -47.271211324308752 -2.093466470172331 0 6 0
-113.537754262226713 -46.488808616057852 -1.313773517082268 1 8 2
-113.530553688436584 -46.001825060649445 -1.765666552959232 4 10 6
-113.543824918511874 -45.324378591726273 -1.433714284044243 3 9 5
-113.531121694146080 -44.895038910721176 -2.109364181578968 1 7 3
-113.541824524853681 -44.244434532727929 -1.889223211912054 2 8 4
-113.543975765854739 -43.677497532238128 -2.004888717862173 3 9 5
-113.552121301809535 -43.053716525116343 -1.896553927728462 2 8 4
-113.560447930519459 -42.429179038057448 -1.788140290269439 2 8 4
-113.583548543315260 -41.658146591567331 -1.119872351072502 2 8 4
-113.595180609112546 -41.001281842135910 -0.899351279671976 2 9 2
-113.612855828437034 -40.283698533584484 -0.454846421128622 1 8 1
-113.624889833605593 -39.623629478482911 -0.234166046838510 3 9 3
-113.637127400414698 -38.962224768274922 -0.013402037926369 2 9 2
-113.643707778446981 -38.360527090062106 -0.016447584100149 3 10 3
-113.641680677468770 -37.850985720439866 -0.355238962310381 4 9 3
-113.636897345995692 -37.373926480447828 -0.805873441784286 4 9 3
-113.629350208827191 -36.930173034207783 -1.368346168083434 5 9 3
-113.633756866432776 -36.362407043500959 -1.482941223673635 6 10 4
-113.644263635694799 -35.731118125292923 -1.373554110319844 7 11 5
-113.657942748683922 -35.066823235770002 -1.152130220723876 7 12 6
-113.665941145737165 -34.466059945112548 -1.154487773338133 6 12 8
-113.697836842586256 -33.603135070398565 -0.261240421162711 7 13 9
-113.715200126012803 -32.900547434916021 0.072410681391830 5 11 7
-113.735782378824950 -32.162711226485698 0.518097781518549 6 12 8
-113.738798728489698 -31.623746799436443 0.292275191417957 6 12 8
-113.765840294875289 -30.814835823234922 0.962038566568907 6 12 7
-113.775291103081059 -30.206999142433716 0.960303032513451 9 15 11
-113.802892242964404 -29.392448412638132 1.630276052890792 10 16 12
-113.839761622096006 -28.470204508128742 2.636151081969274 9 15 11
-113.847027662025283 -27.892152475796578 2.522818065687886 1 7 3
-113.833549878108968 -27.560927230481564 1.626089792853179 7 13 9
-113.790218846937933 -27.588893389186151 -0.389811682780703 7 13 11
-113.804130127578631 -26.946542308335705 -0.278909731250224 8 14 12
-113.845437544403765 -25.978665652740371 0.839477603938150 14 20 18
-113.902211802835410 -24.823111584008913 2.517626789843092 10 16 16
-113.898936620360800 -24.391290492510578 1.957320577748220 14 20 20
-113.932241552375899 -23.519023375426215 2.740287053882241 16 20 21
-113.932519255787128 -23.051451308641454 2.292171412388939 15 19 20
-113.969531092533742 -22.136156896956475 3.187327242402432 13 17 18
-113.961223916638417 -21.782091913994115 2.403696354748860 11 15 16
-113.995870478105061 -20.899212350900189 3.187195422575769 10 14 15
-114.006429897916675 -20.318385568525255 3.075409386045209 12 18 18
-114.026478056154076 -19.621924863727354 3.299549106161322 13 19 19
-114.028430027892568 -19.157057247493007 2.852262267164974 12 18 18
-114.024486502630637 -18.772252614635693 2.181261401278817 10 16 16
-114.045461679807801 -18.074952752683455 2.405835966212010 10 16 16
-114.051325790646089 -17.574567731258718 2.070913967577724 10 16 16
-114.063672506573070 -16.995403816999783 1.960000084119315 8 14 14
-114.079441929365430 -16.376031603412848 1.961168612589802 11 17 17
-114.086206092222497 -15.877793853593165 1.626699298701510 12 18 18
-114.133838910020756 -14.849916974302978 2.747495071589753 11 17 17
-114.144425039145844 -14.309224933036484 2.525276054834933 17 22 23
-114.133375924286511 -14.058889210464132 1.519683400524855 11 18 20
-114.131972593350241 -13.688049996146727 0.850041507965699 13 20 23
-114.162356334868960 -12.900423485452292 1.299905090099259 14 21 23
-114.196330534262216 -12.067711317280896 1.861881130571874 11 19 21
-114.214912225914190 -11.444220339557532 1.864352642316788 11 16 19
-114.202090545302454 -11.248254409116727 0.747612769289589 9 15 15
-114.211780246623476 -10.755683532156068 0.414601354943727 7 13 13
-114.202626590485991 -10.524484336604800 -0.589887536524941 15 21 19
-114.257793005315975 -9.424467026109618 0.644628590582130 9 15 12
-114.226776760519513 -9.504203935035319 -1.143130861281321 4 10 6
-114.260329096225476 -8.707697929733250 -0.691842835648316 5 11 7
-114.252329169712326 -8.487020913477316 -1.695671476741950 5 11 7
-114.332127394181583 -7.061018438805180 0.323285089053314 5 12 5
-114.269557984968429 -7.608133599251671 -2.583347178583068 7 14 7
-114.350473602611729 -6.172726882826336 -0.563952858308113 9 16 8
-114.419093872092844 -4.908949802252796 1.007890539930258 5 12 4
-114.472022864737781 -3.866170760934782 2.020207704350980 4 11 3
-114.528885422007036 -2.771226038215659 3.144728589960835 2 7 0
-114.576500066517113 -1.809345561378350 3.933618348173098 11 16 9
-114.591552610534833 -1.310820527611452 3.603111210263904 9 13 6
-114.463668556368191 -1.138634831879429 -7.656587853732304 59 63 48
-114.457447792980020 -1.016508136476839 -8.769409806245903 63 67 53
-114.414498995174554 -0.540960739155120 -15.778961162144896 77 81 64
-113.641413107909884 -176.832867501884351 -20.542239198483742 108 98 83
-113.638768924475002 -176.456199215912505 -19.993086978062536 71 57 44
-113.588241314065371 -175.542191795513560 -21.135256400429171 51 36 22
-113.547763635381784 -174.740338671074483 -21.938886854635115 70 57 41
-113.584168207602659 -174.785277980636891 -20.036407405532117 53 41 27
-113.623718265142273 -174.855918462144530 -18.021299727039974 53 44 29
-113.628361021083180 -174.536892323004281 -17.246350350383722 36 28 15
-113.592062761176862 -173.768887272689312 -17.936774084821224 30 24 12
-113.521457041500256 -172.630755185948516 -19.866868028063692 27 23 11
-113.482830818476927 -171.839537342285865 -20.669503277940350 27 23 11
-113.504146504039056 -171.687711307879340 -19.330562129628760 31 27 15
-113.519261335665135 -171.463243106728811 -18.217052960741000 28 24 12
-113.497029868186772 -170.839087454730191 -18.455830936095396 22 18 6
-113.462627218262639 -170.086003761730467 -19.145194224188344 18 14 2
-113.459595411001118 -169.659733588824196 -18.707596903737624 19 15 3
-113.469123104686886 -169.359706843181129 -17.819256134386166 13 14 0
-113.463319799668625 -168.896749677771311 -17.494221211526735 16 11 1
-113.448458191845447 -168.337986903674420 -17.507082579700125 23 4 4
-113.430749421406617 -167.748319444341433 -17.632483023080312 155 105 108
-113.434746796093506 -167.375991240154747 -16.969249944456436 111 54 58
-113.441939470929555 -167.031274700155194 -16.193345139542942 91 39 36
-113.455358158415663 -166.743708373896283 -15.192155785817789 99 48 45
-113.447546109862770 -166.240761187960629 -14.979352361270912 84 34 31
-113.439919659411473 -165.736979119610453 -14.766468741092467 81 31 27
-113.435508909492654 -165.261900041639677 -14.440892401582261 89 39 34
-113.425213126080365 -164.726890008322982 -14.340466111194075 103 50 47
-113.406048849919245 -164.104612363421978 -14.577757421465321 83 32 29
-113.396150800990753 -163.569831484217815 -14.477138497465063 135 85 80
-113.395459214637427 -163.120056210128666 -14.038663573167952 126 79 73
-113.400915026804810 -162.724635759507407 -13.374970483145574 141 96 89
-113.394509971352079 -162.214595110237468 -13.161566974503899 147 105 95
-113.382292270240015 -161.648460584147585 -13.173239387915743 140 103 85
-113.352361839720288 -160.918543319801273 -13.860224717887149 153 118 99
-113.343526299832391 -160.381565296285771 -13.759120109514015 158 125 106
-113.331887803536461 -159.817466773164142 -13.770494475725798 151 120 100
-113.350088278518967 -159.518659888562809 -12.656274351046335 143 115 94
-113.341707295990616 -158.978455567387300 -12.554985493893014 139 110 92
-113.345308969250667 -158.541733090582454 -12.003463444992832 135 106 88
-113.328378024970007 -157.922676481695134 -12.239653181205853 126 97 79
-113.320469591613673 -157.381135286185724 -12.138152019267494 121 92 74
-113.303897265023437 -156.763832633648377 -12.374152139652836 117 88 70
-113.293376168236051 -156.197528538028223 -12.385014648835607 113 83 65
-113.285943736540332 -155.655986480292484 -12.283285778209773 113 81 66
-113.278658166117708 -155.114069453512514 -12.181490509398998 111 79 64
-113.280275509882884 -154.643876854904761 -11.742121166625566 112 81 63
-113.267432903609304 -154.052854876254003 -11.865207596496788 113 82 64
-113.275118866075033 -153.626943546291983 -11.200761468154383 113 82 64
-113.265464284417405 -153.058631058349363 -11.211230112860306 111 82 69
-113.273358789391779 -152.628096465917565 -10.546731808059747 113 83 72
-113.255276121272317 -151.990456238181054 -10.894522700454331 110 82 71
-113.254710990152844 -151.488941972804383 -10.567378740756055 107 85 73
-113.248482870388884 -150.941697773478097 -10.465132426437975 102 84 77
-113.245264942929495 -150.415887312709401 -10.250366533280669 57 49 38
-113.230648585415281 -149.802849786100666 -10.485387021680708 34 39 27
-113.207556767635651 -149.127161039820123 -11.057683696459094 40 45 39
-113.193246563177468 -148.517398774260243 -11.292524008379189 43 46 43
-113.181945493658972 -147.929603736672476 -11.414839755825255 47 48 43
-113.176501311784250 -147.383423830868907 -11.312207453000241 51 53 50
-113.165454422002824 -146.796419130548372 -11.434393466392805 54 54 52
-113.143117246356979 -146.130377050191555 -12.006229824982682 55 55 53
-113.129488141343714 -145.526138734606633 -12.240687440470879 56 56 54
-113.130223908862234 -145.019996815199534 -11.912968770090913 59 59 57
