ply
format ascii 1.0
element vertex 681
property double x
property double y
property double z
property uchar red
property uchar green
property uchar blue
end_header
141.015419364645169 -1.587314509023401 -5.377761555116479 150 146 134
139.258734296048260 -1.445835883050540 -7.088580103452983 147 145 133
136.504694839965623 -1.739089145764041 -9.758958321706416 147 145 133
134.134269710240318 -1.887953766767089 -12.060048158990725 145 143 130
131.687123971031497 -2.086559825364658 -14.434781990989677 146 144 131
129.086516819585711 -2.369035720735224 -16.956954864874632 144 142 127
127.867109298020821 -2.065352645199485 -18.150462607518506 146 143 128
126.801260757706686 -1.702465076052371 -19.196324092190167 146 140 126
125.198332923792080 -1.585897005691744 -20.758725387859187 142 139 124
122.981523894142185 -1.755786197937164 -22.911370454553037 146 143 128
120.764725696814494 -1.941280317356749 -25.063860074038047 146 143 128
118.931678291391293 -1.967629925368451 -26.847278486783466 144 142 127
117.482425671773186 -1.830731546409932 -28.261688978455851 143 140 125
115.112186327600298 -2.129927876804673 -30.561320255106608 143 140 125
113.509515425958057 -2.088114755687544 -32.123074976047832 142 139 124
111.216049143839044 -2.381924445709767 -34.348630784904032 140 137 122
110.227569231540329 -2.074470810037427 -35.320075661775491 138 135 120
108.625053311315355 -2.066591681052445 -36.881555225667427 134 131 116
107.099359609496901 -2.033062318335822 -38.369191421341441 138 139 123
104.498877311564144 -2.530171370284196 -40.889214697816016 140 141 125
102.973246684445968 -2.521813514961716 -42.376621965239735 141 142 126
101.985144327141811 -2.260291990442154 -43.347774660831988 141 142 126
101.150719397586698 -1.929660255885929 -44.171439727366277 141 142 126
99.087783506569380 -2.216567548466496 -46.174774880216376 143 140 125
97.792780077811926 -2.132841956976045 -47.440712552020500 142 139 122
96.344256539303998 -2.135701217712263 -48.854033238003296 143 140 123
94.050974582079164 -2.578367989127042 -51.078144966538986 145 142 124
92.448909159907288 -2.683141812633229 -52.638680453723396 147 144 125
90.923691604150122 -2.759506520774625 -54.125413241163642 146 143 126
89.859403932549071 -2.607185682343323 -55.169853970938561 146 143 126
88.872030882388700 -2.422044826590775 -56.140569339974604 144 141 124
87.654293700518224 -2.365018722121948 -57.332337203289825 144 141 124
85.975668669141115 -2.560739043468999 -58.966169562785410 144 141 124
84.450729336577837 -2.686226356173349 -60.452529807602076 145 142 125
83.463686786237616 -2.533475776503933 -61.423069877236031 141 138 123
82.860957023137203 -2.179774600716994 -62.025237927803886 140 137 120
81.413065776838607 -2.290132764817633 -63.437754559997217 144 141 124
79.504107522781325 -2.663180409958943 -65.292147630814839 145 142 125
78.440555703972052 -2.583504762089206 -66.336192616602801 145 142 123
77.761406121795773 -2.297884977953461 -67.011959776625019 145 144 124
77.082400823458428 -2.016812701377905 -67.687749151761466 143 142 122
76.019176447298037 -1.956323669116972 -68.731753287517250 141 140 120
74.341015954690675 -2.251035347585253 -70.364788913000154 140 139 119
73.893000034517300 -1.857284189710114 -70.819666020453752 143 142 122
72.753156958284137 -1.862770918296487 -71.937195795992295 145 144 124
69.614106002308930 -3.028443784129273 -74.968700003767594 143 140 121
68.781867918857614 -2.878502086510126 -75.791551316660900 141 138 119
68.795733953080457 -2.240546526640678 -75.804751576963440 142 139 120
69.194425250268608 -1.376306160664369 -75.450085762580585 145 142 123
65.978197702948052 -2.644222150240691 -78.554475398680694 145 142 123
65.146417038201847 -2.517921269181049 -79.377302192313664 142 139 120
64.545555610529377 -2.259259786953716 -79.979385756836479 140 137 118
64.483431461909404 -1.680618511663894 -80.066480907331908 140 137 118
63.113475150023575 -1.893413394782676 -81.404368027480587 146 143 124
62.128310425526124 -1.881568400911026 -82.374356030581566 143 140 121
61.528039599966775 -1.640876279822628 -82.976537169469651 143 140 122
60.927931910385567 -1.404102890732882 -83.578756014573457 144 141 124
58.557572298942546 -2.267819983318711 -85.872518859978356 143 140 123
58.650461844749842 -1.613710832269710 -85.812831089461326 142 139 122
57.973754538189752 -1.440842843739750 -86.488606014893151 143 140 123
57.374194139391577 -1.223915930497763 -87.090882392285664 139 136 119
56.620789650774270 -1.108492236555657 -87.840233230655969 139 136 119
55.251417202297461 -1.390784277293821 -89.177684299902467 139 136 119
53.573967068740956 -1.880096585477401 -90.809056636679742 139 136 119
51.896453968276546 -2.381217882641785 -92.440277294448236 140 137 120
51.374434910698781 -2.145105738392640 -92.968987781991217 144 141 124
49.465769636679639 -2.816272171366584 -94.820452327009633 141 138 119
50.099777967745368 -1.834319502651565 -94.246996392138783 141 138 119
210.643790790174648 -2.182636785294834 60.758811945911930 166 166 161
204.804326642021294 -2.970186438121887 55.135222968632092 177 174 170
197.355610407007930 -3.256343741528821 47.948297006991083 173 170 163
193.669656163188563 -3.425856862194109 44.392163290364863 176 171 165
192.829805381943544 -2.650950575440151 43.566520791530763 176 173 164
190.836172325470983 -2.279416998945359 41.634112622467313 176 173 164
185.996311362912309 -2.912455194989556 36.971891947473608 175 172 163
181.464071592730420 -3.471471985407637 32.605179948652591 174 171 162
179.162708001697695 -3.270324821615558 30.378307345769628 172 169 160
176.399778414018442 -3.250901668311200 27.708963600574066 170 167 158
175.637108362258289 -2.526603093331104 26.957777920828590 171 168 159
171.720202948805422 -2.960997393718451 23.182280352406963 170 168 156
169.495850306350633 -2.798139423101958 21.029818990516475 169 167 155
167.502339440400874 -2.564901536251845 19.098775912933178 165 163 151
165.354984769773978 -2.403569331190521 17.020353575639007 162 160 147
163.361545245964834 -2.198894055332866 15.089570377523671 160 158 146
161.368143754753419 -2.008223523709910 13.158913142611851 161 159 147
158.990046709554861 -1.980376100937106 10.859674537553701 158 156 144
155.611631417929090 -2.359726535806355 7.602010740923561 159 157 145
152.617931660775611 -2.611334223945710 4.713279855634255 155 153 141
151.009370388923116 -2.333554713878843 3.151914147030340 151 149 138
149.554779361067034 -2.005335381320680 1.738088168873730 152 152 142
147.869383863522671 -1.780669696511836 0.103167532840160 153 151 139
145.337482284086150 -1.913199271424582 -2.342558439073599 150 148 136
143.344321659086148 -1.841828897011291 -4.272102887105973 151 149 137
142.120846894239151 -1.464997585281234 -5.464417826046713 150 146 134
140.435652536936431 -1.289993907457075 -7.098923490896510 147 145 133
137.903843485078966 -1.484174639035475 -9.544059121360476 147 145 133
135.295060298105199 -1.728914125821791 -12.062709047684649 146 144 131
132.917194348858970 -1.892887440208651 -14.360083701044175 145 143 130
130.154443829849697 -2.240108082853501 -17.025739063299994 143 141 126
127.776573253278414 -2.438852248778308 -19.322753589120822 145 142 127
127.015359881446329 -1.943339630137305 -20.072281130769994 147 141 127
125.946321280223131 -1.589565347781752 -21.116522693598341 142 139 124
124.184476692059377 -1.552813540674212 -22.823794939702566 145 142 127
121.498768685459311 -1.944488592613984 -25.414990699328030 144 141 126
119.736977998995798 -1.935664622951134 -27.122001256560367 143 141 126
117.821233425879285 -2.009606508149118 -28.976226621446528 143 140 125
115.982520319616370 -2.061466476976727 -30.756671991371434 143 140 125
113.989831836586561 -2.197731852748389 -32.684305011420093 140 137 122
112.459213899493122 -2.131694373948905 -34.169920092186914 138 135 120
110.697619699233201 -2.185281914913168 -35.876382214713828 135 132 117
109.937261413531388 -1.775488625095129 -36.625436474523497 136 135 120
108.252805957553846 -1.813272364722137 -38.258105299451415 139 140 124
104.796878819295017 -2.717048272978794 -41.584148404414805 139 140 124
103.805658245483841 -2.447932779717348 -42.553887524453643 138 139 123
102.968603550081568 -2.110258946621009 -43.376367007878599 139 140 124
101.746502851234993 -1.968123313218868 -44.566923454765998 139 140 124
99.754110981931760 -2.216837262248485 -46.493540884150860 144 141 124
98.378055579783833 -2.171397100636863 -47.831168363465679 141 138 121
96.925021313657510 -2.174302287940872 -49.242330660072099 143 140 122
95.163845863659859 -2.343568367540072 -50.947802373979016 145 142 123
94.019124635573732 -2.210425905016167 -52.064425438297519 146 143 124
92.489201747649716 -2.283256269439221 -53.548943591733092 146 143 125
90.728136399290577 -2.486409676948267 -55.254119158596779 146 143 126
89.198289340009225 -2.581370618725440 -56.738445787044924 145 142 125
88.824559096764091 -2.080353475452770 -57.119106165463961 143 140 123
87.603169237559399 -2.029604021740753 -58.309061991743476 142 139 122
85.225641395647358 -2.602206088953314 -60.602392173462448 142 139 122
83.464732628378300 -2.861371108883122 -62.307066092518426 142 139 124
82.243465352893196 -2.842015103819199 -63.496757413891544 142 139 122
81.793229605427257 -2.412858085190785 -63.950937013888421 146 143 126
80.726360959795002 -2.323403487753005 -64.993495900733762 145 142 125
79.042736213118076 -2.580293304879275 -66.624306765218591 145 142 123
77.976010907535425 -2.507700294420681 -67.666760660667052 144 143 123
76.600909466706824 -2.614155890529458 -69.003280972466996 144 143 123
75.688589119358255 -2.470890120099722 -69.898611371059133 143 142 122
74.853509077564738 -2.290341017654692 -70.720418158216688 141 140 120
74.404221446238694 -1.896608598128756 -71.174686690530621 142 141 121
72.720882953596899 -2.210436400934503 -72.805048406674814 143 142 122
69.803210358479959 -3.245180377297508 -75.611230325534137 145 142 123
68.505517581431079 -3.363985870721012 -76.873796668133991 144 141 122
68.828183891289711 -2.549300485135327 -76.593109551017562 144 141 122
68.842502730522227 -1.912512193015178 -76.606514416411272 144 141 122
67.236506080907731 -2.229404175046126 -78.162985779097539 144 141 122
66.247917801008469 -2.191766722387035 -79.131601459764539 143 140 121
64.950691149692858 -2.344856202530479 -80.394037893019402 141 138 119
65.351691270890996 -1.488822502910104 -80.040392136789421 141 138 119
62.742344209174476 -2.445175845926873 -82.551447308463196 144 141 122
61.676881000200368 -2.483278954606224 -83.593365535839837 140 137 118
62.001297399216554 -1.680538874025105 -83.313392696352366 140 137 120
61.862739689898049 -1.159372793986967 -83.474189557264623 142 139 122
60.720499758359793 -1.258595012127902 -84.589607818958285 141 138 121
59.423855205501368 -1.461587580801542 -85.851809048560426 141 138 121
58.281722360842494 -1.577064146320876 -86.967111226087098 142 139 122
57.216896379344078 -1.651860373446834 -88.008956600202680 139 136 119
56.461169061872624 -1.538702788766635 -88.757172879010113 138 135 118
55.319252813625468 -1.676022677592839 -89.872353831217822 140 137 120
53.481933137252071 -2.265559610434338 -91.647931234129288 143 140 123
52.185482913126364 -2.520437588477257 -92.909691347347348 142 139 122
50.657176751309947 -2.934125128831344 -94.391474322867282 143 140 123
49.438022304822397 -3.157602494889288 -95.579676808512716 143 140 121
51.311176731563748 -1.369112107397108 -93.833584057557260 144 141 122
213.663794154765696 -1.547324869071132 62.189844111221959 157 158 153
201.870697865527092 -3.174276756465186 50.886958592897770 178 177 172
196.018918654980553 -2.968823129579999 45.259039617654196 174 171 166
194.250544091187237 -2.503566111317070 43.550480470107260 178 175 168
191.324665620400310 -2.448165938061992 40.737002812667697 175 172 164
185.234744893511220 -3.510844828802117 34.903486792859240 175 172 163
182.694650591495730 -3.372502916394742 32.458891975051813 174 171 162
180.154566710775782 -3.251995204211797 30.014475748114336 172 170 158
178.000378158351282 -3.011395319562546 27.938506774400906 170 168 156
172.759065217989900 -3.900176629497799 22.916677417268914 170 167 158
171.222305013380463 -3.475643367540452 21.430310599038933 170 167 158
169.994334304943635 -2.948256552027631 20.238596760667747 166 163 154
168.148962441124297 -2.658824623645189 18.457823828585219 165 162 153
165.994889333261426 -2.498094674897247 16.382621767962661 164 161 152
163.609279657994023 -2.440112778631613 14.086666990104391 159 157 147
162.072785115153295 -2.074468408610454 12.600779253142804 161 158 149
159.069689172055888 -2.285039078360514 9.716121056356172 159 156 146
156.298159986896110 -2.426585543518603 7.052548270265305 159 157 145
152.909045894870701 -2.830032386416782 3.800250779506740 156 154 142
151.681474151209159 -2.401056055686517 2.609359066311669 153 151 139
150.685590113101000 -1.888065001532843 1.639340597946699 152 152 140
148.994965897671591 -1.662097205183039 0.006907959338520 153 151 139
145.065406361490119 -2.358454537072926 -3.759839403062131 150 148 136
143.452031990682599 -2.132331461649468 -5.318370815992125 151 149 137
142.842467537302070 -1.502207850607671 -5.920114529146161 150 146 134
141.460888504626098 -1.198398015859388 -7.257759051389058 145 143 131
138.921135346486437 -1.391525392213431 -9.699105091352237 146 144 131
136.226940752372826 -1.667971344684707 -12.287427007607761 144 142 129
133.996063222312273 -1.765098113519827 -14.434090732104806 144 142 129
131.070177416788766 -2.177603160300160 -17.242748497146323 143 141 126
128.916531573454336 -2.274827570214366 -19.315499705855871 144 142 127
127.766900904478206 -1.947012882755030 -20.431777969486944 147 141 127
126.694596585205971 -1.593025856151931 -21.474459413877980 143 140 125
125.004499674746924 -1.521648929276293 -23.105553031897159 144 141 126
122.542058278445381 -1.808790517895282 -25.472058133285174 143 140 125
120.156847845242226 -2.078230013672991 -27.764833594307788 142 140 125
118.235104962697363 -2.153039377749123 -29.616180459128032 144 139 125
116.390639883644766 -2.205767746199206 -31.393865166112874 147 141 127
114.623461140938048 -2.235592562826942 -33.097900264334413 145 139 125
112.315530386589771 -2.530036075508920 -35.316529795001202 141 135 121
111.707295199949002 -2.041652847449702 -35.917450419840861 135 129 115
110.712887805615850 -1.740316204000382 -36.885996644350854 141 139 124
109.023189986330976 -1.777597410775997 -38.516162713465008 138 139 123
106.406292704793444 -2.272321269531317 -41.028357670040606 140 141 125
104.948455602007883 -2.224174611879809 -42.437747808338401 139 140 124
103.722513741646694 -2.073073189599595 -43.626558946092558 140 141 125
101.878403321129284 -2.234146169786474 -45.403298074988726 138 139 123
99.493314339293491 -2.675748662352470 -47.694359477715921 144 141 124
97.726504759562445 -2.825947954598615 -49.397332107291163 143 140 123
95.959719443661044 -2.988455881425941 -51.100189645640256 144 141 124
94.424850470367304 -3.046079828899091 -52.582498136077419 145 142 125
93.972260189594977 -2.563605453470383 -53.036100157748990 146 143 126
92.128316050021084 -2.797145065303638 -54.812172899434955 145 142 125
90.980181036700529 -2.684525534847017 -55.926951567749143 145 142 125
89.445554971944077 -2.780634298709568 -57.408980121249698 145 142 125
88.916135113761953 -2.361640319521486 -57.936032585750382 143 140 123
87.149675295111976 -2.597619317516481 -59.638289566224586 144 141 124
86.001864819280456 -2.517944706482067 -60.752884373555389 144 141 124
83.616781625005245 -3.106500187501938 -63.042435884098779 143 140 125
82.391721601398928 -3.088567834809799 -64.230298113402114 144 141 124
82.404254577419223 -2.409872884896819 -64.243279994237326 144 141 124
82.494376148129803 -1.688648276065704 -64.182958887044748 144 141 124
80.341439842394976 -2.195424805323007 -66.251833810404150 143 140 121
78.188446632875369 -2.717283403725130 -68.320526263873717 142 141 121
76.267491115625305 -3.125427564137933 -70.168818619040451 143 142 122
75.971316096384925 -2.639554194043645 -70.475566383400974 144 143 123
75.752722018922810 -2.111950196266466 -70.708999273776897 143 142 122
75.070043603001011 -1.848146494063338 -71.382853687940326 143 142 122
73.304060589218992 -2.205511227789819 -73.084089285872182 141 140 120
71.538058251371396 -2.575194438779182 -74.785188838962569 143 140 121
70.236443195932523 -2.689580725174643 -76.045924266143089 144 141 122
68.934876290656803 -2.812945802908621 -77.306590304986770 144 141 122
69.259057624392810 -1.996902381878652 -77.026641949041249 143 140 121
67.338350464131139 -2.495884134435041 -78.874118080371119 143 140 121
66.656421931248204 -2.276789527438570 -79.547871022833050 141 138 119
65.510037201005744 -2.338195804182178 -80.661695685515809 138 135 116
65.060689884655361 -1.990934948228410 -81.115457309569479 138 135 116
62.675332486847026 -2.810500500085246 -83.402499739373894 140 137 118
60.986909852411316 -3.225326621752784 -85.029389593077639 139 136 117
61.312470518713752 -2.426764102680778 -84.749921165398405 141 138 121
62.413067916686245 -1.151342653428463 -83.737547352863572 141 138 121
61.034887264617993 -1.393364803765457 -85.071199125915626 140 137 120
59.579237845634850 -1.692888750068467 -86.478057096464511 141 138 121
57.891107998394489 -2.147259921106995 -88.104679961499983 141 138 121
56.900429685853638 -2.176653919298401 -89.071605789318028 139 136 119
56.297380613361796 -1.968701319914261 -89.672120820052839 139 136 119
55.384431320927092 -1.961023167640109 -90.565754662004565 138 135 118
55.944559700805840 -1.021288142655381 -90.067379129230375 138 135 118
52.861033315839222 -2.411078634326082 -93.012280261223566 139 136 119
50.862717008336560 -3.123649629796791 -94.931288746080327 141 138 121
49.872414292525093 -3.197324159773460 -95.897938456327921 143 140 121
50.588503667852876 -2.166384638112520 -95.253395173047522 144 141 122
212.981353945676858 -2.105408048672345 60.083170330314999 149 150 145
211.671957884460028 -1.408253074409040 58.817803707748340 170 169 165
200.460795186254018 -2.891730988779674 48.121917383859738 174 173 168
196.829044169484291 -3.030712475247325 44.650397636677980 174 171 166
194.126222140326291 -2.880479176625105 42.061811031898600 178 175 168
190.417001900494540 -3.093600873490043 38.517256572997468 175 172 164
189.262510524457241 -2.449427482497534 37.400047215902902 174 171 162
184.624235192827598 -3.030024189680566 32.973425514222640 174 171 162
181.843974436024723 -2.987692133791878 30.312137128086732 172 170 158
179.218558361124224 -2.909657515805881 27.798121842325713 170 168 156
174.812380879113562 -3.490648873885709 23.593046042053942 170 167 158
171.722372795209424 -3.624374433492864 20.638316425276457 170 167 158
171.342346508830246 -2.785775944073634 20.257193157929407 168 165 156
169.878412464635801 -2.351150537625033 18.846741555591507 166 163 154
166.788458595582057 -2.534529565037720 15.892497110703346 164 161 152
163.698483970525501 -2.739536912554156 12.938485226579644 162 159 150
162.544409452258520 -2.228975021756562 11.822451776448816 160 157 148
159.686760312679553 -2.381146100127219 9.089328960918294 161 158 149
156.906541169176961 -2.523274592368305 6.429919412209074 158 156 144
155.055636615090350 -2.321185544807882 4.652692364335508 158 156 144
153.979236766232134 -1.826222287094717 3.610519068092970 154 152 140
152.050999389321305 -1.678059743643654 1.759983985260448 154 152 139
149.425747736138533 -1.823444744292210 -0.751810188915726 152 150 137
145.793602754677693 -2.395319880127375 -4.218685472939626 150 148 135
143.633045087100072 -2.390934945336673 -6.289176004652234 150 148 135
143.021675208040534 -1.762799780201769 -6.890035540277296 147 145 132
142.255511361714866 -1.203248606420708 -7.637853972915764 144 142 129
139.165562602773576 -1.623549480034773 -10.589662106882002 145 141 129
136.617834995396606 -1.836148374709556 -13.026992767544442 145 141 129
134.612383736031461 -1.835311488182390 -14.949931381601573 144 140 128
131.754773814519751 -2.214815187067502 -17.680732910055980 145 140 128
129.904301487990608 -2.177766346571057 -19.456467892351071 143 138 126
128.363780018273587 -2.018182123626078 -20.938308080688614 142 139 124
126.900802767324123 -1.835158596580542 -22.346627545096709 144 138 124
125.592862533964492 -1.593472831218788 -23.608002257344793 146 140 124
123.820083218233634 -1.568866967082294 -25.309918342969439 147 142 126
121.582407566287429 -1.766263551077267 -27.452297741679786 145 140 124
119.267242552090423 -2.014484805923502 -29.667942216151829 146 140 126
117.649542521125724 -1.959406537772706 -31.222643597962929 146 140 126
115.334395851587303 -2.237466298559122 -33.437989705725641 143 138 124
114.026785490319455 -2.063124681148621 -34.698829020506025 142 137 123
112.641747943486877 -1.934124961907492 -36.033019593095247 141 138 123
111.566825594178482 -1.668331978443012 -37.073540755299973 143 140 125
109.484318709204814 -1.889161735803204 -39.068193380989669 138 139 123
107.711888829682209 -1.975937852788240 -40.769130125013419 141 142 126
105.784448005789812 -2.149852385414490 -42.616730974937866 140 141 125
103.857022800194613 -2.337174726557131 -44.464201283293619 140 141 125
101.464432345527314 -2.765688950598240 -46.751808731254044 138 139 123
100.002210407353701 -2.752044082396640 -48.158746035081123 143 140 123
98.074818558621757 -2.979592160560460 -50.005818237527080 143 140 123
96.535143962850540 -3.026604054470207 -51.485936969841674 142 139 123
94.685330117113963 -3.240531685939922 -53.259403540185133 145 142 126
93.533484388767818 -3.113259182623413 -54.372557845561033 145 142 125
92.304171475675247 -3.033502426278545 -55.559021896756548 145 142 125
91.307617047482495 -2.842520067778772 -56.525405055535316 145 142 125
90.156039576771335 -2.738663494670901 -57.638446662511512 145 142 125
88.926980103731552 -2.683142128670980 -58.824782491511911 144 141 124
88.163442490538046 -2.391744120557838 -59.571097069836043 145 142 125
85.926038855278676 -2.884394900997008 -61.710567400629941 145 142 125
83.921333249708425 -3.268854842583325 -63.629896679098380 143 140 125
82.614901938199097 -3.293341765468498 -64.889253405193671 145 142 125
82.938013789276880 -2.448467442680619 -64.609090183365538 144 141 124
82.097414097720005 -2.232496038786204 -65.428621008539523 143 140 123
80.791310177343888 -2.276466180924807 -66.687933806867477 142 139 120
77.933055573932080 -3.182580244591192 -69.413006256679665 141 140 120
76.859807525079319 -3.121260888272750 -70.452223648720377 142 141 121
76.718111691972865 -2.548697885243845 -70.612048296316971 142 141 121
76.266133741136656 -2.150744610992139 -71.065073236376975 141 140 120
75.348538497394372 -2.018269741193153 -71.957769066454148 142 141 121
73.344101974516590 -2.508663161083589 -73.876136646651617 142 140 120
71.417252948822153 -2.968722288446990 -75.721075180745174 143 140 121
70.344525921974594 -2.951559789099329 -76.760087299215940 144 141 122
69.893151245645555 -2.582625823949845 -77.213102133405641 145 142 123
69.752624013409147 -2.035871599665995 -77.373220172928029 145 142 123
67.903565527958008 -2.489468099356468 -79.144581072982987 144 141 122
66.675882796822791 -2.590170127443156 -80.329967444716260 143 140 121
65.137514182445955 -2.883303186245275 -81.808177505262478 140 137 118
64.919907766668331 -2.400275218942709 -82.041624046128106 140 137 118
62.760056692647836 -3.082475361636568 -84.105385244663154 138 135 116
62.154210010484150 -2.842933076433982 -84.704887077025774 140 137 118
61.548527133152149 -2.607314325908741 -85.304426886144967 140 137 120
62.886039811688448 -1.190434651729529 -84.074271977564450 138 135 118
61.348131615246615 -1.527871487691040 -85.552246259438022 132 129 112
60.043417229216175 -1.732060351976972 -86.810574594439970 134 131 114
58.272263362102208 -2.234740605204948 -88.507840668219558 140 137 120
57.045305357009980 -2.410041559145603 -89.692805862188550 140 137 120
55.429581237876491 -2.837847487208449 -91.243481943834979 140 137 120
55.213650278413382 -2.393086406222221 -91.477336116974044 137 134 117
55.075747795340334 -1.899995663613412 -91.638157442324143 139 136 119
54.238042374147696 -1.854391789437330 -92.457319197950994 142 139 122
51.455585134579763 -3.063157945211750 -95.104678611870582 144 141 124
50.228873119080504 -3.286992067147371 -96.289261910138521 144 141 122
50.402811761745653 -2.609880673330399 -96.157725638464910 145 142 123
214.229671259312425 -2.041675581839572 59.817900230809187 143 143 141
204.070480031326440 -3.118760587955205 50.166595543951559 177 176 172
198.337384313961820 -2.858873965474507 44.703056256055220 174 171 166
192.442112133200624 -3.781537763886619 39.107556448057039 178 175 168
191.361694291021223 -3.102923898448791 38.065414938083364 175 172 164
189.427060938550085 -2.726214943739677 36.215587125012462 174 171 162
186.327493914060256 -2.768527419948464 33.264489511856453 174 171 162
182.917243984071661 -2.941711684273224 30.019933125136646 172 170 158
179.895305372306069 -3.000809564370818 27.142730010936219 170 167 156
177.106364720209825 -2.997442559076386 24.485995143796629 170 167 158
173.851385621891893 -3.182279696601653 21.388995442148143 170 167 158
171.916847205234433 -2.907095604995936 19.540167258526992 170 167 158
170.681439775096806 -2.387356095314924 18.352089839887157 168 165 156
166.649675090125413 -2.918059906476898 14.521673030511067 165 162 153
164.715221780060233 -2.688162841656531 12.673270294304842 163 160 151
162.858492792005563 -2.442236470011186 10.898378396078300 157 154 145
159.836529304322255 -2.655593740521604 8.022775051830507 160 158 148
157.979858224850574 -2.439569262480278 6.248163245548739 158 156 144
156.667062609405889 -2.024325346040858 4.987324810210112 158 156 144
155.432038399738474 -1.587590371355255 3.799918467587474 154 152 140
152.254730424326112 -1.930604229131648 0.778248244338442 154 152 139
149.776660240008141 -2.015693179256191 -1.582859927743982 153 151 138
146.599297999237052 -2.400584766776019 -4.604073122121576 150 148 135
144.121214474172689 -2.522641701719199 -6.964794381997820 149 147 134
143.119526789110949 -2.055100433604782 -7.931568568073743 146 144 131
142.661894595669651 -1.368953641872501 -8.384855058504002 145 143 130
139.562253293987794 -1.790373768847456 -11.332014792209293 146 142 130
137.705976943188830 -1.709274207430791 -13.105426585387818 146 142 130
135.150299973619838 -1.938341120988180 -15.538784784834519 144 140 128
133.138645081271761 -1.952068299926295 -17.458605686894686 146 140 128
131.204741299145041 -1.946186713620023 -19.304965411527007 144 139 126
129.115422129593640 -2.021430123618879 -21.297857657035024 143 140 125
127.958858568696286 -1.701684318061635 -22.410736191879977 145 139 125
126.491465681215473 -1.527481255015613 -23.816852437440104 147 141 125
125.179611149736473 -1.294066021909343 -25.076269430141679 146 140 124
122.313089566801494 -1.768609413568509 -27.801829359016324 147 140 124
119.446517828870341 -2.263137512818082 -30.527159581278028 146 140 126
117.979288201111387 -2.138761956005658 -31.932841030176547 144 140 125
116.123386979704790 -2.203351274460742 -33.704932635142256 143 140 125
115.200531661028052 -1.848299477511094 -34.597403159524958 145 142 127
114.122282892653800 -1.572161823022346 -35.636439457146139 145 143 128
112.344310011873844 -1.632714247862708 -37.334994382005107 146 143 129
110.177561338796664 -1.889902511503260 -39.399830653573133 144 140 128
107.699744078607182 -2.310704516898104 -41.757604160566075 144 141 126
105.610738646047025 -2.561688512788519 -43.748837510640243 144 141 126
103.599505078515847 -2.789491732114895 -45.666656380822332 142 139 123
102.210499049851933 -2.727542277203785 -46.998258263252325 140 137 120
100.665995591076609 -2.751630816199635 -48.476302845665572 141 138 119
98.965968656919088 -2.863406403956046 -50.100760693543634 141 138 121
98.199460732713973 -2.521465960878374 -50.846174543934666 141 138 121
96.032775719112323 -2.887843429691905 -52.909917330636830 145 142 125
94.488461364494768 -2.954560052634749 -54.387613587548344 143 140 125
93.411015223858712 -2.794233733814247 -55.425841755271620 146 143 128
92.878328007813650 -2.362006017181407 -55.951467348477820 143 140 125
91.334229698148192 -2.455441297955779 -57.428991931986502 144 141 126
89.867990050010462 -2.519082825847383 -58.833211629437983 144 141 125
88.323975599354668 -2.633542783971002 -60.310559913243623 144 141 125
86.624341508752181 -2.840647292438494 -61.934224427661860 145 142 126
84.535555248462956 -3.265877984236865 -63.923769020224114 144 141 126
83.225113946785754 -3.290128064945210 -65.181209818703735 145 142 126
82.303953295519221 -3.114229943100738 -66.072646947389757 144 141 124
82.394946649139058 -2.397185764172378 -66.012699866887658 143 140 123
81.240521950667642 -2.357259966822548 -67.123721298271846 143 140 121
79.619017554264076 -2.581166104683933 -68.673730958056467 140 139 119
78.231124075685329 -2.687463734581316 -70.004133228869705 141 140 120
77.777737499856727 -2.284713834283985 -70.456533661643249 141 140 120
76.779391700376564 -2.189282305897084 -71.421076281843455 142 141 121
75.703264670463511 -2.144375480607358 -72.458747436786354 143 142 122
74.159887978429154 -2.371078733410247 -73.935245445512123 143 141 122
71.603875091217503 -3.184712498524823 -76.362425702845798 144 141 122
70.605758602141989 -3.124087067361670 -77.326719747713810 145 142 123
69.685648535129701 -3.025322558249091 -78.217865497281508 144 141 122
69.856467110704671 -2.300409122828124 -78.085328646634537 144 141 122
68.547059025156898 -2.437333358587998 -79.342103920488313 143 140 121
66.692189273899686 -2.903319488663525 -81.110557198211438 145 142 123
65.149006974952997 -3.198179013220954 -82.586446637180075 143 140 121
64.541138090783264 -2.948257801927218 -83.185087890534675 142 139 120
63.933433495041541 -2.702267235591907 -83.783767278807005 139 136 117
62.858147487193918 -2.741292551731330 -84.820976820127669 139 136 117
62.796486420327398 -2.174925649465727 -84.908167161058969 139 136 119
61.955369681102042 -2.082644678394113 -85.726177424638877 135 132 115
62.284083850475923 -1.280569684655460 -85.448253777686034 134 131 114
60.351490222701713 -1.866898109267766 -87.289144360526564 131 128 111
59.510746486526017 -1.791118618831291 -88.107163209457099 138 135 118
58.046086853937638 -2.109244045889072 -89.509519250315606 138 135 118
56.503402423109122 -2.486302723549450 -90.984800750509265 140 137 120
55.350792234001574 -2.628514565819929 -92.094815402730831 139 136 119
55.134590303463057 -2.185908952392203 -92.328517756925805 140 137 120
53.748064276051295 -2.489439267915011 -93.657543996575754 143 140 123
51.971293171321307 -3.052310020008892 -95.351503232092199 144 141 124
50.896930082496624 -3.175411241686922 -96.388288859178061 144 141 122
50.525216920271447 -2.851063242154967 -96.768095657995673 144 141 122
216.492406506838506 -1.654616814645992 60.505173412795244 137 137 135
209.800064027675717 -2.685917437741764 54.183518707630355 161 160 158
203.497052991415643 -3.636874637766095 48.229076584084794 176 175 171
202.335395239929710 -2.937313672009906 47.114725464309316 175 174 170
195.097344702789826 -4.269566887867052 40.281221285329480 174 170 167
192.845021532042949 -3.974366898271329 38.140778665414672 176 173 166
191.917140137516981 -3.244505322658942 37.246854493150181 176 173 165
189.509076875315856 -3.029525554234762 34.960025376349535 173 170 161
187.023119735181524 -2.858323583843667 32.600052165700987 173 170 161
183.991787193851934 -2.895547945392638 29.727117920089569 173 171 159
179.791721168380946 -3.367534457108506 25.754893718618632 171 169 158
177.773245435881506 -3.088974098881917 23.835327220654335 171 168 159
175.365212757594236 -2.965038338258346 21.549420634323013 171 168 159
173.268878986351410 -2.744256823959346 19.556837016964181 169 166 157
171.250500745893333 -2.509360377430554 17.637673333719505 167 164 155
168.452909693773933 -2.577860288104041 14.985816550568728 165 162 153
164.798112879154587 -2.987136587724426 11.528104114380028 161 158 149
163.325283350613631 -2.596302576223491 10.122358848089419 157 155 143
160.605614466547365 -2.691754986578798 7.544360687376411 159 157 145
159.288753279075252 -2.265586019756085 6.285354750728175 158 156 143
157.582288800575498 -2.000011193813499 4.660092344624587 156 154 141
155.875880086169616 -1.746245107128917 3.034924814454996 155 153 140
153.156290032469144 -1.905293991549386 0.457543572020825 155 153 140
150.904353948434590 -1.896519165078481 -1.680135910758565 153 151 138
148.262705575212379 -2.060326130379212 -4.183896323734643 151 149 136
144.919508289942030 -2.527467490447821 -7.346645732872076 151 149 136
142.979385198998557 -2.442979814636252 -9.190839293452001 148 146 133
142.754298508388842 -1.663277537712405 -9.423761114183520 146 144 131
141.126140749744650 -1.469707918803449 -10.974885115964298 147 143 131
139.030282774050477 -1.483924657627672 -12.965277397210230 147 143 131
136.544635344043826 -1.677812190349129 -15.321640722461524 145 141 129
134.292880788325590 -1.789036904937589 -17.458171832206574 147 141 129
132.353013186889768 -1.781561042019608 -19.301694896813757 145 139 127
129.945346984141480 -1.990610337086399 -21.584349221331195 144 141 126
128.785279592769427 -1.670371934610358 -22.695556606234788 146 140 126
127.547329263890859 -1.392477091782260 -23.879928082185046 147 141 127
125.841578377981534 -1.331101323009502 -25.503429945061697 144 138 122
122.654161851720474 -1.945460535845614 -28.517471178182006 146 139 123
120.090572940486155 -2.300242287638292 -30.945750285872265 146 141 129
118.150890223347488 -2.388874379794796 -32.788372511031383 144 140 128
116.757199974576082 -2.240547584977853 -34.118622603970067 144 140 128
116.455569761128089 -1.597211496146142 -34.424381464986936 145 141 129
115.062077170446273 -1.464189618249214 -35.754568575679741 145 141 129
113.044606277365986 -1.633457918456722 -37.670006060026793 144 141 129
110.481075199070347 -2.074737546635453 -40.097422468702263 138 134 122
107.761470894611847 -2.608098480293378 -42.670943911661595 145 142 127
105.900002246587604 -2.748806195049794 -44.439588553925205 144 141 126
105.520976748933052 -2.186280056530808 -44.818348843772981 144 141 125
104.127783332698968 -2.119698996841276 -46.147995169777317 142 139 122
102.734657996050970 -2.062674955876884 -47.477575689627514 142 139 120
100.717320651712953 -2.323322612001887 -49.392136449619585 141 138 121
99.870569233232715 -2.016080017000958 -50.209663809940565 141 138 121
97.775245048642049 -2.339580594676433 -52.197127841096602 145 142 125
96.382338453847879 -2.323522344358898 -53.526391324837363 143 140 125
94.989494728854424 -2.317013516773212 -54.855586588269830 145 142 127
93.362539715584560 -2.439731576433952 -56.404030271350194 141 138 123
92.906554173432781 -1.971116433252716 -56.855865351576057 142 139 124
91.435869141970741 -2.031206346480972 -58.257994951436558 144 141 126
89.418726077367353 -2.386444561620920 -60.171674986045588 145 142 127
87.557714070095869 -2.673653386093644 -61.939030074161934 145 142 127
85.930943327470970 -2.849900122338817 -63.487010914128632 144 141 126
83.601401938680056 -3.411320017814537 -65.692553869327611 144 141 126
82.443183922929620 -3.361494593041659 -66.801862492566102 143 140 125
82.378432375778985 -2.730058190776411 -66.888244151374437 142 139 124
81.532873257213808 -2.522570786030201 -67.705315073601867 142 139 124
80.296890113346237 -2.534044239446803 -68.887649030879061 142 139 123
78.904744285744528 -2.639823705773293 -70.216022326213562 140 137 121
78.293862268493754 -2.322965517872485 -70.813911122956853 140 137 121
76.901863593561075 -2.445038661575297 -72.142187096617278 141 138 122
75.666174637737015 -2.489099683064389 -73.324326352237335 143 140 124
74.508690429725803 -2.497529939315595 -74.433386371593116 144 141 125
72.647961570252420 -2.912810401988226 -76.199558610935895 145 142 125
70.787190572767514 -3.340977194636544 -77.965578046130389 145 142 125
69.473491348681293 -3.467803400671134 -79.220404398108940 144 141 124
69.801330927338867 -2.655046057154019 -78.942172308747843 141 138 121
69.425938336296170 -2.248567275452065 -79.321064294830933 142 139 122
68.034410256563334 -2.438832128980290 -80.648863468096152 144 141 124
65.939222198268283 -3.052723686474478 -82.633403481370294 143 140 123
65.251429654752584 -2.847975861209186 -83.304203422614108 139 136 119
64.876596069461527 -2.461432403591928 -83.683157630827253 138 135 118
64.893020958057463 -1.842863654266323 -83.697382480110804 136 133 116
63.345397065839961 -2.166381086884929 -85.170852085839016 138 135 116
62.971128101601437 -1.789337039137421 -85.549978624630455 141 138 119
60.641263023963290 -2.606932156990795 -87.752729787939103 137 134 116
61.519078710318908 -1.473695505667890 -86.964891043407334 132 129 110
60.049912852842681 -1.781472798962968 -88.365197840264898 132 129 111
58.658994465220360 -2.050813686218548 -89.692474718806324 138 135 116
57.189814279443212 -2.378527828144646 -91.092569441055502 140 137 119
55.564069177555297 -2.814579292105332 -92.638366643458085 140 137 119
54.642812152462128 -2.817337571575285 -93.527918667147759 142 139 121
53.408487736547301 -3.024959556424072 -94.709027098821309 143 140 123
52.722292747381459 -2.891267328243022 -95.379859893634091 144 141 124
51.174841847675538 -3.314734761638749 -96.852383422818292 145 142 123
50.880441979787207 -2.940394449123021 -97.158832347709847 144 141 122
216.575320963738136 -1.963402898004978 59.138379292052605 128 128 126
205.102173754325520 -3.443518183784666 48.346073077251191 174 173 170
203.311843160982562 -2.946980382843400 46.647695630171711 174 173 169
197.692249045703079 -3.734063612551181 41.362352321370849 174 170 167
195.198560924574593 -3.511589903353526 39.005549819766031 176 173 166
191.845203688340632 -3.597768606392805 35.843739456336181 176 173 165
189.273364527785134 -3.439628491909172 33.414127477202356 173 170 161
187.170473727976059 -3.137131005169037 31.423839576279107 172 169 160
184.051552350512566 -3.204143903121964 28.482255273093898 173 171 159
181.792378392499302 -2.989460216602007 26.345918841080334 172 169 158
177.579160968342819 -3.486623168971902 22.380245377412507 171 168 159
176.179796023997369 -3.000714379900439 21.049235138331710 171 168 159
173.529830531756232 -2.978738430960503 18.547541249720069 169 166 157
171.661557975692062 -2.688477101180136 16.777715392865218 166 163 154
168.698932834053096 -2.816250974032903 13.983702719279592 165 162 153
166.205331882959655 -2.789305637594286 11.628871187594683 161 159 147
163.399036557785735 -2.897556932029829 8.981587679799901 158 156 144
161.687225335931458 -2.608689668005505 7.358643376623718 156 154 142
159.506385606756282 -2.511799254659421 5.296903508296737 157 155 142
157.716487090475027 -2.278491491240475 3.601028916043532 155 153 140
156.395752059851418 -1.874101515419243 2.344100394775779 152 150 137
151.799760988750222 -1.870501332054496 -1.997904499352217 153 151 138
148.993534664335897 -2.096580849389593 -4.644008151783765 151 149 136
145.639917368926888 -2.563745842648200 -7.801772420519370 150 148 135
143.381021551538481 -2.607055073794255 -9.935586263348426 150 148 135
143.233580334941450 -1.796312555395900 -10.095114040579517 146 144 131
141.991446149410876 -1.441198610142446 -11.278278828861318 147 143 131
140.123743464812605 -1.356643371186525 -13.046259874141356 146 142 130
137.395771298876468 -1.648290299891187 -15.618266244532123 145 141 129
135.449906919461995 -1.625797351785269 -17.459075049511284 147 141 129
133.660509717088075 -1.549572779775458 -19.153572532418451 146 140 128
131.636500288507591 -1.587223189814414 -21.067236812857033 144 140 128
129.847185082579358 -1.536468294898720 -22.761511350401548 146 140 128
127.979688441980102 -1.532432406573901 -24.528762140298966 146 140 126
126.190458078052473 -1.506593230470772 -26.222820795955414 144 138 124
124.244805007716622 -1.562962217060539 -28.062918924962844 149 142 126
121.047401039685042 -2.196244790795285 -31.071987412514233 147 143 131
118.554067399229737 -2.532273872936235 -33.423210546659021 143 139 127
117.156113298556534 -2.384815717625186 -34.751411886120366 145 141 129
116.853690268413089 -1.742352312549852 -35.056782483375372 145 141 129
116.238442072059811 -1.247039542113405 -35.654419437667940 143 139 127
114.214761222174374 -1.414426954493547 -37.566905460888620 145 141 129
111.565023709352658 -1.890689399580757 -40.063579795989853 132 128 116
109.228281487707434 -2.236746188585528 -42.267894738077786 145 142 127
107.908977905062301 -2.112573164691288 -43.522623645296733 145 142 127
106.668022823973388 -1.959720894511457 -44.704270532072741 144 141 125
105.270603818291590 -1.891254886269611 -46.031914753291801 144 141 124
103.168740512904350 -2.176501208951723 -48.016644261736928 142 139 120
100.988582432975079 -2.514772367624042 -50.074230892059461 141 138 121
99.434705493197029 -2.557782150471851 -51.547596467422409 140 137 120
98.350630308957847 -2.377050149258212 -52.582863369348217 144 141 124
97.031763753865462 -2.321688767405050 -53.837093036250849 144 141 126
95.243157378243950 -2.513031415535304 -55.529214644154479 145 142 127
94.002711862899332 -2.437425010874876 -56.710310174937121 142 139 124
93.467151201889095 -2.008729713010276 -57.234524760960397 143 140 125
92.540175963298452 -1.785731842958350 -58.123665032370440 145 142 127
91.065067879532307 -1.854019104518139 -59.523594279745311 146 143 128
89.041718240181453 -2.219398292340935 -61.434200724143238 146 143 128
87.410001676289482 -2.392364244061238 -62.979849270931908 144 141 126
84.994929990935219 -2.992069169972100 -65.254939623297702 144 141 126
83.128169880599458 -3.315706129743298 -67.019169865514442 144 141 126
82.436623302760836 -3.020590144782247 -67.689104094470707 141 138 123
81.745226097570466 -2.730020510916713 -68.359062984914232 142 139 124
80.897258758669949 -2.529319240111443 -69.174911969702237 143 140 125
80.049419184615360 -2.334265709597051 -69.990763941726641 140 137 122
78.966591139808017 -2.274515153929181 -71.025382148086976 140 137 122
77.491963143403851 -2.439565167729203 -72.424545039991898 142 139 124
76.330901909327764 -2.439601781863835 -73.531980222314161 144 141 126
75.169917548349943 -2.447502657129344 -74.639371229672662 145 142 126
74.322598406066916 -2.285928374844608 -75.455127555752114 145 142 125
72.534558804474401 -2.665347059644036 -77.145584345281748 144 141 124
70.981717586836638 -2.922417148376677 -78.617241976303291 143 140 123
71.154064338319728 -2.196340883745577 -78.485448169357880 140 137 120
71.169867682218865 -1.559513769565519 -78.499563616310638 142 139 122
69.382028277667317 -1.973996581780218 -80.189755246740219 143 140 123
66.966634343911110 -2.768924949897765 -82.462681903612690 142 139 122
66.276886452263682 -2.562218270363176 -83.132566576483669 139 136 119
65.665745485432510 -2.313422381100553 -83.729630893203847 137 134 117
64.976312698380738 -2.115401118741259 -84.399576907671246 136 133 116
64.443972325069126 -1.827580228724278 -84.923881977242075 139 136 117
62.813145827073711 -2.206973903810673 -86.467831464247695 140 137 118
61.967130187219553 -2.120587359790513 -87.283437436260101 137 134 115
61.356715528345418 -1.895842699758534 -87.880601644832581 134 131 112
60.039963585217720 -2.109388151770120 -89.133074941722668 135 132 113
58.958761478908798 -2.186266550605407 -90.167064601022162 138 135 116
57.877629235237407 -2.270428515501333 -91.201012708963560 140 137 118
57.817412362666218 -1.723369057260703 -91.288695206274923 140 137 118
56.893600800257403 -1.719609275615122 -92.177092241746493 142 139 120
55.027356763794103 -2.318196560109732 -93.938739170119277 141 138 119
53.160994307637395 -2.929751781428451 -95.700195961428335 141 138 119
51.765885115899735 -3.252767743389738 -97.024915469137909 142 139 120
51.313628130064501 -2.978894564950619 -97.476529701052129 143 140 121
216.103938527349158 -2.445905468898587 57.262534861718990 126 128 127
205.457272558903213 -3.656358324314557 47.291514817442476 173 173 171
203.896635025379538 -3.084796661251956 45.815057394327141 172 171 169
202.492843638474227 -2.472120049020943 44.484859865307982 172 171 167
196.071718406973645 -3.546747849857062 38.477337286604438 174 171 166
193.570354098914834 -3.341620331824575 36.124385599574993 175 172 165
190.206593797857806 -3.448109405203804 32.967761091542769 173 170 163
188.097245131404009 -3.145402704935350 30.980560458346673 171 168 161
185.360690506889512 -3.075669432998703 28.408940038774602 173 170 160
183.016169172058852 -2.886982142694167 26.202842208329344 171 169 158
180.436441040612692 -2.798022460474400 23.777716394770977 171 168 159
177.699897877086073 -2.783120357015624 21.206654897063572 171 168 159
175.277005316337551 -2.673564576397538 18.928005247924318 168 165 156
173.089373776756304 -2.494747848181139 16.868671249700014 165 162 153
169.803922689390163 -2.736117122845622 13.786831156849871 164 161 152
167.067374763236302 -2.795749621623537 11.216539159670816 160 158 146
164.722932659064270 -2.726882783810071 9.011636797660174 162 160 148
161.829534281485024 -2.882461731162395 6.295651373958179 156 154 141
160.426234369016697 -2.487545857335170 4.967460245927015 155 153 140
158.630861103808570 -2.253748902957836 3.274199719306239 155 153 140
157.227699464790817 -1.879448713060194 1.946154649321329 151 149 136
154.648092296501062 -1.977425432260116 -0.477104802307849 152 150 137
152.068483285091133 -2.093204901017795 -2.900180119550072 153 151 138
150.116392077859985 -1.975670115611583 -4.738988344821820 151 149 136
146.987696345582037 -2.346506393118191 -7.672769223493901 150 148 135
144.172737800000704 -2.611223314989531 -10.314297697036011 150 148 135
143.162070377711274 -2.154579529152211 -11.276663834342656 146 144 131
142.308411761907166 -1.639844436351934 -12.093022639654976 146 143 131
140.905691099913724 -1.360170202916156 -13.420304639030832 146 142 130
139.032303878433368 -1.288263590981381 -15.185436022679426 145 141 129
136.845115990786894 -1.362439036414149 -17.242378086932888 147 141 129
134.265625117343404 -1.619552152016857 -19.664055102746460 146 140 128
132.156917856585096 -1.691366925049682 -21.647707444560524 144 140 128
130.597520856619298 -1.538835172587517 -23.120445049305403 146 140 128
128.253452065108974 -1.740946720968215 -25.322736686156873 146 140 126
126.301763607648127 -1.785860163726928 -27.160065424318702 144 138 124
124.585544369374787 -1.739355123075840 -28.778406191431884 149 141 128
122.790888789397641 -1.739837485666555 -30.469598501505772 146 144 131
120.054421247219224 -2.178545015774557 -33.036026944374782 144 140 128
118.495273192735837 -2.099648475262607 -34.508125679557367 145 141 129
117.799629637940200 -1.634968726533255 -35.177845333782670 147 143 131
117.025629514110648 -1.211232773261427 -35.920516903831384 145 141 129
114.760212187545520 -1.487880636991764 -38.048809007259820 146 141 129
112.416274328583782 -1.816998182748762 -40.249855945260322 134 130 118
109.993800769677634 -2.199411268362556 -42.523641960760671 143 140 125
108.670500683916842 -2.074728718527655 -43.776464199394439 144 141 126
107.190240159869347 -2.034434257376867 -45.175046223218374 145 142 126
105.238898910139284 -2.232035545956461 -47.010969371667670 146 143 126
103.444620259324935 -2.366565945641400 -48.700962179575185 144 141 122
101.100637150596896 -2.783013357512045 -50.901088540060016 142 139 122
99.306368730137180 -2.944089811528785 -52.590812990261384 140 137 120
97.512117456044194 -3.117476274521306 -54.280418930119311 143 140 123
96.660436495623301 -2.831061044951027 -55.095373627937846 146 143 128
95.730332461734207 -2.589951562268727 -55.983203526329049 146 143 128
94.329011286946653 -2.594446193964059 -57.308229942704259 143 140 125
94.027603839449156 -2.046090817886275 -57.613117689997665 144 141 126
93.333566644151531 -1.701777936874206 -58.282366824464162 144 141 126
