ply
format ascii 1.0
element vertex 672
property double x
property double y
property double z
property uchar red
property uchar green
property uchar blue
end_header
159.440093528955003 -2.423165495114362 -64.624251325545430 133 130 111
158.422096794427034 -2.042419269372308 -65.360612123445264 132 129 110
153.951124481651107 -3.015062347203215 -68.422069981671967 132 129 110
152.741229576989156 -2.731083813451335 -69.287349044127012 132 129 110
149.420606130611219 -3.289989654924095 -71.573082043144410 134 131 112
151.281597195330477 -1.800225889873713 -70.372389862900405 133 130 111
150.936166143944234 -1.186215968608961 -70.656892684209339 135 132 113
145.407552679074456 -2.672438280870545 -74.426539845629918 137 134 115
140.165813658088098 -4.073591684378281 -78.001725759932441 136 133 116
139.051954063874462 -3.809671753749147 -78.801882427525442 136 133 116
141.491670945071291 -2.082112091170126 -77.215345137286988 135 132 115
136.728736549056833 -3.340172421712719 -80.466768047252572 135 132 115
132.733360764014208 -4.303762086272330 -83.201548420866857 137 134 117
136.752834573777761 -1.192048345847394 -80.611267064836142 138 135 116
129.200827722681765 -3.712637351072499 -85.730319093236290 142 139 120
126.165055247190807 -4.329893775265083 -87.819146533716548 139 136 117
124.474885125364423 -4.380486900163921 -89.005514088971239 143 140 121
125.765845073785329 -3.137873243882536 -88.194730245888906 144 141 122
124.364686597853677 -3.071702327740908 -89.187985238060861 142 139 122
118.249740698679588 -5.100956555229948 -93.336696581913316 142 139 122
119.349539939192184 -3.949412268968981 -92.655242458477716 141 138 121
114.964828327486458 -5.252124773515150 -95.643710685077139 140 137 120
112.600396639090818 -5.667727087115973 -97.279768789559455 142 139 122
117.841229378512438 -2.639480898828576 -93.831756681598335 144 141 122
117.692325960481782 -2.046094806014208 -93.988347587796540 145 142 123
116.869789829520940 -1.763399674310002 -94.595489009451484 145 142 123
112.386990062842912 -3.181414581131242 -97.646704218301124 141 138 119
109.059187969657245 -4.086776671927309 -99.925436729073198 140 137 118
109.199930592291366 -3.383513164327638 -99.889147676968548 141 138 119
101.148239664250738 -6.548006278920319 -105.316818951867077 141 138 119
102.876084838065637 -4.492076945158056 -104.279975830257086 142 139 120
99.835206209970167 -5.334526972389305 -106.364042473950093 144 141 122
95.925363559299711 -6.615180927551895 -109.025619018921986 142 139 120
99.540935725469581 -4.253447487933256 -106.677828116742916 142 139 120
93.121118020964488 -6.787133233881518 -111.008074121675406 143 140 121
94.035882587565879 -5.742830053540453 -110.458713927750836 144 141 122
100.262522893312465 -2.058450600516049 -106.380473840556249 143 140 121
89.783856469936481 -6.670645011462985 -113.403658563767891 143 140 121
93.888390443855172 -4.026043564545659 -110.738402592292545 145 142 123
97.898928085316840 -1.404074820428272 -108.138805012703045 146 143 124
87.994021194725008 -5.823931768012400 -114.773300846325128 144 141 122
89.976192644783765 -4.230747236281609 -113.520786624040937 140 137 118
84.223884154166726 -6.598826691566212 -117.396059223167299 140 137 118
83.886000238760701 -6.202967513325787 -117.681927033272260 142 139 120
212.073141649230593 -7.387506020163667 -28.780233978139876 122 120 107
219.390003921309756 -4.211675071954547 -23.888010978392089 121 119 106
217.216482622115166 -3.948217753167963 -25.400672090767671 123 119 107
213.988190680938175 -4.028494134545774 -27.624644053942433 124 122 110
205.868795769622267 -5.678091792397016 -33.146378440186709 126 124 112
210.312429784862331 -3.354410430205947 -30.196607834811431 125 123 110
206.028720779569142 -3.822579248205134 -33.131126854594612 128 126 113
201.360864938773773 -4.440348620833156 -36.323766971038907 130 128 114
198.227529142119437 -4.580535017640758 -38.481690059465393 130 128 113
194.902085755821417 -4.802251222555654 -40.768588078065136 129 128 110
194.935015612166694 -3.919933162563189 -40.793423751496647 130 129 111
195.640222070057575 -2.810460951830175 -40.366200264078969 131 129 112
192.890701687046032 -2.871830796200639 -42.265115089469418 134 131 114
187.741209907176255 -3.772122937943905 -45.778728499382993 133 130 113
184.511099188512304 -4.037940245278976 -47.999920499683554 132 129 114
183.297039927497764 -3.618942827425985 -48.864597165535429 131 128 112
181.026880952070087 -3.578150790177220 -50.439594024167491 126 123 106
179.140817321875204 -3.414033221708080 -51.756174691354602 127 124 107
176.966633581434792 -3.363566256048131 -53.266326477406921 128 125 106
177.001832359544039 -2.529213203181646 -53.291753867319244 130 127 109
174.539610233774738 -2.601628587219243 -54.995420842148349 130 127 110
173.230300484455483 -2.265878885557684 -55.924531975244236 131 128 109
173.843133451396454 -1.228070210538680 -55.563238542532645 132 129 110
170.419960464311998 -1.687627037879067 -57.911793727018107 132 130 109
164.016547764710708 -3.283856869645378 -62.259537534727002 133 131 110
161.938096149291994 -3.283196924479594 -63.704115667644118 132 129 110
161.878744379682189 -2.525760966198173 -63.794377538245840 132 129 110
159.223476351848262 -2.764018259808587 -65.625702690987140 133 130 111
159.164765650659859 -2.013986117885232 -65.716195035323125 132 129 110
154.200832527094974 -3.173792746299094 -69.094189987549953 132 129 110
153.469002071924820 -2.702119809802752 -69.635811052148711 133 130 111
153.218579518128081 -2.044177698209259 -69.855358944226850 135 132 113
148.734359268554925 -3.072641020594486 -72.909904449080955 134 131 112
146.174279640741872 -3.355369164401325 -74.675450760391897 135 132 113
143.421430526295580 -3.730526717257840 -76.569543157557035 134 131 112
142.208704018828058 -3.494915817704979 -77.432969718579159 135 132 115
141.188722107757826 -3.187087822757326 -78.167630230845276 135 132 115
142.576655187249912 -1.891409638232543 -77.292925336197413 136 133 116
135.200162151511705 -4.228930249819228 -82.276109217354104 137 134 117
132.349751094587873 -4.715336609236545 -84.233242060720272 136 133 116
134.027637259480599 -3.310147570897908 -83.165800323722465 134 131 113
127.651605640654736 -4.626441857659161 -87.529524663812111 141 138 119
126.053460983729437 -4.628227128148684 -88.649560404882493 140 137 118
126.287327937241301 -3.845752927952467 -88.547778183996712 142 139 121
128.547059756672866 -2.178459928270385 -87.096234071951301 141 138 120
121.741300570441254 -4.475912421911285 -91.687714202143695 141 138 121
121.107963706346837 -4.086052042816196 -92.164753240432418 141 138 121
118.931101504449870 -4.385934225137774 -93.670017339924470 141 138 121
118.491184326480763 -3.920712867888318 -94.018645651633591 140 137 120
118.051686582805203 -3.457515719946845 -94.367453783067788 141 138 123
115.628909268505566 -3.242333629667096 -96.092951405778223 143 140 121
115.963072255342070 -2.434893580806117 -95.928548564550482 142 139 120
115.138722187504882 -2.160663659644658 -96.534735068356781 142 139 120
110.353042251534418 -3.733766391801482 -99.772033700269077 141 138 119
114.264027445244480 -1.263193571628334 -97.234111061532985 143 140 121
105.804147379023760 -4.597117872407226 -102.908197551248946 142 139 120
100.628609796992777 -6.423510144112317 -106.399817924815721 142 139 120
100.190082201140541 -6.020490135773597 -106.748470738114861 143 140 121
100.138890680990741 -5.433757788629658 -106.840879306063670 145 142 123
99.604553190223939 -5.080222651374995 -107.254046506327882 144 141 122
97.715809024917107 -5.387442707566875 -108.564493099755254 141 138 119
97.619712281949447 -1.797867417797758 -108.998905588698904 144 141 122
92.823991080671163 -3.619514529240782 -112.228842121552560 145 142 123
88.173434535109763 -4.814680612644411 -115.423814727136516 139 136 117
83.373703762712125 -6.707773919847348 -118.651097663325885 140 137 118
220.063959047377182 -5.200811187178727 -24.421964895485559 119 117 105
221.345527269994875 -3.866844550185663 -23.607628425093367 120 118 106
222.627804462491156 -2.525095300260804 -22.793711233805453 122 120 107
219.103070903221862 -2.682357673005758 -25.207650742279583 123 121 108
211.154532856147370 -4.258849748021663 -30.590157209376912 125 123 109
205.897712105132371 -5.021715843366268 -34.164698287640448 125 123 109
208.527375882897474 -3.274864300896086 -32.447511752806975 123 121 107
199.229944773556099 -5.387900592151881 -38.731213872266466 125 123 109
197.819789365735744 -4.968854745654466 -39.723797081989034 126 124 109
197.179517897393225 -4.303129084903984 -40.200358249302212 130 128 111
194.133928979247514 -4.443127368471806 -42.289402195059722 130 128 111
192.277026234388188 -3.338359610495887 -43.629615914778896 134 131 115
186.247264310410799 -4.539175942567664 -47.716747622887738 134 131 114
185.703972978887293 -3.881358291864167 -48.128763469194439 133 130 115
185.738727262981030 -3.025308580110588 -48.154201549302684 133 130 113
180.863036252997915 -3.891477091588404 -51.466574905926677 128 125 108
177.720139311748738 -4.172617533255705 -53.618473064758888 128 125 108
177.755411905077949 -3.338352967348663 -53.643934856778657 129 126 107
175.671956896802953 -3.265243077534844 -55.086865147379513 130 127 109
175.900660816889427 -2.366082023171855 -54.983814065408808 131 128 111
173.046618336978156 -2.591274705995210 -56.941898452060940 132 129 110
174.046987299494560 -1.413773949830502 -56.324003292355030 132 129 110
172.831422174961176 -1.052365235971322 -57.187366768800842 133 130 110
170.652134657496930 -1.058041334857957 -58.694499016652031 132 130 109
163.074096285383206 -3.110240894004900 -63.805919022492986 131 128 109
160.122574570421364 -3.449361684894494 -65.827055842899398 131 128 109
159.581546933720148 -2.883076235350322 -66.239212446121456 133 130 111
156.822638734552868 -3.174560305346503 -68.131267491117910 132 129 110
155.317439744174351 -2.994830159031738 -69.186777664923454 132 129 110
157.381862231412214 -1.426878747790090 -67.862493434787126 134 131 112
153.272194808324969 -2.280220217521514 -70.654590805493569 135 132 113
147.907302040572347 -3.655464596689781 -74.281985969002420 136 133 114
144.857733923707769 -4.135489229227050 -76.365626217707870 137 134 115
146.634381183281107 -2.688646993761742 -75.235001322242852 134 131 112
146.770821602994033 -1.896706700974671 -75.197566905704718 133 130 112
144.010971951959533 -2.287243401475479 -77.088151964869411 135 132 115
142.064261140767655 -1.634562351129768 -78.491607142821351 136 133 116
134.183629438418137 -4.199111038581842 -83.785570324482336 137 134 117
134.362195237120631 -2.719179779353909 -83.775370381493701 134 131 114
129.667710291938988 -4.016287873065153 -86.948278450949914 136 133 116
127.292399719158468 -4.345443452625503 -88.580021974092830 138 135 118
130.718463959835617 -2.182346103643740 -86.361244238710725 142 139 122
123.024511250340680 -4.834340501218280 -91.521896118207081 141 138 121
119.390962966879570 -5.753392713545264 -93.986796435024786 140 137 118
116.337129720368551 -6.437832605350332 -96.066292111373940 140 137 119
117.250109456489326 -5.380103324106834 -95.516216262266681 142 139 122
116.949208841884712 -4.203454864500128 -95.827813813014870 141 138 122
114.669485422050272 -4.579097485862129 -97.393948503086960 141 138 119
113.067345446870945 -4.659210591296566 -98.511266629845863 142 139 120
115.630164580598390 -2.839884156806397 -96.873706751821288 140 137 118
112.672466821870088 -3.550908072257960 -98.888060788370296 143 140 121
107.873060506728635 -5.133566135892446 -102.118694409710201 142 139 120
113.102067860037778 -1.413952671549521 -98.783000553172911 144 141 122
103.984567043505550 -4.457605964658153 -104.921483629820045 142 139 120
103.061457654222451 -4.278418791285582 -105.590304574937306 144 141 122
102.041547124267609 -4.150876416640673 -106.323143465226877 140 137 118
101.798211773375840 -3.652554380077344 -106.544438801263283 141 138 119
103.788065263239304 -2.066353829141570 -105.295527750867109 145 142 123
102.381208482602062 -2.134206725352449 -106.284677119171704 145 142 123
102.334004522052297 -1.538938250537981 -106.379081188615288 144 141 122
101.316048739073935 -1.425420227577935 -107.112710863460933 144 141 122
99.715296135559399 -1.608506540508542 -108.229632749114728 143 140 121
98.360543354268913 -1.068492935665825 -109.249965567370509 143 140 121
88.934383143671411 -4.669065840672160 -115.567631049316446 139 136 117
84.996987917065368 -6.111699406382965 -118.214359198900112 140 137 118
222.248056101001907 -3.846730370440247 -24.039602169593792 119 117 105
221.798951236801202 -3.041925814497283 -24.387330624158608 122 120 107
216.336438167055917 -3.806771144833277 -28.085166598776794 123 121 106
210.005417539367045 -4.876714466738555 -32.362100972058471 125 123 108
204.348623430599275 -5.768099198672896 -36.187408799760306 124 122 107
198.691103587156931 -6.691941251379398 -40.012035338973533 125 123 108
205.476120175008532 -3.615552483885151 -35.529508888107017 125 123 108
200.300795091510025 -4.410521221252802 -39.031847880824870 128 126 111
198.598115987347910 -4.089596860366058 -40.216055397922958 130 127 112
198.632384792648139 -3.200343137238618 -40.241603012209822 130 127 112
192.008475552966843 -4.544923776483630 -44.708170152340529 131 128 113
190.498752855215457 -4.196474484830738 -45.763252910965065 132 129 114
190.630088305335448 -3.296350511401893 -45.724489883443681 133 130 115
190.568874133989027 -2.461503725946138 -45.814657615970361 135 132 117
189.735760265607325 -1.894657557284379 -46.419663593669242 134 131 114
181.081610329875076 -4.069196114704911 -52.234463953435011 130 127 110
179.958420019346590 -3.636260579617347 -53.031896600848825 130 127 110
183.085136657748336 -1.697899524143857 -51.000175329810389 129 126 107
178.099084974043819 -2.650234419057072 -54.369724449460250 131 128 109
178.232518281545879 -1.780608293763710 -54.331651100047992 131 128 109
176.144215916215671 -1.719375589961894 -55.772140173806747 130 127 108
169.707352323709472 -3.266706193788880 -60.104384533328073 131 128 109
172.160808848087100 -1.560688072212036 -58.524198503388618 132 129 110
168.042562174936847 -2.291278996044480 -61.313455123305772 131 128 109
163.827034922747458 -3.081900130010641 -64.166414011471375 131 128 109
161.157851103713369 -3.310902723226276 -65.991177160682156 132 129 110
160.615858986042014 -2.743244707143412 -66.402886488030958 132 129 110
157.559655840757898 -3.145159682348028 -68.484156583825325 132 129 110
156.340948669407283 -2.852596388827591 -69.345308255347277 131 128 109
155.219162701492451 -2.528952346280095 -70.142287743217793 132 130 109
151.775391563359960 -3.124435609323657 -72.479589683760139 134 132 111
149.685936613451588 -3.203130625909734 -73.918087018687885 134 132 111
148.854624393757689 -2.791661435408371 -74.522355525652614 136 134 113
147.249179519730660 -2.695779166912591 -75.639904208927334 135 133 112
145.546962480845195 -2.648045213034293 -76.821520690371500 133 130 111
144.425760886708929 -2.373006113575617 -77.618279425558313 134 131 112
141.658310020054728 -2.779990155067361 -79.505058788482074 134 131 112
136.759460457699902 -4.083889633664347 -82.801847388290554 136 133 114
135.347292090480266 -3.964237328547646 -83.790385797012561 136 133 114
132.191031639272325 -4.583639828109145 -85.932408997196632 136 133 114
130.584898162239199 -4.566659557976646 -87.048816077247437 137 134 115
130.141962423984126 -4.064260955296445 -87.396383004126022 140 137 118
132.026237992971517 -2.568165720014775 -86.206895223914927 140 137 118
129.354314846333097 -3.023841574012757 -88.028014626445355 142 139 120
118.965152062238772 -6.183927229336441 -94.998105983874495 140 137 118
117.843431233838629 -6.018422228633679 -95.793488829665563 141 138 121
118.123977631875491 -4.581732386569833 -95.720772065288202 140 137 122
116.711985253674001 -4.557543426940304 -96.708412014381508 141 138 122
116.853585464629177 -3.840164929937134 -96.672678522266750 142 139 120
119.715109599780376 -1.886279066190060 -94.846826526089018 140 137 118
116.264570703239357 -2.800467891210189 -97.177610197753353 140 137 118
115.144987834339972 -2.662163041744871 -97.973735851220397 139 136 117
107.028847011842828 -5.768977682498615 -103.371168231033067 140 137 118
107.801260773151981 -4.152279802182213 -102.981317615828630 144 141 122
109.987598177918997 -2.490772866370087 -101.605461193441073 144 141 122
107.701533040578056 -2.938881290128158 -103.167816100687929 141 138 119
105.804229632385756 -3.214313832398537 -104.474495186506999 141 138 119
103.420194121663684 -3.734349084982099 -106.100099908881077 141 138 119
101.911668813584015 -3.844686568645471 -107.151032971867210 145 142 123
101.084554584290728 -3.632021132409711 -107.755263396136968 146 143 124
102.645260770151978 -1.637294785195454 -106.859549332349161 144 141 122
91.737260479890381 -5.834098211966934 -114.125053573032545 143 140 121
94.029042983425171 -4.098382149946410 -112.689546711355007 143 140 121
91.837928322793758 -4.608461232326249 -114.185828821155610 144 141 122
88.086065659147309 -5.922396485803655 -116.700922099446132 143 140 121
85.847349519359398 -5.914696333130940 -118.290620471479343 141 138 119
217.965319348874488 -4.484330811067087 -27.970572231436336 121 119 106
213.357940409721152 -4.991366817212632 -31.082425239577020 122 120 105
208.750076890072364 -5.524689481394018 -34.193775844293327 124 122 107
207.332952194044481 -5.070941782175444 -35.183382174028992 124 122 107
201.370414617137214 -6.081473450184145 -39.193773590067934 124 122 107
204.789391735186314 -4.093145951365936 -36.969806405648598 124 122 107
205.984678025100521 -2.810242586686247 -36.224526219407295 127 125 110
201.375924301329860 -3.429765655124641 -39.334563649458715 130 127 112
201.410984589214422 -2.534360716456382 -39.360553223852605 130 127 112
196.995186679877179 -3.128322517262168 -42.341445399259442 130 127 112
191.417498495027871 -4.139587206407707 -46.092504360268890 131 128 113
191.065732003265168 -3.403394666292546 -46.375234015692911 133 130 115
190.907986296687966 -2.602364433508449 -46.529732186803415 134 131 116
190.557077228942887 -1.868861771544105 -46.812844342671383 134 131 114
181.782649862792027 -4.077404418951653 -52.680613255741491 132 129 112
181.044182357582713 -3.507979130667539 -53.220065392414909 130 127 110
180.015481739351173 -3.045510980263036 -53.952146693864876 128 125 106
182.183538080767278 -1.445314397615277 -52.566913575167717 127 124 105
180.380742211043753 -1.264048119034283 -53.812646888913861 130 127 108
177.415325216396127 -1.515379363904964 -55.828039917046397 128 125 106
173.771326938407469 -2.032034537934429 -58.292083067163844 130 127 108
166.035628374791543 -2.507728939378858 -63.566024507201433 130 127 108
158.841157641636983 -3.673188351400648 -68.426634078873093 132 129 110
158.395162966139253 -3.077898504674619 -68.773693796899494 132 129 110
157.367582844133466 -2.709629091828356 -69.505341504976059 133 130 111
155.370104650204297 -2.724580457676007 -70.877637465192976 134 132 111
152.693370437854242 -3.017151087767706 -72.698134194384522 135 133 112
149.725233186293195 -3.439986370455367 -74.710460483716560 135 133 112
153.453767810441235 -1.214581214883146 -72.304448253797744 136 134 113
146.797120140443326 -3.130290344602035 -76.749474528620198 135 133 112
146.061372370653459 -2.693605077609366 -77.288861417673814 134 131 112
143.480943509522035 -3.010960057340597 -79.044316294099417 135 132 113
143.716760390104128 -2.189589561650156 -78.943867290749523 135 132 113
141.913331316777544 -2.207544620963537 -80.187246996751270 136 133 114
134.474902383472994 -4.575869206186040 -85.140483876035518 135 132 113
133.156284722172245 -4.427591057530124 -86.063212397071595 135 132 113
131.740591604210238 -4.327494990458375 -87.049863274937877 136 133 114
130.713797709895687 -4.070371939887300 -87.780743026304975 137 134 115
123.938858100077425 -4.931289453646295 -92.401754112414011 140 137 118
125.441434337631136 -3.605522731587842 -91.471344943130504 141 138 119
120.329065873655679 -5.171373209707920 -94.885008208895215 143 140 123
122.903180210502811 -3.373652722179859 -93.252629516460388 141 138 121
117.400215091963545 -5.149423918140202 -96.920707401813161 140 137 122
116.373916574892093 -4.954734401853639 -97.651181480222988 140 137 120
119.873275033212892 -2.066808530909256 -95.474928471429223 137 134 115
118.751301804415917 -1.916363264548601 -96.270035552324657 137 134 115
111.491224119861457 -4.588770795975671 -101.083747209309649 139 136 117
114.753701541226647 -2.443759475047326 -99.008241701565936 138 135 116
108.465702666932771 -4.717663658633053 -103.182505675317771 141 138 119
107.585477381582791 -3.870790192132061 -103.878715059194235 144 141 122
106.950961932528188 -3.542648330807840 -104.354554966769712 141 138 119
105.048512811716890 -3.821880263903217 -105.658733252271446 141 138 119
101.779670249797263 -4.766824357200158 -107.854405478348326 142 139 120
100.218514320631783 -4.298210238243061 -108.996978557216238 146 143 124
101.733243318462428 -2.949648447528836 -108.072617867885924 145 142 123
101.979582062786648 -2.214645219459798 -107.976313466411568 144 141 122
95.829334170241793 -4.040323506720545 -112.110231967061083 144 141 122
86.304036838191422 -7.062934728238729 -118.497278724789183 143 140 121
86.061832820014274 -6.614826871499482 -118.718598406740014 140 137 118
83.667406898935852 -7.269034727555408 -120.337851286404927 141 138 119
223.088736589850839 -4.100693228676361 -25.547755515772536 117 117 105
218.760440845839781 -4.492725358664377 -28.461728105761097 120 120 106
217.631049733167742 -3.914236861606018 -29.257692560441114 121 119 104
210.199538311698291 -5.320180171778877 -34.224145027598979 122 120 105
208.294202619957105 -5.017905208512903 -35.532928130070445 123 121 106
210.268152257802882 -3.486456827381041 -34.275845139793915 123 121 106
207.393468258624154 -3.506991838562395 -36.226161338607056 125 123 108
207.137690295262928 -2.691750880601233 -36.444766377152149 127 125 110
203.583910466940949 -2.960040465543955 -38.843667391203240 132 129 114
202.746493134184220 -2.349212431619242 -39.447067333729905 130 127 112
195.408006403991266 -3.913532317918102 -44.345533359752409 131 128 113
193.211782326935008 -3.787945793700272 -45.845914367668769 129 126 111
191.112593977550887 -3.641722082088498 -47.282070479109365 133 130 115
192.119657477722086 -2.443487407251045 -46.667591387911273 132 129 114
189.632511173924570 -2.445870640018199 -48.360055597518766 131 128 111
183.067285122112338 -3.882158344663101 -52.742893701762654 131 128 111
179.317014690113922 -4.367593218538921 -55.267276868825917 130 127 110
179.645313922888732 -3.430797710848786 -55.101400348474698 127 124 105
179.100025980120790 -2.803535487674970 -55.512146500440622 127 124 105
181.372325341902297 -1.165812475295358 -54.066310278843446 131 128 109
175.814542384160944 -1.541616909231761 -57.833432943906615 130 127 108
169.439478736106025 -3.077273806339928 -62.084503463428064 132 129 110
164.365362634099228 -3.386806594371048 -65.529398437144351 128 125 106
162.362768559712663 -3.361582270835919 -66.899660526239529 130 127 108
162.985626394707509 -2.350619299781282 -66.542886619725493 132 129 110
160.983332947276693 -2.340167576025309 -67.913140465935157 131 128 109
156.938332557427316 -3.128340989814730 -70.625986246299590 132 129 110
156.103041602913322 -2.692983738157341 -71.228597231978199 135 133 112
155.949145554581094 -1.995548077994624 -71.383870715420130 136 134 113
149.803096931199093 -2.920103684441880 -75.529073840482027 136 134 113
148.579019722033195 -2.669128705946637 -76.387228414901386 134 132 111
143.363284111997643 -4.032520156618181 -79.864384089700593 134 131 112
145.547111694412024 -2.424172956668973 -78.486779777036077 134 131 112
143.544294676719460 -2.513211564244196 -79.855759045067117 137 134 115
142.515487607659793 -2.212768472801607 -80.586121615479556 135 132 113
136.907815700505296 -3.814896789936645 -84.316754410366485 136 133 114
139.679013029473936 -1.953615259549429 -82.557596041722178 136 133 114
128.904570154855719 -5.766037404226343 -89.669232552045116 136 133 114
135.088282065462323 -2.467842581361376 -85.677339360281508 139 136 117
126.596002394661227 -4.706538894272601 -91.347199722097230 140 137 118
128.147635652170550 -2.677725138190199 -90.447496079308763 141 138 119
124.875614352184058 -3.426695988397651 -92.643664859029855 143 140 123
121.700524303146352 -4.151591471390746 -94.775594151881023 140 137 120
122.429171474904123 -3.164259216552030 -94.358327373705322 140 137 122
120.229860928107314 -3.478600687808334 -95.852703425219062 140 137 120
108.895926660760907 -7.278905318873440 -103.361959212214543 138 135 116
108.941193458629357 -6.629645225427858 -103.390297853455337 137 134 115
114.654292212167888 -3.385168021999974 -99.727006422637373 137 134 115
105.710780014507975 -6.859089554595823 -105.611719436271301 135 132 113
104.580828835760002 -5.526666625454077 -106.526035468034337 142 139 120
105.607188152277075 -4.423399018461545 -105.919809885498893 139 136 117
97.046258263979311 -7.870294129654170 -111.544391621399768 141 138 119
100.128863340264772 -4.585072827921760 -109.727149209206857 142 139 120
103.998818932890586 -2.092904194690957 -107.280679331422846 144 141 122
102.973440905672902 -1.975877442928628 -108.010794347173913 144 141 122
103.613970514784114 -1.043370732294172 -107.661666967121818 146 143 124
98.231904419620690 -2.488696333180285 -111.280125088441622 142 139 120
90.198837943180877 -5.333126502622385 -116.609141920906495 142 139 120
90.153670583531621 -4.774434494118692 -116.704143793297760 141 138 119
91.384986241677893 -3.563885805952646 -115.975355150287186 143 140 121
222.958869766052146 -3.454651390651823 -26.711725439720965 119 120 106
221.243918710108971 -3.047168770260804 -27.890953084799946 122 120 105
210.618930397888334 -4.534139294318942 -34.987166302303621 122 120 105
211.042993783105430 -3.493842170389314 -34.757309533438956 123 121 106
206.896537700434806 -3.921007479554457 -37.536194180814988 123 121 106
205.667704799712567 -3.424802502162748 -38.394597924266577 125 123 108
204.147252405614552 -3.030828057324285 -39.445016246208780 131 128 113
199.610923389364132 -3.641120937095766 -42.478937534135071 129 126 111
195.949756959105486 -3.985567214720075 -44.936540131734972 128 125 110
192.288222125977825 -4.350776966782195 -47.393752757792186 129 126 111
193.200644355133420 -3.187184698544934 -46.844499900169779 132 129 114
192.653728694853243 -2.516658825612581 -47.254912692137992 130 127 112
192.788650084975416 -1.614134551317934 -47.217889873524740 130 127 110
187.763897335106634 -2.502627609581957 -50.569581691873765 131 128 111
176.738204730763357 -4.709565116319547 -57.910123907374185 126 123 104
180.184870753115376 -2.671307282760901 -55.699916957882067 127 124 105
180.223491663781260 -1.835705789398707 -55.726994335104536 130 127 108
179.678096489208599 -1.210794433515869 -56.137664989084669 129 126 107
172.409673049797931 -3.039057516221733 -60.956073268425712 128 125 106
168.063400954151632 -3.835243257808093 -63.857285877256231 130 127 108
168.882263812361629 -2.743933198807053 -63.373389385097539 129 126 107
165.022747897775929 -3.392952333377761 -65.954684917700689 127 124 105
166.329980625039695 -2.121500264252596 -65.151982764508944 131 128 109
164.615306545350734 -1.986926043797432 -66.328533730820538 130 127 108
162.120472066191098 -2.159637590021987 -68.015566668791706 130 127 108
158.454954751969666 -2.796512898107032 -70.468077699503141 132 129 110
158.732744093432245 -1.163012847489437 -70.396067835056698 136 134 113
153.547285454615576 -1.688557040511698 -73.896332291827491 132 130 109
143.814090266414553 -3.377301160275922 -80.419369361783964 136 133 114
143.173136733017145 -2.915961015175549 -80.893500388725727 136 133 114
135.792344590609332 -5.223951739282050 -85.764072673033724 135 132 113
142.283133964467538 -1.841391190395712 -81.587376051154479 136 133 114
139.688985211836382 -2.201817737701476 -83.335824021232099 134 131 112
138.951495799387033 -1.798845625020641 -83.874030687973914 132 129 110
131.273817447553881 -4.327996599397417 -88.932873768537604 136 133 114
129.558006138668986 -4.368458429112138 -90.107078954304995 138 135 116
129.504589808745209 -3.707477403187898 -90.199187459833979 140 137 118
126.562519442569254 -3.614373741397166 -92.229294876525358 140 137 119
122.641963270993898 -3.983650564378663 -94.895127372477305 140 137 120
118.087472583407035 -5.331804559449223 -97.912765003959862 140 137 122
124.888825427694883 -1.651992551186013 -93.555123985647953 140 137 120
116.463941731600514 -4.104135494217262 -99.144170352438550 138 135 116
110.731314943810531 -6.056076498474121 -102.922283247940129 137 134 115
102.788906076009312 -8.439698044712809 -108.188554819357904 136 133 114
101.560909378676470 -8.396888915500368 -109.042691568412920 140 137 118
98.415873268187667 -7.455427128487237 -111.317010099856219 141 138 119
102.390309494523024 -4.959447897624984 -108.809703738584432 140 137 118
102.440602014942158 -4.323280069050851 -108.840311903007432 140 137 118
102.491600601181275 -3.686040997467934 -108.871268873740917 143 140 121
103.820121329549579 -2.427430260955863 -108.078618645020896 142 139 120
102.550668765632736 -1.816015946795540 -109.029634873332725 146 143 124
101.381115994986345 -1.167897887972582 -109.917961745479090 144 141 122
97.262225089196548 -2.016257309662823 -112.705697916399401 145 142 123
93.480316452709573 -3.329997220252007 -115.206419315034424 143 140 121
93.633965227341520 -2.661201097483535 -115.175949731699973 144 141 122
222.395406067951228 -6.687882854728101 -27.960909451132295 110 111 98
221.754003828572024 -3.144503411589199 -28.577409682369193 121 119 106
219.547469961066895 -2.899461989965742 -30.074088131141764 121 119 105
215.878414133510603 -3.127661551053148 -32.529113053967762 122 120 105
209.026980462134304 -3.489764405425943 -37.118664193099221 124 123 107
205.942228759129705 -3.589306702662069 -39.189389230609663 128 125 110
198.308710541345135 -4.322513278347962 -44.287844925834605 127 124 109
196.393981460079971 -4.089430487924576 -45.591422033161422 130 127 112
194.674465836616321 -3.801590695982209 -46.767234461047991 130 127 112
193.540610948468355 -3.325389816577754 -47.560010563007495 128 125 110
193.383061580896424 -2.522708973414095 -47.714619652586919 130 127 111
190.628636301105246 -1.764386506895777 -49.619625496904632 130 127 110
182.465400587787428 -3.766997879150883 -55.005893961323238 124 121 104
179.574044669354862 -3.959355888549166 -56.946465710674801 126 123 104
177.756822186302429 -3.786610942837943 -58.185209667694664 127 124 105
176.037324505377228 -3.588991709040087 -59.360101993702273 130 127 108
175.587956347989405 -2.942759243892696 -59.706072227518490 128 125 106
174.259606705732665 -2.618384529544715 -60.625957652637624 125 122 103
170.195133268929510 -3.303893112245168 -63.330544374768209 129 126 107
166.716477004477440 -3.796004570957966 -65.652221448367044 130 127 108
168.027264779744996 -2.525378325398512 -64.851211517337788 127 124 105
166.503731609613823 -2.309826562993376 -65.898319412283541 131 128 109
166.935951152649835 -1.363699843934233 -65.671395178078029 129 126 107
157.784741709315142 -4.063363369149522 -71.686434137772437 130 127 108
159.586263054257472 -2.613873794930876 -70.567736169874422 133 130 111
158.649738612886381 -2.211858359075475 -71.232433083300833 135 133 112
155.658786128456370 -2.614695472533505 -73.234050494634431 136 134 113
154.037476314523957 -2.497223973148551 -74.344231673838010 133 131 110
153.297092790437034 -2.040731238873832 -74.881604722137070 130 128 107
144.865922300204431 -3.925051841132535 -80.473488388764309 135 132 113
146.671413519342394 -2.472645320697309 -79.356719620666667 137 134 115
141.132542538009432 -3.995135735809321 -83.010227410648497 134 131 112
138.629035685372031 -4.306471923778155 -84.691684581797745 131 128 109
138.574621718660183 -3.622194266721140 -84.783555625234442 135 132 113
143.028463543044865 -1.066341699404452 -81.951917140532089 136 133 114
140.329737246196714 -1.474397353560692 -83.760704186514943 134 131 112
138.610926802860433 -1.485190823811992 -84.933779987969103 136 133 114
126.106891470881408 -6.076016481668220 -93.094573940487919 137 134 115
127.818297917439423 -4.673446776453699 -92.043141229229121 141 138 119
122.370776526756373 -6.335687270486915 -95.628052947570467 141 138 119
120.884967298275342 -4.339564994296184 -96.822395038595602 140 137 120
117.099001707250892 -4.062655835702174 -99.448407838948981 138 135 116
107.565852605679751 -7.105704670527521 -105.720629077510779 134 131 112
106.728657938624778 -6.866635502150650 -106.320308841787238 136 133 114
101.220089653326767 -8.181943038120671 -109.990445975137959 143 140 121
103.530744850207341 -5.270829422422207 -108.686925587676399 143 140 121
103.384387171343249 -4.726851262418026 -108.844225786092949 141 138 119
101.761903679643837 -4.890074289314371 -109.950956152107921 141 138 119
100.828627221239515 -4.730309854297461 -110.614713278204391 142 139 120
97.833081025266395 -4.377010393243714 -112.732775252214083 146 143 124
102.617955111623502 -1.416434238944226 -109.731090835390830 146 143 124
98.544200577111056 -1.618308124031017 -112.547074692010398 145 142 125
92.877286261630175 -3.877125686596510 -116.242606489524405 143 140 123
88.293761221465630 -5.618285191840887 -119.242308783109976 143 140 123
221.732611321833303 -7.130962330889059 -29.413012035555198 113 113 101
221.508479885358895 -5.336442432652119 -29.656836874167482 118 119 105
217.634214771919915 -5.590594473584881 -32.235141005954205 121 119 106
221.286223470954496 -3.543024615484598 -29.901547372636884 122 120 107
219.465029873320361 -3.179688647347018 -31.140353411191313 123 121 107
214.845142440962860 -2.793369604453398 -34.255418151361511 123 121 106
203.061668794056970 -3.010833818007356 -42.140790240952100 125 123 108
200.653459568915650 -2.928203799146242 -43.761033877600596 126 124 109
198.049482616306420 -2.924429892985420 -45.508528968723084 126 124 109
195.151795474455923 -3.034194575702724 -47.446922057096060 126 124 109
194.896550487559921 -2.261959574682515 -47.665339387836042 131 128 111
194.543887123315358 -1.524307017984332 -47.947655011223077 132 129 112
184.440168620079021 -3.329016105116220 -54.624817966410802 123 120 103
180.660158444939185 -3.827283227731813 -57.134841653511927 126 123 106
180.405521488962393 -3.098343176602457 -57.353104207490759 125 122 107
175.841381336231052 -3.908975464059664 -60.371658548887950 126 123 106
177.252545708765467 -2.595257651946588 -59.508253116150399 125 122 105
176.019155442166749 -2.232330188124241 -60.363104738987971 128 125 108
175.863922037580778 -1.482055477537503 -60.518282334672278 128 125 106
172.474876109408001 -1.923619561360509 -62.772490110590695 127 124 105
167.713054765812331 -2.893817750334516 -65.916549725730420 126 123 104
166.969984398649331 -2.387568208341296 -66.453149569329156 131 128 109
164.364228122916387 -2.587358496560648 -68.197698049853642 130 127 108
160.679480947853278 -3.211501994118617 -70.641140635974551 129 126 107
158.409450386585576 -2.556192998094445 -72.222524459264065 132 129 110
150.504761794071953 -4.866816221824216 -77.396733804569493 133 130 111
150.448635175804498 -4.151878447765481 -77.488101121359108 134 131 112
149.706029535384971 -3.707469446488948 -78.024286732887305 132 129 110
148.221825675057090 -2.830035928325750 -79.097022716246300 136 133 114
148.756808471024726 -1.882972323812264 -78.808410828912429 137 134 115
139.407370653863410 -2.818694264133412 -85.079351805661076 137 134 115
137.290567841757024 -2.993314865668061 -86.503778606819168 135 132 113
130.840755096296959 -3.630324375109375 -90.839198528283788 137 134 115
127.487117481010642 -2.354477487248690 -93.238882578522748 141 138 119
117.691357416396954 -5.988051518968121 -99.601110829854946 140 137 118
123.103919239650409 -2.277039560603259 -96.242281378024416 140 137 118
110.198153314178271 -6.773903277682605 -104.655291528774114 135 132 113
110.594595029338763 -2.809216178856923 -104.774899517493907 143 140 121
104.528350356100390 -5.039152395844184 -108.723125870527355 144 141 122
103.888758079390129 -4.727564180626175 -109.196366646158992 141 138 119
104.335589948666424 -3.900314158914742 -108.975209241175605 139 136 117
100.240570386165061 -5.252704574803596 -111.658318251753855 141 138 119
93.481817385929844 -6.746217321573536 -116.169702450961978 146 143 124
93.534652563029582 -6.134465708426541 -116.201275685254416 146 143 124
92.950178422434490 -5.252389803947179 -116.706757104648432 144 141 122
97.655170895702668 -2.309599569503362 -113.777533403447165 144 141 122
91.972125599662718 -4.573582258064916 -117.465295027917534 143 140 121
221.720873611804336 -5.520412439135498 -30.532563803622168 119 120 106
215.948085740118870 -4.525653435246674 -34.432654522648107 122 120 105
213.631827333883990 -4.338301952839704 -35.987106181591770 122 120 105
204.844316226556714 -6.211487586047838 -41.741208991025900 123 121 106
208.742445175591854 -3.190164555607541 -39.313664002412793 126 124 109
203.189571576234528 -4.100080781402287 -42.966778521790218 124 122 107
205.974017221566839 -2.308680908011267 -41.213238775281866 125 123 108
202.186451591501253 -2.673814466598539 -43.721018369299543 126 124 109
200.262760704973857 -2.438718719846919 -45.020328900078084 126 124 109
196.670868101385366 -2.775187024777528 -47.400295095266472 126 124 109
193.961902004372206 -2.832376353756438 -49.207795099294657 130 127 110
195.669884017944071 -1.394459855715913 -48.155087993328607 131 128 111
187.895865498993857 -2.378217365014601 -53.294608664365427 125 122 105
181.356779392821238 -3.832118863222257 -57.578911836457024 126 123 106
179.039521891810125 -3.831464755532663 -59.130963762017700 125 122 106
177.115066800580962 -3.703819009477858 -60.428802663050988 125 122 105
171.948741750788429 -4.750466862786569 -63.821997696550710 128 125 108
170.752130812538695 -3.599784577190801 -64.702553180115956 128 125 108
168.967275682453874 -2.679399113755080 -65.964477407280896 128 125 106
167.239651626460272 -2.538042316474350 -67.134902965787660 129 126 107
164.332154309981092 -2.849859453743205 -69.066523072827607 128 125 106
162.604432696641993 -2.730969539993755 -70.236670697316100 128 125 106
160.680031550038734 -2.696689423716660 -71.533574345943322 131 128 109
153.190725629875033 -4.070450987429866 -76.472709385911884 135 132 113
152.840101854085361 -3.464354445832400 -76.754646569273120 135 132 113
147.415215252835026 -4.127604384183421 -80.360669804932911 132 129 110
148.935865971141084 -2.793727023289611 -79.438990892167169 135 132 113
150.162227183863763 -1.569039000885443 -78.707977602718614 138 135 116
148.434924884737427 -1.531872889488454 -79.877484601537134 137 134 115
140.251081527829001 -3.426369866457927 -85.255007315681723 136 133 114
137.340370649900535 -3.920246543441818 -87.183216035638281 136 133 114
132.852195074714075 -5.086654648013059 -90.123590506415752 134 131 112
130.926047896331227 -5.205317025941743 -91.418084545499966 134 131 112
132.253578041848385 -3.962523880738083 -90.624797606925938 139 136 117
134.469818687777831 -2.334417338384029 -89.262902985581974 137 134 115
127.020982367697471 -4.824670225681290 -94.099047052520973 140 137 118
117.194987825566827 -7.090028261087715 -100.571753852947410 142 139 120
120.005904719477115 -5.210461770281365 -98.831785404307084 143 140 121
114.919436722497437 -6.803700590772369 -102.146698557815995 143 140 123
123.855533785079871 -2.189763698647543 -96.491890689609107 143 140 123
116.497014555936687 -4.817406054654149 -101.258969039530911 140 137 120
117.336700843100701 -3.793920981862649 -100.784336247751668 141 138 121
117.090336469598839 -3.257569693379481 -101.004573963948360 139 136 119
114.523010390549175 -3.140438637628898 -102.770769549439507 138 135 116
106.863472604943610 -4.798971834531951 -107.847252720850179 143 140 121
100.680506541930313 -7.089147636076634 -111.849878769717549 143 140 121
93.954489877733167 -7.919514614958364 -116.383750012400213 142 139 120
96.682091473602469 -6.010965746007625 -114.715081025856307 143 140 121
99.907410931905090 -3.843135277447503 -112.732893049820632 145 142 123
95.555938719193279 -4.785680131923225 -115.630111392598053 144 141 122
215.455956449175289 -4.927042722079200 -35.745114244055344 123 121 106
208.513323620306522 -6.188592775961981 -40.281777556978881 121 119 104
207.173691727730869 -5.720540839919364 -41.197744534037952 123 121 106
208.489146438660384 -4.414266008213420 -40.399334197837987 124 123 105
207.543596021076951 -3.826760618901290 -41.061622456455922 125 123 108
204.827993383896825 -3.818046485827502 -42.866625939858324 122 120 105
207.423967183701734 -2.087880925684843 -41.244009362770299 124 122 107
203.921733506319811 -2.353748529621706 -43.556735924492472 128 126 111
196.188398974525683 -4.046364469329866 -48.597564154687262 127 125 110
195.243394131127445 -3.505542038322850 -49.259632882983993 124 122 107
196.857482964313704 -2.104212903342321 -48.272489874172919 129 126 109
194.732271561178862 -1.968855131292297 -49.696084797324232 131 128 111
191.819516457828229 -2.116091042405696 -51.626883714386338 130 127 110
191.072537992832622 -1.528601607533924 -52.162450180406580 127 124 107
185.205557375645810 -2.734824587922985 -55.994823599607770 127 124 107
180.814738718908586 -3.453810080326477 -58.875519947252172 126 123 106
179.279629397693100 -3.182968952186133 -59.917658972415467 125 122 105
181.685055707279332 -1.509592197320382 -58.425018343288968 126 123 106
177.039970733177682 -1.560488223859731 -61.523528191511048 127 124 107
168.648813132757681 -3.046746238120078 -67.027792460739249 132 129 110
166.916786016717850 -2.908104271609888 -68.196083665295390 127 124 105
165.382000427837852 -2.705015706178935 -69.237680151734423 127 124 105
166.214079735081782 -1.615831760776638 -68.760084478336040 126 123 104
165.468921942037042 -1.122175698173359 -69.295556073538251 129 126 107
162.159299881227184 -1.616213054043303 -71.476360936690924 130 127 108
156.570112642820192 -1.507570824298818 -75.233446554402889 134 131 112
145.702346289506067 -4.327891914572795 -82.310649626945548 134 131 112
147.820752663390635 -2.757768002622993 -81.012213465780832 137 134 115
148.557804846002284 -1.732680715000284 -80.599356247506648 137 134 115
145.146827690882901 -2.388857862870073 -82.840863079547148 136 133 114
141.340018462409631 -3.226164630812067 -85.334576286004761 137 134 115
136.148933974702771 -4.655364716122258 -88.711988686972774 136 133 114
134.514723092797198 -4.637837592563407 -89.814969261810916 134 131 112
132.880510364664104 -4.629303961087043 -90.917856378888217 133 130 111
129.117576678514865 -4.848675899986811 -93.438920208020022 137 134 115
126.098399481315269 -5.459135589978591 -95.424897850030021 139 136 117
113.527121353072218 -9.554175265937452 -103.558626453478325 140 137 118
114.958770256912118 -8.297941738241136 -102.704429035685081 143 140 121
122.875764947821210 -3.532147462845195 -97.783096964518052 144 141 124
117.676499426576839 -5.177413859164225 -101.154371508002384 144 141 124
116.340324102825690 -3.839994505862656 -102.191799816217895 142 139 122
110.743874782626904 -4.485672967179298 -105.937646677081773 141 138 119
103.605265917180091 -6.558227360290100 -110.593925420619712 141 138 119
104.649443423387993 -5.458307632810762 -109.996189537551032 140 137 118
101.723915857251512 -6.227580348663668 -111.914475214881094 140 137 118
104.412352292470629 -3.731300422189464 -110.343978445675276 140 137 118
95.724429467069044 -7.298129443055348 -115.906572655779144 142 139 120
98.428395852282236 -3.607082124262399 -114.466662587307553 142 139 120
95.003484057123117 -4.706197610277438 -116.696943748489389 145 142 123
87.751997151575196 -7.164283867032182 -121.406112436329849 145 142 123
212.925599341154566 -5.055465748378865 -38.413339126409198 123 121 106
210.400189806656613 -4.949331301495894 -40.088615364596251 122 120 105
210.832656358671585 -3.917522601913976 -39.862691266308019 123 122 104
202.626239051171694 -4.778761654723128 -45.240050522744241 122 120 105
205.919922676845061 -2.831332708690034 -43.177440141533964 123 121 106
202.802902811567833 -2.973891510206363 -45.232285410331002 125 123 108
204.125335633538327 -1.660890398180495 -44.437282615516438 127 125 110
201.008386828870641 -1.825547022090610 -46.491934415478596 126 124 109
192.167393248191274 -3.938890691236784 -52.217979325674719 128 125 108
192.207519477589415 -3.080200630405179 -52.246014504442570 129 126 109
191.261086678267617 -2.559463930754345 -52.907193350997119 129 126 109
188.932789638290501 -2.521762687072177 -54.454345343738424 129 126 109
185.164728576235689 -2.172645772923044 -56.978807995160906 123 120 101
182.539989517709785 -2.276116863812240 -58.715266639349466 123 120 103
182.680975340769578 -1.406260542074738 -58.680808757019747 125 122 105
177.289945434761279 -2.526936512255475 -62.187461518775081 127 124 107
175.751554201720978 -2.279909225671457 -63.227785360736647 127 124 109
174.806242548011483 -1.824418942278023 -63.888828945369568 127 124 106
174.651966386929985 -1.082477048823732 -64.044378709192529 131 128 109
165.403344093066551 -3.718229461966193 -70.013473564280019 128 125 106
170.390135170586802 -1.079521204659375 -66.883354626118432 126 123 104
165.534562005628516 -1.349172472461481 -70.100633657577276 129 126 107
162.908653268037142 -1.580000475602903 -71.835221782633880 130 127 108
156.819652456119627 -3.160525646553732 -75.779246391057654 130 127 108
150.323508939197666 -3.469406331725359 -80.095879425089549 134 131 112
147.398790483117239 -3.897705001373045 -82.018061995045258 134 131 112
151.504357892753433 -1.532025358398549 -79.461288218349040 135 132 113
147.688665460616221 -2.331622068386261 -81.951139899193322 136 133 114
140.801336543874299 -4.397946734995944 -86.395117579819072 135 132 113
144.164710400249021 -1.601274354380205 -84.374588455393649 137 134 115
138.959714841626720 -3.039009615291462 -87.745257990868708 137 134 115
133.059399027174209 -4.795920348893289 -91.556015460275887 130 127 108
117.675857057473024 -8.637619159818801 -101.561882109089311 138 135 116
114.693094868401275 -8.644595015733126 -103.571492528435869 142 139 120
102.413790856149504 -8.555028474993756 -111.887974802125029 140 137 118
104.008390569326977 -6.604101332268016 -111.008024438413372 141 138 119
103.762227628357266 -6.109955448653341 -111.227924077808467 140 137 118
100.928160518007246 -6.836670518858775 -113.079543305991848 140 137 118
100.483340537051333 -6.446185348838183 -113.425056836438131 139 136 117
103.580527779646317 -3.757723752552332 -111.608647735189720 143 140 121
98.565731490195503 -4.375797709967784 -114.967886249726774 143 140 121
99.520364155739117 -3.309086411727675 -114.437829475694201 141 138 119
94.889152124831639 -4.998823305454714 -117.415247795138498 144 141 122
92.751054046422155 -5.474772762888326 -118.826385284602864 145 143 122
91.610769654721636 -5.463396562292852 -119.611300860174424 145 143 122
213.246018796892685 -4.301260940465545 -39.239543414219014 122 120 106
204.800370431694716 -3.445823448968675 -44.852702621484099 123 121 107
204.049118174902588 -2.814687798125041 -45.386673792585214 124 122 107
203.199296110067024 -2.220142906824100 -45.983971743238328 126 124 109
199.579382113185943 -2.554699999351976 -48.350552272994207 128 125 109
196.354895257092437 -2.776273755626102 -50.464031246048194 129 126 109
189.963041348376407 -4.090755396988110 -54.598487145517367 130 127 110
189.014130753023153 -3.578283995389370 -55.258395544078610 129 126 109
189.253497218259810 -2.660885808373258 -55.160633111127510 130 127 110
189.493502074517494 -1.741639020970077 -55.063195110825149 126 123 106
183.000365459734383 -3.181917031985397 -59.258761710572855 123 120 101
