ply
format ascii 1.0
element vertex 682
property double x
property double y
property double z
property uchar red
property uchar green
property uchar blue
end_header
57.980466099212904 -1.940823152476875 -69.746978631203319 143 140 123
57.415059456757206 -1.666163739858881 -70.366188318179184 143 140 123
56.490085332854974 -1.622519470854826 -71.365298624202296 145 142 125
56.140757717417614 -1.220171533680728 -71.756617484413908 147 144 127
54.928200092886428 -1.371653868930887 -73.059575833010996 146 143 124
54.291326067624979 -1.162206581483467 -73.754783392778620 144 141 122
52.431275438390330 -1.748036894358563 -75.741242309698777 144 141 122
51.146895154251411 -1.973493309147239 -77.119938376685383 144 141 122
50.798146718464267 -1.596549791475961 -77.511272814004286 144 141 122
50.161668400331465 -1.411290884354604 -78.206420695556034 141 138 119
49.741254558652159 -1.087655362125340 -78.673780807288352 138 135 116
47.881305529088053 -1.724990412161262 -80.659758165009237 141 138 119
45.589358061860096 -2.665429891752721 -83.101102254281301 142 139 120
44.593204242345337 -2.750836781825785 -84.175690934417389 146 143 124
44.461134501172353 -2.258594805415798 -84.339293886722629 145 142 123
44.761312391921592 -1.472777564035763 -84.047551232677705 143 140 121
43.405469185798935 -1.818183270007526 -85.501683869350728 144 139 120
42.121652245299984 -2.124090308979031 -86.879821319314090 146 139 121
40.909876818997105 -2.389660016534290 -88.181979510226768 144 137 119
40.850628347253107 -1.861842809212395 -88.269927217019216 141 134 116
38.414363992701624 -2.998139808589988 -90.861932312071986 136 133 114
38.499446189044718 -2.378125423600090 -90.798158577777883 135 132 113
199.259473697873375 -1.168742913065881 79.830236546950687 184 181 172
194.149713428821059 -1.765004807057399 74.409885138730488 185 182 175
188.895861469850900 -2.449645542789550 68.837658659036720 181 178 169
184.218109586791343 -2.972269003795479 63.875031231897623 171 168 159
181.412849025932957 -2.867841808883261 60.892486835108429 172 169 160
179.831955542242213 -2.346900780673801 59.204523082904700 173 170 161
177.386826583319419 -2.150065546287246 56.603036184407500 173 170 161
174.077430380475903 -2.287098635050240 53.088141828267425 173 171 159
169.903733696705729 -2.767763098804172 48.659956410951168 171 169 157
166.954434320580816 -2.823759362556849 45.526253239070599 170 168 156
163.933109565866573 -2.929066311712566 42.316655456160817 167 165 153
161.776111129662752 -2.728652722687862 40.020726609103633 167 165 153
159.907249992659843 -2.433896758517527 38.029418291981841 166 164 152
157.102040476515754 -2.516095663060276 35.048770511770840 162 162 152
154.296837177196636 -2.619404346078284 32.068337051006580 161 158 149
152.211955737864230 -2.459240176026586 29.849180872252049 159 156 147
150.559299373906242 -2.142374767946736 28.086790003941871 158 155 146
148.042280084089725 -2.185932504622640 25.411310794018590 161 157 148
145.669346796792013 -2.189870445340478 22.888211277753641 160 157 148
143.296434240862567 -2.211643869724731 20.365285433266337 144 141 132
140.995579987507597 -2.221434231996018 17.918622681065017 156 154 142
139.126981867380010 -2.067989926050898 15.928643129458521 155 153 141
137.402502973083017 -1.867852892226761 14.090954572350512 152 150 138
136.254400580265212 -1.435610475886110 12.862011374649967 149 147 134
134.602065746001358 -1.228262834223794 11.100594009022984 147 147 135
132.445470203257884 -1.251510150975483 8.806774673176136 148 149 135
129.928675581608900 -1.448164334727549 6.132763881410426 146 147 133
127.772131158876689 -1.505132254013882 3.839267193027098 148 149 134
125.399469334058466 -1.674242009101969 1.317738006502992 145 146 130
123.891429312311956 -1.474034367962927 -0.290918237377923 146 145 129
121.807030953275657 -1.545360955529653 -2.507922669431082 149 146 131
119.938823675928958 -1.533900272122555 -4.496627690131021 147 144 129
117.854491199775438 -1.635657419362140 -6.713350403291770 145 142 127
115.914302087176850 -1.686338031127727 -8.777838794092446 143 140 125
113.397680214116491 -2.020506575786630 -11.450516723792731 148 145 130
112.034031326784032 -1.831282451869637 -12.906418362744603 148 145 130
111.030757537985338 -1.481406882116402 -13.982081455006579 149 146 131
109.811374579115721 -1.242283970146225 -15.285795283084326 146 143 128
107.006611268691074 -1.775824222196368 -18.262010643357712 143 139 125
104.418038233047852 -2.225472846798484 -21.009937573951674 145 141 128
103.198791772373255 -2.024723882340485 -22.313321699978928 144 141 127
102.195833845029227 -1.726460416877147 -23.388604629960923 143 140 125
101.192961228432651 -1.435620963619554 -24.463851953225003 144 141 126
99.397334204985057 -1.548982600547748 -26.375135374836901 143 140 125
97.745902407172338 -1.603071066855829 -28.134293656813242 144 141 126
95.589950289559710 -1.925796544982128 -30.425338125877232 142 139 124
94.010676798014330 -1.969546113196567 -32.108264232785302 141 140 122
91.998938414368453 -2.248041326109886 -34.247037572353946 145 144 126
90.491835357522731 -2.279534952469926 -35.853757039488698 145 144 126
89.128965418990504 -2.246833346432214 -37.308420159969842 144 143 125
88.054529466676385 -2.072331634267563 -38.459093190833585 139 138 120
86.619696831108882 -2.097042248884679 -39.989597515812420 143 141 122
85.545411741137443 -1.939778575998746 -41.140165278905783 145 142 123
84.038601914885021 -2.023256612627045 -42.746489924901624 144 141 122
82.531840810493946 -2.117944627417736 -44.352722489332280 144 141 122
80.520379779624648 -2.499285544163832 -46.490569871023752 145 142 123
79.302131417492276 -2.459813079470572 -47.792771383941954 147 144 125
78.588741001086944 -2.150075940204234 -48.563264983209109 145 142 123
77.803346082037166 -1.885684673281333 -49.409703992298631 145 142 123
76.368987004817669 -1.991018869689018 -50.939604966938703 145 142 123
74.429822427610986 -2.392041049748305 -53.000977250200123 143 140 121
73.211913707569167 -2.397614627692664 -54.302877565184133 144 141 122
71.994071178793789 -2.412190017056593 -55.604716885676169 141 138 121
71.281218860016594 -2.144961706676353 -56.375030344273853 142 139 122
70.568480013801988 -1.882882892771608 -57.145345081402439 143 140 121
69.711577117762303 -1.710134876188338 -58.067490474315889 143 140 121
68.421918019607460 -1.797836745904408 -59.445079151505922 144 141 121
67.204461581181604 -1.852434394012446 -60.746691207082989 142 139 119
67.069321791077854 -1.272233284052838 -60.909730866051547 141 138 121
66.790051319111797 -0.779138771124387 -61.224640038734947 141 138 121
65.572890052998986 -0.852971525675943 -62.526195307121299 139 136 119
64.572276809704690 -0.804543052621518 -63.600028248832587 140 137 120
62.561421434364021 -1.379749437758872 -65.736169819397134 141 138 121
61.272237584142488 -1.527021051930746 -67.113372672264518 141 138 121
60.199626677159358 -1.550095441069784 -68.262885048494439 141 138 121
59.271447384982821 -1.491334236140406 -69.260617619217101 140 137 120
57.982440679642693 -1.664975705952971 -70.637633779417342 141 138 121
56.693478469012106 -1.848143457568008 -72.014573166929949 145 142 125
55.982101072605005 -1.675373356283178 -72.784619917535906 145 142 125
55.343037853635963 -1.461730347836638 -73.478823363201741 140 137 118
53.982077972291265 -1.714996087105697 -74.931456642951417 143 140 121
52.332317751715323 -2.164405330268484 -76.687345366399882 144 141 122
51.332454329515087 -2.204973776007281 -77.760620929959060 144 141 122
50.693752838281142 -2.017480930127537 -78.454728248173495 144 141 122
50.055177473992998 -1.834501584562634 -79.148849445360270 141 138 119
49.488956705903973 -1.608401086042740 -79.767169816127023 138 135 116
47.983839710476474 -2.009058154240519 -81.371039423477981 142 139 120
46.623195415255012 -2.324539478644731 -82.823183262275052 142 139 120
45.190320561538769 -2.698574141868046 -84.351028415463190 144 141 122
45.635953887247894 -1.815832464158669 -83.908151064996360 142 139 120
44.781277005449397 -1.811670325229429 -84.829626036363692 143 140 121
43.709905206018462 -1.961594992010853 -85.978425463767365 146 141 122
42.638587794246732 -2.119365203167423 -87.127170151911258 146 141 122
41.205950869760500 -2.534324781188935 -88.654707868920553 145 140 121
40.496109154109064 -2.458443172349954 -89.424491962010819 141 137 118
39.786380173197983 -2.387595713454940 -90.194278167980116 139 136 117
39.076763801255552 -2.321778692510054 -90.964066464869205 137 134 115
206.868415852157568 -1.323013258720474 86.279891211541752 154 154 150
203.837033279755360 -1.156462809807576 83.072306689370748 174 174 167
197.481607665925310 -2.134398372177611 76.367205027465758 185 185 177
192.788134761643335 -2.592990595962012 71.411439377301065 185 182 176
189.323093130844683 -2.663079931556106 67.748598404864850 180 177 168
185.496714297222695 -2.885195306766302 63.705890367493737 172 169 160
182.031636735953327 -3.008703411450478 60.043616450297122 171 168 159
180.228663530545106 -2.566189243941747 58.130125508051435 173 170 161
177.413980654541376 -2.501391488615843 55.152496640260495 174 171 162
173.370745572209330 -2.904552980069957 50.882818832814138 173 171 159
170.628321825461967 -2.860076901609047 47.981689511419745 172 170 158
167.524554322215323 -2.970317294792067 44.700723954314981 170 168 156
164.854408768406472 -2.941264301009699 41.876034635646704 167 165 153
162.401088022865565 -2.850137594113987 39.279554770765372 167 165 153
160.309148202737276 -2.639209996336345 37.063252763726609 166 164 152
157.133123081232497 -2.862646680450700 33.707161304885148 163 163 153
154.824395573829435 -2.771705519842599 31.263228210264998 163 160 151
153.383006353080134 -2.356612172121593 29.731333410040151 158 155 146
151.002058379448442 -2.325747630603744 27.211709852812447 158 155 146
148.982524321936069 -2.167735646857849 25.072172749042579 162 158 149
146.384782724517720 -2.259000327486089 22.324943001002623 160 157 148
144.509866601224132 -2.074321110845559 20.337664443827606 150 147 138
141.839880938625356 -2.231606488592238 17.514816708218916 151 149 137
139.965027642126927 -2.077969995255594 15.527827633265986 156 154 142
137.728787459753448 -2.090133154564536 13.161137040297945 152 150 138
137.372023898307987 -1.322727946305899 12.769617793288035 150 148 135
135.208159743292185 -1.330396416372447 10.479115375742509 148 146 134
132.538298762386432 -1.572442498356460 7.657080477348131 150 148 135
129.723864237290996 -1.897358760868978 4.683344321495099 150 148 135
127.849232444081395 -1.831065049212962 2.697148343257084 151 149 136
126.046934873176028 -1.746787657125512 0.787021690873217 147 145 132
124.606158596193566 -1.514677533016652 -0.743282801305185 147 144 129
123.093144919832653 -1.325829721754151 -2.349442733431204 146 143 128
120.929498458886926 -1.443467339062133 -4.638917327397337 146 143 128
118.910479838265417 -1.511123065936454 -6.776378103297873 148 145 130
117.108401140654237 -1.493816904244962 -8.685920095397478 144 141 126
115.161757285810722 -1.557185123038139 -10.747189959720345 146 143 128
113.576678711764146 -1.465630009194636 -12.428731694121637 148 145 130
112.280885177768042 -1.249227898870372 -13.806515973267636 147 144 129
110.840541144430745 -1.111313230522938 -15.336057648178382 146 143 128
108.532517764580476 -1.400580766579703 -17.776413915891055 144 141 126
106.658390253381000 -1.497213600432642 -19.761174056133939 144 141 126
105.073562527256627 -1.466809099992584 -21.442206341338249 143 141 126
103.271833444987251 -1.554761793516100 -23.350832105944789 140 138 123
101.904064262901088 -1.441354210519643 -24.803982192267000 141 139 124
100.319392964164905 -1.446298276087121 -26.484725451250057 144 142 127
99.024071406905790 -1.317652293455355 -27.861832204541997 144 142 127
96.860895870790472 -1.637975116166568 -30.149445746693260 140 138 123
94.625403266649158 -2.011324382432082 -32.512776108481887 143 140 123
92.823906590967951 -2.178394422328163 -34.420698661012182 145 142 125
91.528782672278709 -2.096836096077378 -35.797415267016504 144 141 124
90.089052505931889 -2.100273447155861 -37.325795606446235 144 141 124
88.649379059917109 -2.114382716097778 -38.854093229276714 144 141 124
86.703367197685751 -2.406936310868999 -40.913306316491173 146 143 126
85.987234238393242 -2.059026436645338 -41.682880823778987 146 143 126
84.837125792477778 -1.949114339870482 -42.907546424649610 145 142 125
83.180641136074854 -2.121195322145209 -44.663072880154971 144 141 124
81.524192467758567 -2.305579245612322 -46.418489911883427 145 142 125
80.808410800459598 -1.987179588994737 -47.187928712562353 146 143 126
79.803303720682578 -1.833540728746708 -48.260694801672486 145 142 124
78.364109773137628 -1.928287434442465 -49.788391773282058 145 142 124
76.780234543023454 -2.114575128782052 -51.467649207695018 145 142 124
74.906919422872690 -2.475486341304498 -53.450077642917336 144 141 122
73.612590191175457 -2.522395059409104 -54.825852048630821 144 141 122
72.463071732701309 -2.496318661303366 -56.049936934509248 142 139 122
71.313625635758768 -2.478692133947561 -57.273969459131877 144 141 124
70.670930217659077 -2.176789082548130 -57.967343778143885 143 140 121
70.173129348746187 -1.795294311264865 -58.509136660545209 143 140 121
69.023955995740351 -1.798599052331303 -59.733084208871418 144 141 122
67.874853735692142 -1.810341737153848 -60.956978911830930 143 140 121
66.798219482638686 -1.787601253211079 -62.105038128595709 142 139 122
66.373276982904102 -1.383991460438108 -62.571054961179669 141 138 121
65.514050028402522 -1.244118829002408 -63.491750129636642 139 136 119
65.016973218007422 -0.891733327476820 -64.033589762814131 141 138 121
63.361417509574267 -1.247165088766790 -65.787673302168145 141 138 121
62.212797139663039 -1.304794636629783 -67.011326203184524 141 138 121
61.064243076568744 -1.370845964941901 -68.234924135538023 140 137 120
59.626046276354813 -1.624727247772989 -69.761460086867942 140 137 120
57.970582638912859 -2.024631058490191 -71.515129899522947 136 133 116
56.677297473952081 -2.209800802620200 -72.889980592987172 138 135 118
56.325785539262000 -1.810608940959126 -73.280221995284705 143 140 122
55.467318775231760 -1.735459050061453 -74.200614612575208 140 137 118
54.681400707269347 -1.620263258509284 -75.045267605040749 142 139 120
52.156655293354575 -2.627111446297841 -77.707135031149448 141 138 119
51.805594705704266 -2.249084684985867 -78.097374493313453 141 138 119
51.454702050084180 -1.873348799504307 -78.487670712449301 141 138 119
50.669151464092096 -1.784009882392044 -79.332233349231814 140 137 118
49.521323895972202 -1.938448604111948 -80.555269018448399 140 137 118
48.301065216974052 -2.149206876802757 -81.853933051983802 140 137 118
47.370795921985717 -2.176174678072744 -82.849783320797883 143 140 121
47.528011815569229 -1.482836012716200 -82.710413978742253 142 139 120
46.162996456891506 -1.811563381048631 -84.160330367580173 141 136 117
45.088012701727791 -1.954260131106282 -85.307476248319887 141 137 118
43.795550412427104 -2.252732087792479 -86.681554326087308 143 138 119
43.590869054218373 -1.816880032020199 -86.920698564833970 142 137 118
41.935912818691534 -2.379557548424917 -88.672935605302825 144 139 120
41.296329776607990 -2.252444701115281 -89.365999670954835 143 139 120
41.454779007212409 -1.575027160182769 -89.227056468970744 140 137 118
40.380262576260506 -1.758042727529383 -90.374010894170681 138 135 116
206.190769861121566 -1.910129908180855 83.949504979400899 151 152 147
201.554089448390755 -2.280298571339928 79.076518692737380 170 169 164
194.455800243342708 -2.385229969542761 71.609225306921559 184 183 178
191.196658464854352 -2.377869087884417 68.179661971673227 183 180 171
188.372558331864070 -2.243740456322223 65.205824629807154 170 167 158
184.750852185066435 -2.410887775217582 61.397212721562710 172 169 160
179.388871243931192 -3.222853380867450 55.767166510229742 174 171 162
176.492219997504549 -3.190635325354181 52.718227504181442 175 172 163
174.610745464203376 -2.812164808745703 50.732091676670706 173 171 159
171.714109408012035 -2.819494808159559 47.683552491662482 172 170 158
168.744960273958327 -2.875315960433631 44.559343573425423 170 168 156
165.775810943864428 -2.953344174317331 41.435363337414287 169 167 155
163.386795641541369 -2.834647717889726 38.918695064556914 168 166 154
160.780244381800401 -2.816721376533585 36.174555870732974 168 166 154
157.738590719880790 -2.985730828425271 32.975339089210564 161 161 151
156.437417856180303 -2.501149725928901 31.597367761868441 162 159 150
154.991256322267475 -2.083175707601589 30.067726367713220 159 156 147
151.296948174782187 -2.566406658643099 26.186241730430879 159 156 147
149.415708873178801 -2.352383310714742 24.201686106200697 164 160 151
147.679556812192203 -2.093863025628118 22.368980983890225 161 158 149
145.218185238411593 -2.143666148740761 19.777803269180254 162 159 150
142.321665773075381 -2.390698510685831 16.731675684340331 153 151 139
140.077907877979726 -2.388631556108614 14.368435061659113 155 153 141
138.632008574600206 -2.069423706449522 12.839684867105603 152 150 138
137.621355810914906 -1.577228249327417 11.766086881040309 150 148 135
136.248111730709354 -1.247005921605009 10.313324184126230 149 147 134
133.424235866773756 -1.550343076592939 7.343882607817960 150 148 135
130.527825328755767 -1.906192184883296 4.298823017957261 150 148 135
128.501864587682832 -1.903120545138005 2.163955296370091 150 148 135
126.475937670704610 -1.915137245232925 0.029226705313675 149 147 134
124.740208123524056 -1.813219382515057 -1.802068558749568 149 146 132
123.367238282410696 -1.561573937876639 -3.254153619374136 147 144 129
121.413977652800213 -1.582503749100841 -5.312694881177237 146 143 128
119.605845612992965 -1.551824155101496 -7.219478634576376 148 145 130
118.087948244475484 -1.401213853065773 -8.822908627223285 144 141 126
116.425009106174954 -1.329095300113714 -10.577860949204279 148 145 130
114.399362371465571 -1.438760284872871 -12.711718435649402 147 144 129
112.518853637399630 -1.495172116969290 -14.693839835722429 145 142 127
110.783493869324090 -1.496694786410838 -16.524247235480431 147 144 129
109.120737007895087 -1.476395979181292 -18.278753351417265 146 143 128
107.675707932901460 -1.363502182346730 -19.805796166058713 142 139 124
106.085616876498534 -1.331804440307350 -21.484323804084397 144 141 125
103.987631593534289 -1.560544282257963 -23.693207964597462 142 139 122
102.179931909003386 -1.661704986813755 -25.598841456854899 138 135 118
100.517406852645337 -1.704147175161303 -27.352812642957304 146 143 126
99.725775939066367 -1.322831489010500 -28.197471935424119 145 142 125
97.410213894826498 -1.716159091995463 -30.633150589389004 142 139 122
95.384955335723873 -1.979174069311590 -32.765615269204005 143 140 123
93.504871822532408 -2.182917973722475 -34.746423530452233 145 142 125
92.568362242419340 -1.913997777753447 -35.742334192049498 144 141 124
90.978698425877226 -1.991274588545851 -37.419944490343681 144 141 124
89.026152213855028 -2.270209209514605 -39.476171753954958 144 141 124
87.799508984407396 -2.181118934580474 -40.774867932171361 146 143 126
86.790711424128489 -1.985477377407023 -41.846300862919122 145 142 125
85.636814405146964 -1.874815410461191 -43.069161742211463 145 142 125
83.611830588374417 -2.241502597181548 -45.200690707683634 144 141 124
82.167652682724253 -2.308455419058157 -46.726289467227815 145 142 125
81.159145082660288 -2.148341207111148 -47.797495413136630 146 143 126
80.441150438901644 -1.836014635593003 -48.565813020146948 145 142 125
78.851957862887062 -2.010889446453156 -50.242644133050476 145 142 125
77.190189690382198 -2.237957161216289 -51.995076966502580 146 143 126
75.818913784717836 -2.314450274249980 -53.444594705022894 145 142 125
74.883407457278679 -2.155088225075779 -54.439857582218252 143 140 123
73.657504531526115 -2.167598304307115 -55.737862095699739 143 140 123
71.923283899422970 -2.479901980511124 -57.565615429176745 146 143 126
71.278526438382329 -2.177792144317412 -58.258005402453648 143 140 123
70.924426364433884 -1.711904544394979 -58.647695180540438 143 140 123
70.062019072837785 -1.544975398618967 -59.567147392926813 145 142 125
68.255378551542051 -1.938641598330794 -61.470276679241636 142 139 122
66.957254202358854 -2.045271318418413 -62.843620775483771 140 137 118
66.022428951757561 -1.945464618896454 -63.838596444371802 140 137 120
65.523616037324061 -1.591610668569351 -64.379620646809428 139 136 119
65.170260900249630 -1.153722776221777 -64.769378585087310 143 140 123
63.436495666748129 -1.554620104897781 -66.596437840723837 142 139 124
62.429388468249073 -1.525368934856772 -67.666966694910855 143 140 125
60.550319493898897 -2.038347702098162 -69.645077198273810 142 139 124
59.688674442597360 -1.937342309466363 -70.564215477496020 141 138 123
57.954974038485389 -2.384102656587137 -72.390833656201806 138 135 120
57.820314828769895 -1.844758274272513 -72.553682664358547 139 136 121
56.886269864619848 -1.808597745421819 -73.548376477602432 143 140 122
56.315784211335284 -1.549376040987241 -74.164997475121623 143 140 121
55.309243235918501 -1.571565048545778 -75.235267708900921 143 140 121
53.430331499880651 -2.159273945830035 -77.212684199763856 142 139 120
52.714721428523887 -2.012215143478409 -77.980441393866158 141 138 119
51.562941579747289 -2.152678303031049 -79.201730163046022 141 138 119
50.920254928754701 -1.970076547470528 -79.893880648042114 140 137 118
49.695892882936704 -2.173043568066764 -81.190661844227861 140 137 118
48.980687940328821 -2.049594962199047 -81.958369818921767 140 137 118
48.338337089388602 -1.883011917264872 -82.650516060876328 143 140 121
47.696115264313420 -1.720922345665960 -83.342677774784107 141 138 119
47.054022881365967 -1.563321344376886 -84.034855210252999 142 137 118
45.320740758776353 -2.145676225719062 -85.860277750747770 141 137 118
44.606055200086075 -2.050557427621177 -86.627942583984520 141 138 119
43.600417623427958 -2.158849418012820 -87.697758699376749 139 136 117
42.522071680725645 -2.324299566164227 -88.843061908965666 141 138 119
42.244356191204972 -1.945888998924536 -89.157534480455666 140 137 118
41.238969143625681 -2.073497927627012 -90.227271609150364 139 136 117
40.888784086394807 -1.751918365527873 -90.617348882687764 135 132 113
207.029205773919273 -1.996427558890275 83.216711762945863 147 148 143
203.540979123802288 -1.981417871181455 79.564086457282940 167 168 162
199.543479362172718 -2.163095116929039 75.381108065495397 187 186 181
195.473197287884716 -2.399257885398880 71.122650444542785 185 184 179
193.221693007530689 -2.042781814530485 68.759467554942972 182 179 170
190.242669961809924 -1.955029278032279 65.638504406098718 174 171 162
186.099575171165270 -2.296915939069571 61.305109523286802 172 169 160
180.501341642916259 -3.184401056372985 55.456286445332779 174 171 162
177.595016299819491 -3.151423881251532 52.411967679971980 175 172 163
175.634535402272775 -2.798515519162884 50.353032465482499 174 172 160
173.455806886420447 -2.539867644945960 48.066899779292896 173 171 159
170.986063143831814 -2.404738815824084 45.477823683957041 171 169 157
167.570448256593693 -2.640205187140985 41.903898320649631 171 169 157
164.445866107664841 -2.791679177048624 38.633314856817719 169 167 155
160.884703130811801 -3.132243737915245 34.908383259305793 169 167 155
158.560506291403328 -3.024949315278184 32.471682307751365 160 160 150
157.182274880322211 -2.568657457499119 31.020007835828153 162 159 150
154.930901199906259 -2.463994470274522 28.659354506235729 162 159 150
151.515272567686054 -2.835611106464265 25.086837181552937 159 156 147
150.500995079223230 -2.275941896428513 24.014278710162131 164 160 151
148.249695909311782 -2.221265586615234 21.654104272981414 162 159 150
145.343479934864007 -2.449149036784855 18.612418355495009 158 155 146
142.510037418771901 -2.668857536470356 15.646692601026217 157 155 143
141.059304517395191 -2.338167718549556 14.120136593518993 155 153 141
139.171974611101405 -2.200336716415630 12.139278979786809 152 150 138
138.085230076358016 -1.739685875238956 10.991548855833116 150 148 135
136.197995522882252 -1.626895180991862 9.010903378107912 149 147 132
134.019681625746955 -1.652773556260022 6.727501111364859 150 148 135
132.059740204403568 -1.600521795598957 4.671402622744324 151 149 136
130.027053020096105 -1.594524994816195 2.539722698392183 149 147 134
127.848830420441800 -1.667576254329799 0.256762329442353 146 144 131
125.452275762517758 -1.853556762416908 -2.253162948485965 148 145 130
123.492465767372522 -1.862191809797973 -4.308697572447159 145 142 127
121.751061445711471 -1.786972322559869 -6.137003224059498 146 143 128
120.373661801419800 -1.559309730477880 -7.586722214478357 147 144 129
118.923533563944062 -1.375163075909048 -9.112059048725854 147 144 129
117.036694932260872 -1.403409466172554 -11.091442168517744 147 144 129
115.149895169103814 -1.445634925564031 -13.070699989298276 146 143 128
112.753539119662506 -1.740938931868905 -15.579594959157362 146 143 128
111.230807520314357 -1.640872645456502 -17.180191997401323 147 144 129
109.708133250189405 -1.552054316426195 -18.780700680873281 145 142 127
108.258321683621631 -1.439506046293382 -20.305452011258723 143 140 125
106.662956434853797 -1.408148904922627 -21.981452987761628 142 139 123
104.994834005677475 -1.424095550293803 -23.733019141828038 146 143 126
102.817074816725736 -1.702917243808227 -26.014083106422135 139 136 119
101.076216577300826 -1.781489547832570 -27.841066945738618 147 144 127
99.845116922396542 -1.618561886876206 -29.138391230599012 146 143 126
98.177176514637537 -1.684346638086828 -30.889531454427527 143 140 123
96.363637503913978 -1.836217719860524 -32.791849445662507 143 140 123
94.695780571091149 -1.927182274947118 -34.542770415243922 145 142 125
93.392100382704243 -1.843307843778721 -35.915417571984790 144 141 124
91.433023331982199 -2.108348225236672 -37.968663525135042 144 141 124
89.983790635075167 -2.122044867790980 -39.492392282475720 144 141 124
88.388944131529243 -2.222911551832314 -41.167280378656216 145 142 125
87.741032948917194 -1.834720870212673 -41.859047695728691 145 142 125
86.000629692882086 -2.033145271733753 -43.685015499691247 144 141 124
84.333100704027785 -2.205349312830130 -45.435257117702378 145 142 125
82.519913305092118 -2.468548408962552 -47.336597363633274 145 142 125
81.435244919188889 -2.348946386912937 -48.481810123252217 145 142 125
80.496364817144027 -2.157471481072204 -49.475789552006290 145 142 125
79.411867532592964 -2.053148360519176 -50.620926892517048 145 142 125
77.817435939646700 -2.239833782010527 -52.295130105129942 146 143 126
76.295902070500304 -2.397550777553387 -53.893646640576549 145 142 125
75.867403472649130 -1.951585783445775 -54.358398231375617 143 140 123
75.001829855577071 -1.756176352088276 -55.276628846394289 143 140 123
73.699118097234617 -1.816264939786005 -56.648257413074873 144 141 124
72.032079480320945 -2.094982165918919 -58.397637229620358 142 139 122
71.093870340416373 -1.965072181277161 -59.391303925701038 144 141 124
69.718447368126974 -2.096155492288804 -60.838275797431322 145 142 125
68.561738100632539 -2.109400089644995 -62.058515874162993 143 140 123
67.332206335148598 -2.173999354055562 -63.354248183005240 142 139 120
66.685909749734506 -1.902026214664285 -64.045591632297999 142 139 122
65.456532524112149 -1.982386866741482 -65.341235632599222 141 138 121
64.956266490450432 -1.634259002099101 -65.881505726302436 144 141 124
63.727050452544788 -1.729817679843875 -67.177070397341765 143 140 125
62.497892274920531 -1.834353925128627 -68.472570337928829 143 140 125
61.268790605893798 -1.947866804808642 -69.768004911027901 143 140 125
60.477282342985305 -1.801233464753192 -70.610307175872379 143 140 125
59.321245334657036 -1.885903714617006 -71.830133638962394 143 140 125
59.040461073343522 -1.434094913627100 -72.143893645437657 144 141 126
58.249293030164736 -1.303842821101584 -72.986190049824643 144 141 123
57.239408310930799 -1.317118051428552 -74.054952402010230 145 142 123
55.718971256771695 -1.661383928148816 -75.652073408639097 143 140 121
54.709209693975183 -1.691206024442224 -76.720724353238325 141 138 119
53.553609884617657 -1.821922615659676 -77.940285992694157 140 137 118
52.471028595544510 -1.913973901604341 -79.084318558457937 142 139 120
51.607418332272488 -1.871812124622894 -80.001910980113252 141 138 121
50.306058198607161 -2.121635820807500 -81.372233120619995 141 138 121
48.785785490718041 -2.524728562463134 -82.968827215468281 140 137 120
48.506264300529082 -2.119738172940227 -83.282709545411279 141 138 121
48.080947656588990 -1.813390550722666 -83.747546220307953 140 137 120
47.217809863979554 -1.802371418565548 -84.665044103420854 138 136 115
46.427769999335823 -1.748483381136783 -85.507094170970817 140 138 117
45.199774075424585 -1.996083366962439 -86.801677502799805 142 139 120
43.679740310226578 -2.451033934214688 -88.397852108362457 139 136 118
42.889912703969969 -2.418439314656315 -89.239784535750204 139 136 119
43.195634679608972 -1.639070222976866 -88.950627778868864 139 136 118
42.113966965251763 -1.815198503608206 -90.094231948902319 137 134 115
40.155827253209424 -2.607832987335866 -92.142495530528834 136 133 114
204.512404822841859 -2.019952364301439 78.988897502606278 165 164 160
198.749684106022926 -2.786631243416049 72.995803242710736 184 181 176
196.271707849032396 -2.487104893593476 70.408973327779336 188 185 180
193.501751461869844 -2.305681999039443 67.519605864811268 184 180 177
188.249866897023338 -3.001272637741201 62.057409788284929 178 173 169
186.282868699121394 -2.590215599015177 60.000993874405964 174 169 164
182.344897521529219 -2.888528192742696 55.901596683211636 175 171 162
179.355909266866377 -2.878079975286615 52.786196588357598 178 171 163
177.023936382451495 -2.653379934628059 50.352007155074347 173 170 161
174.472971582000298 -2.525642642518354 47.691004135300659 173 170 161
172.141030724430038 -2.336405605330615 45.257164418994535 173 170 161
168.860040754833904 -2.516635600113581 41.839984150611741 171 168 159
165.579040948980094 -2.721238101005632 38.423059466309923 171 168 158
161.056903166730848 -3.419940878624482 33.720375914365690 169 167 156
159.163027987175269 -3.147743178121448 31.741266433000277 165 164 154
158.291326129193749 -2.495154111004739 30.821261567768573 165 162 153
156.105493575754906 -2.361028857917056 28.539809202703850 165 162 153
154.357762049552292 -2.070811838631268 26.712317386453492 160 157 148
151.879935873167653 -2.083432300244954 24.128628757413821 163 159 150
149.183081478960787 -2.202211183032659 21.318238564211583 161 158 149
147.070366937108901 -2.104737931412721 19.113042955415125 158 155 146
144.884665052616441 -2.052723198682280 16.832373283609115 153 151 139
141.457664566140949 -2.528183620873155 13.266365131278604 155 153 141
139.564076306048264 -2.391786374643323 11.288516250921703 152 150 138
137.816571494643938 -2.208166922472567 9.462013237397287 150 148 135
135.777017576072154 -2.161034350376589 7.333194904021099 150 147 132
134.175648517623415 -1.942023486279413 5.658134515453014 151 148 134
132.866439335172515 -1.609106353177531 4.285568888881329 152 148 136
131.630324814539449 -1.254134761382995 2.988666893941343 150 146 134
128.714587990827226 -1.643760794522049 -0.046799384232656 146 142 131
125.944907645362449 -1.990497103453322 -2.930862296596757 145 142 128
123.686460404663151 -2.130100437109685 -5.285617303246170 146 143 128
122.450529894763747 -1.827297476243107 -6.582070330364900 146 143 128
120.922522443733783 -1.665848630068545 -8.180775260771924 146 143 128
119.102416313656178 -1.649015899127013 -10.081688117711934 146 143 128
116.990188659839077 -1.780062643039795 -12.284764380962713 146 143 128
115.462331337303681 -1.655658601648031 -13.883159811541617 146 143 128
113.423216688308912 -1.781594509917131 -16.010406809167279 148 145 130
112.114601563654986 -1.578317033462182 -17.381922184841557 151 148 133
110.148613922296249 -1.696953243356035 -19.433369146803869 147 144 129
108.620965865139880 -1.620267313938072 -21.031373502724676 144 141 126
106.801160671857218 -1.695803789130063 -22.931479524154838 139 136 120
104.908338433072387 -1.820277885004350 -24.907009586704902 146 143 126
103.161665697619256 -1.887133466191697 -26.731332397166028 141 138 121
101.415034564083854 -1.966859144803215 -28.555542631463851 146 143 126
100.033758737267760 -1.877769969409078 -30.001980863658162 146 143 126
98.141089693761145 -2.055084188799352 -31.977040304368273 144 141 124
96.540721248446076 -2.098824088258218 -33.649874757225717 144 141 124
95.013471493956047 -2.117178021835735 -35.247091366723112 144 141 124
93.705493901821043 -2.034465786626754 -36.617670697174333 144 141 124
91.666825631851367 -2.338357932705740 -38.743299448042194 145 142 125
90.212799124492221 -2.353487326273634 -40.264720114868453 143 140 123
89.270398758311913 -2.111537951162457 -41.257535020394982 145 142 125
88.401178301377669 -1.837900054548782 -42.174826244615446 142 139 122
87.020448362166476 -1.842124414175480 -43.620565104476185 143 140 123
85.128146070618882 -2.129958210140401 -45.594662364544376 145 142 125
83.162766580222794 -2.471083674621852 -47.644110070176140 145 142 125
81.270491477264628 -2.787085377618133 -49.617930390754907 142 139 122
80.401626243794695 -2.558528296117495 -50.534927513186432 146 143 126
79.971481783446109 -2.095231267333974 -50.999070136348081 146 143 126
78.810414630057963 -2.039324015557144 -52.217937230127802 146 143 126
77.210763161148407 -2.236171381474606 -53.889538669973206 144 141 124
76.122939194753840 -2.157825879318847 -55.032817136616757 144 141 124
76.058836084496946 -1.509649211397742 -55.119681321376305 142 139 122
75.044346845204174 -1.401707533029135 -56.187488633484065 141 138 121
73.664324365616764 -1.510190504473063 -57.632492753337374 142 139 122
71.406812677515717 -2.133869006691501 -59.982712496254436 144 141 124
69.953711562504864 -2.308206801519327 -61.502937055554554 146 143 126
68.793194555392958 -2.322614604835593 -62.721343549241794 143 140 123
68.510431204512045 -1.830430974761625 -63.034572364450071 141 138 119
67.569536438296225 -1.728812591241311 -64.026663046446203 141 138 121
65.750951827475106 -2.155620453248714 -65.923737177494019 143 140 123
64.956500282525184 -1.983366645390653 -66.764895110644375 146 143 126
64.381631925499690 -1.684704293453694 -67.379825420114571 143 140 125
63.733739765559520 -1.434341264776715 -68.070183108297670 143 140 125
62.281145644834439 -1.678876148483488 -69.589927638026438 144 141 126
61.048092913694063 -1.799484035455496 -70.883399004079138 144 141 126
59.961446254820601 -1.838802532920267 -72.026029515947897 145 142 127
59.679861327085987 -1.386484408556299 -72.339411729073106 145 142 127
58.227483035538654 -1.666908488872528 -73.858890085210817 144 141 124
57.287461478928364 -1.636217153428385 -74.850668419952569 146 143 124
56.201137740966757 -1.704756998981290 -75.993152626063249 144 141 122
55.114882351325704 -1.781153239784345 -77.135588659953186 142 139 120
54.760761395065757 -1.397409810266003 -77.524422896802008 141 138 119
53.601481483356864 -1.533806409023131 -78.742165520736279 143 140 121
53.027998238382224 -1.299754328566301 -79.357093397082025 142 139 122
50.843742240634754 -2.117645129702386 -81.629500401487633 143 140 123
49.245209901540278 -2.568440789947595 -83.299023211834395 142 139 122
47.646655123210962 -3.031003751095571 -84.968414160588452 141 138 121
48.538274456420339 -1.857169961053744 -84.076738035219222 140 137 120
47.818839224621954 -1.748685804334623 -84.842268217472082 141 138 118
47.685551811813085 -1.252953840984770 -85.005324564029394 143 140 121
46.160546932684397 -1.694791947769751 -86.599255978869905 145 142 123
44.122654970009947 -2.495031873737233 -88.720146955444761 142 139 120
43.769923487142634 -2.163204288870141 -89.109111515732621 140 137 119
43.710494834598023 -1.632949029895487 -89.196998120738101 141 138 119
42.771867797745799 -1.707962205643294 -90.188355519317014 138 135 116
40.880501213032858 -2.449116939869413 -92.158234158181216 138 135 116
205.556686442637101 -2.034259456608927 78.489464025282444 161 160 156
202.118428554957120 -2.020720780644925 74.923807861731632 183 180 175
196.629416898159832 -2.722665734926972 69.242541326591891 188 185 180
190.481159916961531 -3.689520816465380 62.881652383676766 184 180 177
188.507637485118721 -3.266379079850147 60.828233247085734 179 174 170
185.874946312394201 -3.086973392533218 58.094937110004679 175 170 165
184.047951650065158 -2.644065525261322 56.192933897861820 175 170 164
180.975811421818207 -2.656681354072144 53.006691947043521 178 171 163
178.269899871806615 -2.560698935649927 50.198424020172752 173 170 161
174.465277842742438 -2.882890076416495 46.257196617126368 173 170 161
171.319869482578554 -2.991935493161332 42.996139602745103 173 170 161
170.298705991290518 -2.338798797768541 41.925913263721810 171 168 159
166.274303534401156 -2.814827185460298 37.758834933305110 171 168 159
162.835885609239170 -3.099628410296173 34.196326293609189 167 164 155
160.862523662882779 -2.851888044964796 32.144635875740249 163 160 151
159.548488050046899 -2.365195277994518 30.772796307071332 165 162 153
158.087996390868966 -1.945084819831250 29.249988404274916 166 163 154
156.041497771912674 -1.765467601874457 27.123128660743788 163 160 151
153.115926511181925 -1.948801241220939 24.090243672288125 162 159 150
150.776436749787109 -1.919710057839094 21.661663787419798 160 157 148
148.730015144314905 -1.789788675570150 19.535278745103597 158 155 146
145.731208732195398 -2.062388169670036 16.427489175409079 153 151 140
142.732398220083581 -2.357158602816041 13.319929783750069 155 153 141
140.466241434321205 -2.370655055963472 10.967564915561098 153 151 138
138.053573932543259 -2.462115141066061 8.464375020705461 150 148 135
136.300344845324730 -2.293400299719381 6.640763901756060 150 146 134
134.620432144937013 -2.106445876228469 4.892749610392968 151 149 136
133.453474353756945 -1.711843057243419 3.673214213922137 152 150 138
132.726233139939012 -1.135581267290857 2.906603316540583 152 149 140
129.874094622580515 -1.491903740879801 -0.048772098744507 149 146 137
126.655564537493703 -2.030530139613622 -3.381284922632801 146 142 131
124.462917976488256 -2.137667735633712 -5.656994050128304 148 144 130
123.149667624003641 -1.867470734440662 -7.026980784982243 148 144 130
121.763203139163664 -1.639969572937388 -8.472361525068465 146 142 128
119.424102010959359 -1.856010634493497 -10.898604061382031 145 142 127
117.451449508138992 -1.921257634653252 -12.947412138422436 145 142 127
115.845274503939237 -1.831623963896138 -14.618841634572107 146 143 128
114.385734690343412 -1.685480856545954 -16.139284813461074 147 144 129
113.072842618845698 -1.481190450994844 -17.508764539013470 149 146 131
110.660594672655876 -1.806983323003509 -20.009743042730008 146 143 128
108.981324524983634 -1.800853237235670 -21.756203413363124 147 144 129
107.668600158137053 -1.630836754467718 -23.125410569540861 142 137 121
105.403021862756944 -1.932132103918716 -25.475089726928474 146 141 122
103.723886770137099 -1.963806018230680 -27.221225571871827 146 141 122
102.338024322970654 -1.863556161684421 -28.665584463109951 146 141 122
100.365753773924638 -2.064123853792378 -30.713182341665373 147 142 123
98.173572595883471 -2.389019705421256 -32.986872611658413 146 141 122
96.787855587860236 -2.324364748537123 -34.430934684300553 145 142 125
96.062054101615246 -1.935450638806510 -35.196305878630085 144 141 124
94.676487794920106 -1.888594266213694 -36.640256836501663 143 140 123
92.411116038841882 -2.304276881642940 -38.988857355991428 143 140 123
91.245617308979050 -2.167024851110557 -40.206441721447703 144 141 124
90.300181728805796 -1.923506199147057 -41.197820744358864 143 140 123
89.648166978515164 -1.532731691112165 -41.887651525343045 141 138 121
88.189598601296510 -1.573350774808484 -43.406636999011340 145 142 125
86.291061866308169 -1.859048915071597 -45.377773706084355 145 142 125
84.025839370792625 -2.355413686304542 -47.725615129354736 146 143 126
81.833941832254666 -2.828848998717546 -49.997912100224255 144 141 124
80.888925304578905 -2.640253228789350 -50.988926247598130 144 141 124
80.604156438844143 -2.096968081738444 -51.301721644960111 143 140 123
79.292594396542967 -2.121732626078076 -52.669479874254620 146 143 126
77.540951234445075 -2.400346689033564 -54.489245113214935 144 141 124
76.009408233561302 -2.568835327333612 -56.082862436416690 144 141 124
76.165284195328795 -1.799402158250898 -55.943635354526663 141 138 121
75.587686534632255 -1.443924207656292 -56.557844805974582 140 137 120
73.909644525653235 -1.719731820569945 -58.301990587582964 142 139 122
71.864742682710485 -2.218293663556324 -60.422633385523511 145 142 125
70.406856867913504 -2.392966777013057 -61.940565509243356 146 143 126
69.829616428567746 -2.066564176830966 -62.554646566973048 145 142 125
69.472676332120187 -1.615425753710405 -62.942825867344851 143 140 121
68.748937611020935 -1.382622601795159 -63.707576952937330 143 140 123
67.144561332281853 -1.676590708545780 -65.375918347380946 144 141 124
65.687003505672678 -1.894806203264499 -66.893559175921496 146 143 126
65.183748818240986 -1.551342582645417 -67.432351496498484 143 140 125
64.607232887397799 -1.255623101069513 -68.046463319858674 142 139 124
62.562562931717579 -1.855456792385727 -70.166174609861315 143 140 125
61.252039262449173 -2.021808048318922 -71.532972170106035 144 141 126
60.308681261091266 -1.972025540531960 -72.523350876144377 145 142 127
60.393425409826762 -1.293254651055803 -72.460020231250951 145 142 127
58.789411277678980 -1.664280437562846 -74.127741681974300 145 142 125
57.699473063681367 -1.725294045563697 -75.268574206482697 148 145 126
57.050273082358814 -1.516700957317276 -75.957876278419064 145 142 123
55.887054563363876 -1.638280903383509 -77.173887201377454 145 142 123
55.164626424090102 -1.487465613212749 -77.938421322574897 145 142 123
54.589242509662526 -1.247555199247014 -78.552500227939134 145 142 123
53.426268574186764 -1.390461162583837 -79.768408639405720 144 141 124
51.161258332328373 -2.256350317313452 -82.112547903985643 144 141 124
49.483950965987646 -2.755690842496564 -83.854744199554801 142 139 122
48.982359840388725 -2.496196096189907 -84.393468028604786 143 140 123
47.305073738432441 -3.015719738799602 -86.135466742015723 143 140 123
48.053141204868567 -1.938559184607626 -85.395838559296635 143 140 121
48.140051031072602 -1.296571066728779 -85.333165343534716 145 142 123
47.198087419486399 -1.343917876533607 -86.323211320000752 147 144 125
45.594559137864792 -1.844391158012763 -87.989832731855842 145 142 123
45.093835113528613 -1.608411967708331 -88.528729321746653 141 138 119
44.372681930029501 -1.526262310726030 -89.293166567559439 140 137 118
43.504574800741665 -1.550027977856108 -90.207929079625416 138 135 116
42.415927337914781 -1.732127854862268 -91.348132693274152 137 134 115
208.438162760036846 -1.446029480738794 79.876392808281452 156 155 151
204.106740432146012 -1.717888076654609 75.410654569861094 182 179 174
191.989921878220400 -3.528412962797922 62.934219663385591 185 181 178
189.936429955669382 -3.128381948883310 60.808436662394996 179 174 170
186.780636326523506 -3.125319409890331 57.551193941590412 175 170 166
184.065769627922805 -2.991212320901391 54.746817690722651 175 170 164
181.571378618895437 -2.799160553485688 52.168946826767836 178 171 165
178.489067822913171 -2.835662900781525 48.987816316626606 174 170 161
174.304362947316179 -3.293004908358996 44.675515995710242 173 170 161
172.765392962028272 -2.816055204872900 43.078807895297473 173 170 161
170.491517719802374 -2.621270262859037 40.727991565191928 171 168 159
166.894733975182362 -2.935619909503221 37.019830977600634 171 168 159
164.179896205797178 -2.945007715354997 34.216917952133628 167 164 155
162.053054285296184 -2.751242748543564 32.017489653861048 164 161 152
160.293739349358589 -2.432309334893658 30.195243708850228 166 163 154
158.534465802488285 -2.126329341826995 28.373111299516808 167 164 155
155.893204665184101 -2.177835835708440 25.646291899196740 164 161 152
153.545969524074422 -2.132874873653489 23.221254021830902 162 159 150
151.566282161671779 -1.958929075539530 21.173349265868239 161 158 149
149.439617237164896 -1.858604709604166 18.974798124364128 160 158 146
147.018950141446993 -1.893124723853040 16.474849095075626 152 150 138
143.863205263240445 -2.246165754131300 13.221248604918344 156 154 142
141.810115735053984 -2.167338282949228 11.098579409267160 153 151 139
139.904084917275384 -2.042383530390598 9.126800789193283 149 147 134
137.409979081145423 -2.178519960661347 6.552171705488320 151 147 135
135.577530690688775 -2.052597993792102 4.656040433300745 151 149 137
134.700854810495002 -1.531556907604625 3.739769212697638 152 150 138
133.015553688100795 -1.365611972331259 1.994548985169018 152 150 138
131.036218909085619 -1.339923311597555 -0.051998360284529 147 147 137
127.954077107884942 -1.812448977412987 -3.228721509893148 148 144 133
125.460114674608505 -2.047534266168393 -5.802400666723770 152 145 135
123.701427728838894 -1.973067890729181 -7.622430618044376 150 144 132
122.016315584314341 -1.878436688351356 -9.367007183860494 149 143 131
119.963600831159354 -1.962824500267851 -11.488175613700832 149 143 130
117.910915899049499 -2.062281958942175 -13.609203190382544 148 142 128
116.373002197667830 -1.939656316224779 -15.202769377840838 146 143 128
115.423439819290721 -1.555072864087469 -16.193626205489807 147 144 129
113.885658585921291 -1.452766287630867 -17.787046610834608 147 144 129
111.759606653919562 -1.639274057187789 -19.982938498589306 147 144 129
109.412946419663186 -1.946292462659770 -22.404628308973997 145 142 127
107.875294808970281 -1.882891899346844 -23.997710246224955 140 137 121
106.117055630165510 -1.937271540524826 -25.816628130950988 142 139 122
104.211757256495844 -2.076097248701108 -27.786041924981731 145 142 125
102.012278183207329 -2.373125458307941 -30.056527762542345 143 140 123
99.592142229481098 -2.795298059744356 -32.552740585519246 144 141 124
98.201810403080060 -2.722762760765692 -33.994676061187647 144 141 123
97.547148418133190 -2.291563794977930 -34.683656523437378 146 142 129
96.524786580008325 -2.050794348929108 -35.749064874188576 144 141 126
94.693288116376053 -2.229108681130429 -37.642518931051285 143 140 124
92.714680908774497 -2.496228883541865 -39.686400315452317 143 140 124
91.251092622324535 -2.512033807614411 -41.203239706361728 146 143 126
90.744031941229210 -2.041291907817161 -41.741521391882657 145 142 125
90.016370762686606 -1.689659620069831 -42.505619155269017 142 139 122
88.847340394128764 -1.575981116980472 -43.721271342718779 143 140 123
86.648212924272400 -2.017736288993304 -45.990435638827506 145 142 125
84.301900173841162 -2.554318008945683 -48.409928673764398 146 143 126
82.397103687717788 -2.870433961424067 -50.377757631529363 145 142 125
81.154661987920321 -2.841472233440230 -51.668276942343283 142 139 122
80.427470547277935 -2.540354402162014 -52.432079456054282 141 138 121
79.258791427746374 -2.487044148522274 -53.647278279116193 145 142 125
77.795769969876531 -2.605050873694323 -55.163336824394918 144 141 124
76.627226429100389 -2.569744884442641 -56.378415180930801 144 141 124
76.342098546628435 -2.047697888170204 -56.690820210961220 140 137 120
75.541826250194902 -1.818279776686507 -57.529781937447780 140 137 120
74.079091114651632 -1.970898167683218 -59.045621183082375 141 138 121
72.174656923477940 -2.386711489016272 -61.012597226408133 144 141 124
71.521882016781504 -2.096227205500068 -61.701032013510940 145 142 125
70.206550966665333 -2.194109270818165 -63.066234527011346 145 142 125
69.259453027133631 -2.086932597722615 -64.055414846422650 145 142 123
68.238810304233397 -2.029727205420947 -65.119756098984766 145 142 125
67.512832325773275 -1.805959445309301 -65.883342925704540 145 142 125
