ply
format ascii 1.0
element vertex 684
property double x
property double y
property double z
property uchar red
property uchar green
property uchar blue
end_header
84.561680800004282 -0.588975774022841 5.766416521237801 145 143 130
83.137847623523840 -0.534182931691816 3.897255068951836 147 145 130
81.590016640960371 -0.560349854657827 1.866529331760944 148 145 128
79.422056037013490 -0.945558786465863 -0.972421569626988 146 143 126
77.688224476720066 -1.105841229531189 -3.245361404327610 145 142 125
76.264504910227174 -1.105706137327544 -5.114014587562508 146 143 126
74.654762375093313 -1.224048622042009 -7.225032125777062 147 144 127
73.727261893757856 -0.964327985222622 -8.446875783506101 146 143 126
72.489707407097853 -0.892191051581721 -10.072754199175648 145 142 125
71.190170578799439 -0.866965144011620 -11.779356481226102 146 143 126
69.270445577488474 -1.217541501481131 -14.293983394838364 146 143 126
67.536807625294415 -1.474624620492601 -16.566019433004101 146 143 126
66.051290440696036 -1.598776593218477 -18.514688383286511 148 145 128
65.062010174632462 -1.437674339634814 -19.816820560125194 144 141 124
63.576562505546548 -1.585413116999341 -21.765279975561327 144 141 124
62.029116559614110 -1.783832973558458 -23.794416826978761 145 142 125
60.791844542851237 -1.805262551040918 -25.419467248176062 147 144 127
59.802733983997925 -1.683980976949911 -26.721270718104222 148 145 128
58.937736325201641 -1.493973983553679 -27.861439029420893 147 144 127
58.134826482309521 -1.272502843948902 -28.920774930389598 146 143 126
57.207905220013274 -1.136245512881879 -30.141624814692818 145 142 125
55.970856872512627 -1.205138049497348 -31.766293678416815 146 143 126
54.919959384069529 -1.165578640367764 -33.148556170639949 146 143 126
53.869109057957928 -1.135060435996940 -34.530748159498273 145 142 124
52.694225214920934 -1.194084101916688 -36.074399009398917 145 142 123
51.457340453551765 -1.303752500123628 -37.698726405740075 145 142 123
50.158449725702908 -1.464878006876684 -39.403719571308415 146 143 124
49.231863006999163 -1.390796527476767 -40.624089492843922 145 142 123
48.057142420216493 -1.490010147044470 -42.167404748594407 145 142 123
47.502945121186102 -1.183206592276214 -42.903166707765990 142 139 120
46.824721174865729 -0.964831128459670 -43.800402279080146 142 139 120
45.774253041643419 -1.005140923460479 -45.182048039528212 143 140 121
43.917132340717089 -1.606043368768275 -47.613189018759272 144 141 122
42.432342145469448 -1.966823853615844 -49.559770022107926 150 147 128
41.133742200629015 -2.211499541856377 -51.264042273280722 149 146 126
40.952240524936073 -1.688897026230742 -51.515168558752634 147 145 124
40.336407787447683 -1.472294717683270 -52.331374733614382 145 143 122
39.596519935681272 -1.348450072555943 -53.308996335644849 141 139 118
38.732564837748001 -1.318996967623308 -54.448010742675478 140 138 117
38.054868513312698 -1.163868969383524 -55.344847688554893 133 131 110
37.128960921565607 -1.192898101219665 -56.564481132778837 135 132 113
36.141031930790476 -1.274700413706485 -57.864759416360414 141 138 119
35.463521211964249 -1.139126923172861 -58.761483870955885 145 142 123
34.848156070838499 -0.963807021786385 -59.577488801759358 148 145 126
34.108706159059921 -0.885041233366649 -60.554855893461053 147 144 125
33.369320460159472 -0.812502987088143 -61.532189601163878 144 141 122
32.257493661651068 -1.023734082634969 -62.993581092569485 145 142 123
30.711092722197193 -1.570203873153770 -65.019635218688705 146 143 124
29.785581350327419 -1.661963156365278 -66.238812500182831 143 140 121
29.418945550636977 -1.337850795855773 -66.731904751202876 143 140 121
28.679836234313512 -1.300789830061196 -67.709005493912883 143 140 121
27.381911062822667 -1.698622934698077 -69.412024028116520 144 141 122
26.208197981102018 -2.011801342686793 -70.953618823781369 141 138 119
25.034505849201295 -2.335038939160309 -72.495120097487870 137 134 115
24.668216076374534 -2.038373011547137 -72.988095366651720 142 139 120
24.364132669458243 -1.695857455001065 -73.400443016384600 142 139 120
23.998040725309011 -1.404678532231944 -73.893456445612429 144 141 122
23.135121844946411 -1.510668847877537 -75.031572388408023 143 140 121
22.769202198091051 -1.227437653214159 -75.524586434112678 143 140 121
22.527626846101697 -0.847383560466539 -75.856365241153298 144 141 122
21.851286319955193 -0.819897348279715 -76.752536915261260 139 136 117
21.361400143876153 -0.646842726941078 -77.406829465330730 137 134 115
20.498806630878732 -0.781771951132685 -78.544803180035274 138 135 116
19.201305612990595 -1.280629614826120 -80.246984731331850 137 134 115
169.466824101909310 -0.680211178166887 115.141097425329463 150 149 143
165.298447355995165 -1.064995238296089 109.711650058533280 151 151 143
163.432883131299320 -0.598299856377758 107.273559111380791 157 157 149
157.832928335692827 -1.604108715048367 99.985611943575037 156 156 146
153.104279234617223 -2.315247413308112 93.829826318987529 155 155 145
153.168098119533056 -1.157261812323248 93.898234740604181 152 152 142
147.505782216859984 -2.306334995417162 86.530736719403620 157 155 143
146.449260946448220 -1.628737208360647 85.144596975650757 158 156 144
144.085673805841054 -1.498531518729734 82.061351062467395 159 157 145
139.605852257463368 -2.269394685551454 76.230577503218541 158 156 144
138.922780516736111 -1.483293318360305 75.329817212207359 156 154 142
135.501043782365514 -1.866393541059077 70.873469109617474 153 151 139
132.639477579158893 -2.038999707558903 67.144700588243381 153 151 136
130.462581372019599 -1.939841373419476 64.305038613200338 153 151 138
128.098953871448970 -1.941445461021066 61.223168792337873 152 150 137
126.357770427191880 -1.688504216374866 58.949492554721928 151 149 136
123.931902159973646 -1.756459857002760 55.787222608227097 151 149 137
121.755015881102025 -1.733343970681156 52.948338626650695 150 144 133
120.138347307444235 -1.474251518195686 50.836749354109855 152 145 135
118.957417634089467 -1.029071495230621 49.290800786850014 151 145 133
117.154042408760020 -0.882930970642767 46.937117352666661 149 143 131
114.790455239350166 -1.014800664862203 43.856569126843794 148 142 129
112.738112876118137 -1.020203245205337 41.180115087671027 147 142 129
110.748030338838845 -1.013807256850165 38.584613597496997 145 143 128
108.571214320215176 -1.114610829094630 35.746971568897663 145 142 127
107.265901300785217 -0.811227939876114 34.040269387339180 146 143 128
103.783848700924025 -0.669297907537564 29.496512902966458 145 142 127
100.797828531232398 -1.241786397927522 25.609681152368722 139 138 120
99.181345159152656 -1.151495561055118 23.499740839855946 140 139 121
98.062905463820698 -0.822644719066574 22.035953600926717 142 141 123
96.446475776217099 -0.758301303814230 19.926254695790163 139 138 120
94.705563752858339 -0.772243120868788 17.655195772771435 139 138 120
93.400456104898254 -0.574586641610207 15.949483637255838 141 140 122
91.721850599304815 -0.584220397042068 13.759432029585071 140 139 121
90.105526263758946 -0.575497989624230 11.650255259360449 140 138 123
88.177945641318033 -0.746808476138197 9.137541174304801 140 138 123
86.686186754919291 -0.700547142931052 7.190104083002666 143 141 126
82.211095574216500 -0.639357845732995 1.348502798073042 147 144 127
80.283636083097832 -0.886691493159635 -1.163486691205975 142 139 122
79.103335562952040 -0.732829955134341 -2.706737555693138 145 142 125
77.487238077561116 -0.834844822823772 -4.814882975851987 146 143 126
75.933432288637476 -0.915483828235990 -6.842189677650993 147 144 127
74.566449870021657 -0.902654839007278 -8.627257497690067 146 143 126
73.199503337390354 -0.901641362799415 -10.412220862449971 144 141 124
72.268457995962962 -0.659182448625168 -11.632190987679053 145 142 125
69.905310787953454 -1.263097557922321 -14.708090688935101 141 138 121
68.102582644478431 -1.556993848833862 -17.057554164862182 147 144 127
66.424414170585749 -1.792498541193227 -19.245489843978930 147 144 127
65.804873768857590 -1.409027309063701 -20.061639950635453 150 147 130
64.438132713613456 -1.481257208470123 -21.845947684213513 149 146 129
63.195973415199973 -1.489661899365283 -23.468794118322194 144 141 124
61.829305365553694 -1.584919103883729 -25.252899745908650 146 143 126
60.898602032872304 -1.423515487316851 -26.472199144052553 149 146 129
59.905674519561359 -1.308708222091826 -27.772109952738020 149 146 129
58.725962559827252 -1.319089685758497 -29.313951746783687 147 144 127
57.670852457258150 -1.261284354743118 -30.694386753288484 147 144 127
56.615790330709373 -1.212527895055124 -32.074751566778616 147 144 127
55.560776220883938 -1.172816114907095 -33.455046249874442 146 143 126
54.443526133078208 -1.182122770741786 -34.915921767965727 146 143 125
53.077178944702581 -1.362008280556673 -36.699309772824222 144 141 122
52.209160650877877 -1.229472737183316 -37.837441440190872 146 143 124
51.092044848594753 -1.267508695755298 -39.298085474870447 148 145 126
50.224134522431257 -1.150851493265344 -40.436105349856859 147 144 125
48.920237775945012 -1.330947153362080 -42.138508383950096 142 139 120
48.114724048143756 -1.189358414695233 -43.195776325621296 137 134 115
46.997793970344887 -1.264017104439087 -44.656132234087920 145 142 123
45.943204233963414 -1.306076549815087 -46.035788223682061 141 138 119
44.514866231470876 -1.611707414071413 -47.899084560371932 144 141 122
43.024250493036632 -1.972314350092801 -49.842880430253643 150 147 128
42.343590955006391 -1.787095933580120 -50.738609520697679 148 146 126
41.289170254504214 -1.867076328256448 -52.117956037096121 146 144 123
40.920170194602903 -1.477347606521834 -52.610592656304220 144 142 121
39.554315300368472 -1.791271717265787 -54.392836446337839 142 140 119
38.936216627912216 -1.588137250897279 -55.207819974412757 136 134 113
38.380504637589297 -1.345824305094725 -55.942193476226521 131 129 108
37.450977556631869 -1.375790589730824 -57.160085722634278 134 131 112
36.770773234737661 -1.234100434054804 -58.055584528661967 138 135 116
35.654397451100252 -1.414218418069180 -59.515120064061307 142 139 120
35.223606190531726 -1.104092712502723 -60.088235475758694 144 141 122
34.543604178039175 -0.980288028865806 -60.983646961762105 146 143 124
33.925999700650436 -0.816180507294281 -61.798465187115113 144 141 122
32.685170260477534 -1.119759349559664 -63.418909445024866 145 142 123
30.758705383803090 -1.945787456707025 -65.925417961659718 146 143 124
30.515256852523464 -1.524725699223971 -66.256722758642184 145 142 123
30.209577236334454 -1.152561008394092 -66.668611980763956 145 142 123
29.779318676653986 -0.877466083388841 -67.241621645317991 145 142 123
28.039936300455395 -1.606068362795332 -69.506055987141366 145 142 123
26.923990521850044 -1.870624448766158 -70.964928071672603 143 140 121
25.683373142314835 -2.241052092379908 -72.584785670370337 139 136 117
25.128647305669105 -2.089056749221447 -73.318701260267346 145 142 123
24.948135093691718 -1.649198764546926 -73.569449170764813 141 138 119
25.017176008436891 -1.014520336994946 -73.498152286695841 144 141 122
23.104646953206895 -0.798993062938308 -76.022048905312943 143 140 121
22.425702026545565 -0.771068468503373 -76.916979155630401 143 140 121
20.576424279688666 -0.568126891772774 -79.360146547540324 138 135 116
182.419818391655355 -1.268986349566427 130.013678049768032 133 133 128
173.802229720569187 -0.697467484369305 118.831893881582573 150 149 144
169.679975821561612 -1.026145240066970 113.490662857465651 152 149 144
166.932320128603919 -0.868823191729321 109.925721591424889 150 150 142
163.184897756053545 -1.119373606515869 105.069521555420806 159 159 151
156.125772021676056 -2.688593078735764 95.935681878411259 155 155 147
155.377531597888463 -1.841050414253882 94.954606730937655 154 154 144
150.567766030308178 -2.612549534983633 88.727389381112573 152 152 142
149.569572950527913 -1.896141997694384 87.423805027558757 157 155 143
147.384155070620892 -1.670121156421894 84.586913932041796 158 156 144
144.948785766591556 -1.565631902893641 81.427414187066148 159 157 145
141.076215432194971 -2.077827958850896 76.412059987221056 158 156 144
137.828490447136204 -2.362081376182961 72.204024435160250 156 154 142
135.080649050778618 -2.463124585973355 68.641831492382948 153 151 139
133.645044678589784 -2.027322780107216 66.774379423111441 155 153 138
131.584567676126511 -1.873777509626867 64.100180837386603 154 152 139
129.899026381284244 -1.574704965016268 61.910269618491469 152 150 137
128.338473234061922 -1.235284551340265 59.881866947154123 151 149 136
126.652953737095970 -0.965027088423587 57.692241908341003 151 149 137
123.280214152813159 -1.466945393158659 53.324535676225366 149 145 134
121.032292899804929 -1.488267548319571 50.409233120952621 151 144 134
119.409287956520757 -1.243149029500514 48.300818986640934 151 145 133
117.286367234969475 -1.243083577324369 45.547214222039599 149 143 131
115.100964024829267 -1.290592388107631 42.713131686674615 149 143 129
113.290525487822123 -1.180619187021466 40.363199605016547 147 143 128
111.230130889425297 -1.205082671733779 37.690793931009893 142 143 127
108.669799948933729 -1.487025013346967 34.373335369279545 143 141 126
107.359357526111197 -1.186754968277857 32.669119118790604 143 141 126
104.238593738328362 -0.866422884398210 28.615840232698787 144 141 126
101.740808971300766 -1.192037071769201 25.379768217141304 140 137 119
99.930493648903607 -1.194956652137783 23.030939252148215 143 140 121
98.807668870341899 -0.866246772481929 21.569251273001441 145 142 123
97.434888326840834 -0.674636701121629 19.785116972542852 144 141 122
95.249657684490785 -0.912402604651001 16.952910293171158 142 139 120
93.876931666949346 -0.748069867442807 15.169030686983774 141 138 119
92.004238322790599 -0.856858378872133 12.740274030958375 142 139 122
90.006564989250094 -1.047697686821186 10.150434193684021 145 142 125
88.383919122907102 -1.056627304285783 8.044463323284049 143 140 125
87.511328278363877 -0.677961656685985 6.905985607699762 143 139 127
82.081130238634842 -1.129682055364005 -0.136299466347765 146 143 126
80.458628001139445 -1.207864797930960 -2.241626191089608 145 142 125
79.711245541394760 -0.812541068172523 -3.218456868950113 145 142 125
78.401350565988324 -0.739463469168985 -4.920596410427407 146 143 126
76.591426850443710 -0.960575934236698 -7.267366749823537 147 144 127
74.719016781041972 -1.232934215138101 -9.694575217714231 146 143 126
73.284199848953278 -1.270104728054753 -11.557535453952426 143 140 123
72.474531339838236 -0.957864986706074 -12.614572358982770 144 141 124
70.664719124202747 -1.235710278249452 -14.960812060070253 145 142 125
68.667387804466188 -1.639307020019105 -17.548625496429594 145 142 125
67.170187978096436 -1.764208213508426 -19.491697798827630 147 144 127
66.048114615185185 -1.678425092125301 -20.951244685487126 150 147 130
64.550984644703320 -1.827453610642049 -22.894102052025431 148 145 128
63.616549641965378 -1.649126870105479 -24.111790430221873 143 140 123
62.494609284126568 -1.593007877383088 -25.571095598273871 145 142 125
61.685318419645085 -1.354768885491349 -26.627551440313539 148 145 128
60.313388000361243 -1.470973205750253 -28.408923949118019 148 145 128
58.878969417513986 -1.637837398720920 -30.270739752066561 147 144 127
57.819731675584222 -1.582052181396510 -31.649179316004535 146 143 126
57.510857130758225 -1.062135178530427 -32.061060983989847 146 143 126
56.326678655955277 -1.100589770219344 -33.600477041727061 145 142 125
54.767368129327721 -1.389022066441482 -35.623011375148479 144 141 123
53.458204788312074 -1.529851585544976 -37.323299074586117 142 139 120
52.774400284604738 -1.276699499733658 -38.218222899615341 143 140 121
52.153197330327330 -0.988521206378655 -39.032596748741156 145 142 123
51.094316949061820 -0.992999603936382 -40.410586949134171 145 142 123
49.910410476075256 -1.089168881622120 -41.949539045351656 142 139 120
48.538928236513811 -1.320266736351681 -43.729943304931197 138 135 116
47.605261560289250 -1.269942290383592 -44.946681655977216 142 139 120
46.108765978705847 -1.606910346132869 -46.887907955920582 144 141 122
45.175191707778339 -1.574876459256682 -48.104502239430815 144 141 122
44.429310752115882 -1.422663097806653 -49.079548774548300 147 144 125
43.808592276612742 -1.190781705982523 -49.893574904370524 142 139 119
43.000296658734200 -1.093807449902862 -50.949052760082566 132 130 109
41.629091176794432 -1.395291762545553 -52.728864896389325 143 141 120
40.633237309130465 -1.445760224118404 -54.025674481099685 142 140 119
39.449762154854540 -1.636859906663683 -55.563855752363736 134 132 111
38.829352471221782 -1.439011077296505 -56.377679292896403 132 130 109
38.083895289779363 -1.335536218517571 -57.352426870256124 135 132 113
37.401067628733188 -1.193421104611649 -58.246675054134101 139 136 117
36.468047341086915 -1.237627956388384 -59.462749577124157 138 135 116
35.535078726585411 -1.289713599070266 -60.678767720016793 142 139 120
34.664732065377180 -1.303969390508139 -61.814274507457327 146 143 124
33.794441153487838 -1.325549741049908 -62.949732569814557 143 140 121
32.861629749890767 -1.400706101273385 -64.165588443379619 146 143 124
31.490818466803077 -1.809434611442250 -65.944485244665970 144 141 122
31.309061434063736 -1.340599397694093 -66.194935914353550 145 142 123
30.814498793168042 -1.108423816530340 -66.847599821423614 145 142 123
30.194850086771808 -0.974964224227933 -67.661124620094313 145 142 123
28.636432911582801 -1.561050227311256 -69.681022430648653 143 140 121
27.891708145342065 -1.537735102394983 -70.655295268520916 142 139 120
26.959260475402544 -1.665161579235717 -71.870787108452419 139 136 117
26.590246226496063 -1.364329429911812 -72.362501882611468 135 132 113
25.970925527681672 -1.261308085443947 -73.175870282809171 140 137 118
182.111409308148069 -1.801726867969864 127.616949310791000 131 130 125
180.670362537895983 -1.071595784240782 125.749071186982519 144 143 138
178.476574375578451 -0.628942739606645 122.913954501783905 151 148 143
174.589120736458824 -0.831174232268286 117.902529802939881 155 152 147
171.015267271715743 -0.949906950603363 113.294514785377544 156 153 148
160.168053170606811 -1.540730573606105 99.311279383323750 152 152 144
156.594074275990550 -1.784048922195304 94.704606793461522 152 152 144
154.086474338169580 -1.636713532727059 91.468362014384098 153 153 144
150.888830108868859 -1.786961636158561 87.345847501337090 158 156 144
147.816627376504925 -1.914247780601571 83.384803616994930 160 158 146
144.618946123219843 -2.119400948451116 79.262871981505072 160 158 146
141.797635874360196 -2.196950508466678 75.624725569074883 159 157 145
138.599924288610737 -2.455897692473325 71.503362173364167 157 155 143
136.217715899881995 -2.398984556920877 68.429779038532104 154 152 139
134.086434965340572 -2.255930438193600 65.678701916992651 157 155 140
132.331553791891167 -1.969542137978304 63.411234338725080 155 153 140
130.639414326365880 -1.671140156483830 61.224486564511153 152 150 137
128.821817632962706 -1.442438526955971 58.876756788978838 151 149 136
126.816027986994698 -1.312837121085309 56.287501310506485 151 149 137
124.935716372558943 -1.144506770506954 53.859536685209093 150 146 135
122.051651967149425 -1.445624399564558 50.142854059694201 148 144 133
120.296828009993376 -1.257005446163876 47.876365498349912 149 145 133
117.726448174191503 -1.458809539280765 44.562889390441455 148 144 132
116.097122825704034 -1.245819427054035 42.457829630143493 147 144 130
113.965918525374263 -1.282169398619027 39.708562543486238 147 144 129
111.583774675876882 -1.455645850023207 36.637320049063362 143 144 128
109.766284099128242 -1.380187789829912 34.291116920729422 144 142 127
108.638940329398537 -0.988049251376835 32.830937908418775 143 141 126
107.699847135127314 -0.514195504557096 31.612435985149261 144 142 127
105.255028017972336 -0.786657225974664 28.461337144130709 143 140 125
102.998439749087467 -0.987135092428722 25.552024999281741 139 136 119
101.243794851239159 -0.956691279743619 23.287078952762101 143 140 123
99.802883003503268 -0.783535998631990 21.424869514221427 145 142 125
97.671831947460205 -0.973055498772645 18.677105766925990 144 141 124
95.917256878676596 -0.988283310283954 16.412596435392459 143 140 122
94.601914594362555 -0.791961079684271 14.711794248918949 142 139 121
92.910138409932230 -0.802883976311342 12.528056718636350 141 138 121
90.653679007416500 -1.124688721089444 9.619931803066123 140 137 120
88.899203085627690 -1.200381698273588 7.355997438275551 143 140 125
88.274200143598208 -0.688815209718399 6.541142043351272 142 138 126
84.639907511204029 -0.973970692057249 1.852895104618170 145 141 126
82.383550276974475 -1.379936861363745 -1.054412372088223 147 144 127
81.193962888010475 -1.218011345356099 -2.593303436941852 146 143 126
79.816163150235525 -1.170748769293555 -4.373550730781119 145 142 125
78.877666427951638 -0.889688414478619 -5.590353484969796 145 142 125
76.935167499753618 -1.182422443047260 -8.094680830170660 144 141 124
75.620230883039369 -1.135539861226956 -9.794138829256440 145 142 123
74.242578229921151 -1.135831699884157 -11.573966986411335 145 142 123
73.053231945620610 -1.039414128393488 -13.112299088728179 143 140 121
70.859810841277607 -1.536281838586840 -15.937920414099494 147 144 125
69.482259261729084 -1.574701273582083 -17.717404458000857 145 142 123
68.230264027456059 -1.550945847591907 -19.335876454348011 146 143 126
66.915549563978431 -1.575157024215385 -21.034708927010712 147 144 129
65.349826244779052 -1.760730424383814 -23.055234180735908 144 141 126
64.097948477530807 -1.770717523443802 -24.673415044143979 142 139 124
63.348228249466246 -1.486831168695875 -25.647980260771106 145 142 127
62.410272638979038 -1.324323886358729 -26.863821554657676 146 143 127
61.221303181606928 -1.324247629538017 -28.401342240135790 146 143 126
59.404692655254479 -1.723170086334375 -30.743083344593060 146 143 126
58.843496645987727 -1.354516534058918 -31.476133797872279 143 140 123
58.031287539759560 -1.148280364776997 -32.530864141933250 146 143 126
56.905275642042525 -1.147417180663771 -33.987652723467392 145 142 125
54.774920511274672 -1.795696535602922 -36.731027153382485 144 141 123
53.335097328495422 -2.019567183130492 -38.589670618174608 140 137 118
52.711411796394145 -1.729021599779556 -39.402881178284190 140 137 118
52.401693633639667 -1.239754519417310 -39.814043767294692 142 139 120
51.338694283443928 -1.245707712789641 -41.190048286255916 144 141 122
50.024613620277364 -1.426012510154602 -42.887577216761940 143 140 121
49.024489285825169 -1.409487118065007 -44.183033426189326 138 136 115
48.652278397107338 -0.982654787142457 -44.674515921986000 143 141 120
47.715064295983524 -0.938187953767373 -45.889496901770713 143 141 120
46.338376632919449 -1.198595780876278 -47.667109202319551 143 141 120
45.024509254953912 -1.428038099280891 -49.364234370546001 146 144 123
44.401405494594357 -1.196010932451014 -50.177120888804296 141 139 118
43.150418013121907 -1.401573201954553 -51.793714508397954 126 124 103
42.715838145305355 -1.052079436305317 -52.365422698593363 144 142 121
41.150944663098414 -1.494291435534605 -54.383703233467031 143 141 120
40.151282576068070 -1.553314868091614 -55.678602918472023 138 136 115
39.340083250385163 -1.487773525590541 -56.732368095553568 132 130 109
38.842980502299142 -1.205985515083180 -57.384327509708925 135 132 113
38.094726749471278 -1.107778190155755 -58.357682995531576 139 136 117
37.032482316222456 -1.241588393966977 -59.732732567734274 138 135 116
35.970280646564632 -1.384372996384485 -61.107710219899104 141 138 119
35.096570583525704 -1.399017531848979 -62.241603965895081 145 142 123
34.285736127868759 -1.375007961685818 -63.295116188149933 145 142 123
33.726249987576267 -1.172758323945435 -64.027271757798985 146 143 124
32.350128921445716 -1.579941142782983 -65.803644287655459 145 142 123
31.916427039968994 -1.296796435050141 -66.375089539322346 144 141 122
31.105839228585594 -1.299580350378298 -67.428443956546147 143 140 121
30.546642981193955 -1.119711178875020 -68.160507836583349 141 138 119
29.422008328289778 -1.373049280220132 -69.615338665784179 140 137 118
29.177145825549076 -0.965239881724309 -69.945830610477913 143 140 121
28.806713695527250 -0.655575330023196 -70.436957991526185 143 140 121
27.311981824393555 -0.629665423902310 -72.382763329658985 142 139 120
25.817510922643521 -0.628495416389818 -74.328438854445778 145 142 123
179.213102830240445 -0.784406969229470 121.898048775573130 153 150 145
175.310479834608202 -0.988012891914416 116.893895192587166 156 153 148
166.497552838732361 -1.875870417118991 105.598864533890520 150 149 144
162.909679795248707 -2.065073332997430 100.998281819887040 152 151 146
162.218565531238397 -1.169463649381442 100.100241820333764 154 154 146
160.142028890071799 -0.819536587530495 97.431704654284488 154 154 146
152.460760924225241 -2.694683997980925 87.600914793953478 154 154 146
150.699049538875272 -2.279485335114648 85.335388855875664 158 156 144
148.559485757542689 -2.031593950188229 82.587195077203233 160 158 146
145.664210671782001 -2.109547670976666 78.873578464525536 161 159 147
144.091418913760862 -1.668978908792444 76.849989531880198 159 157 145
141.762916446844855 -1.555868389569171 73.860994085160627 158 156 144
138.678689986468555 -1.779958962195476 69.906698767695360 159 157 145
134.775748433585193 -2.377686606230061 64.906754474273981 158 156 141
132.888070549988868 -2.146167238527653 62.481663410596923 156 154 141
130.748487505981302 -2.039899101087850 59.734936646353901 154 152 139
128.356995214918214 -2.062125161969089 56.666609518081032 153 151 138
126.721253323777063 -1.771649648999856 54.563821813639294 151 149 137
124.707649166947704 -1.663587490243200 51.978526484668095 152 148 137
123.071934759329707 -1.402980265082922 49.876033081494057 151 147 136
120.806432912797518 -1.442381193308459 46.969327115795124 150 146 134
119.044786661011443 -1.270423043436068 44.706273814837317 149 145 133
117.409120369279194 -1.055388981909749 42.604226500655784 150 146 132
115.017690399947611 -1.207268841754864 39.537204149565355 147 144 129
112.374338469264885 -1.498424056320114 36.148698492779289 144 145 129
111.368550893203775 -1.033817732603009 34.851339236599898 146 144 129
109.481026208319633 -1.000865774655874 32.428218837284334 146 144 129
108.034410197591029 -0.770767634447700 30.568152109312763 145 143 128
106.209913140096987 -0.737643520462079 28.225736621926274 142 139 124
104.007524784557347 -0.906359489560333 25.401027368069890 141 138 121
102.435011913324502 -0.781049322301271 23.380550132030805 144 141 124
100.421619425180438 -0.890217877815753 20.797389606355381 146 143 126
98.345258442224107 -1.048521204246634 18.133999876719997 145 142 125
96.520867752239866 -1.096227762772203 15.792365534199348 143 140 123
95.389377924561302 -0.803436101503336 14.335192609114443 142 139 122
93.879990608770143 -0.716243025704440 12.395767567019561 141 138 121
91.362789757243931 -1.168713282501567 9.170289932983110 142 139 122
90.105418579247740 -0.978979386261842 7.552681269911176 142 139 124
89.163045732940944 -0.632711541034760 6.337061626712540 143 139 127
87.527800447378439 -0.665554443867735 4.237364426739305 140 136 124
85.199655747623396 -1.086438127611997 1.253694496023030 145 142 126
83.501466531410728 -1.184550843592278 -0.926077573225939 147 144 127
82.055286839381395 -1.159030314659685 -2.784247214443837 146 143 126
80.483150046845196 -1.215513081463630 -4.803033079247058 146 143 126
78.911045097799843 -1.285447822759373 -6.821695709936023 144 141 124
77.023981006495021 -1.545615040247768 -9.242019232717951 141 138 121
75.892929007058640 -1.394400570407350 -10.697944288179656 142 139 122
74.824923165058081 -1.216933188813870 -12.073441758742945 137 134 117
73.315956779277045 -1.301754270883683 -14.011297544172379 143 140 123
71.744021708853069 -1.435905545021975 -16.029380431179334 147 144 127
70.298124896187574 -1.510060241647883 -17.886659393746072 147 144 126
69.104282213008844 -1.448621331935947 -19.422480381314557 145 142 125
67.595455142148126 -1.583620494658202 -21.359886306332868 147 144 129
65.834632623595581 -1.881596599014150 -23.618496409092558 144 141 126
64.829932063271627 -1.741049793787866 -24.913039982457320 142 139 124
63.951302954539997 -1.532891938245047 -26.046873890791886 145 142 127
63.261764418970088 -1.217150024572880 -26.939698843173289 145 142 127
61.690120783464053 -1.447767934139302 -28.956928172106927 146 143 126
60.244532793140422 -1.614019784940559 -30.813406871949866 146 143 126
59.492143875225366 -1.361882682193584 -31.786368585499758 145 142 125
58.361720619920192 -1.352633020033827 -33.241133114916153 146 143 126
57.168326771208228 -1.392667666463925 -34.776124305065707 146 143 126
55.281761768831728 -1.882496687182451 -37.194322565967411 144 141 123
54.151459860178633 -1.905529850261915 -38.648812843868569 141 138 119
53.021204359089666 -1.938139298668186 -40.103226749473691 142 139 120
52.332166141126294 -1.694820326439603 -40.995545566364683 142 139 120
51.328066878799191 -1.662550445717253 -42.289262249852499 141 138 119
49.945852995225877 -1.886739114793411 -44.064603647440578 140 137 118
49.256996926876766 -1.665038588519321 -44.956787074558292 138 135 116
48.694274550141984 -1.365332126282163 -45.688397611838923 141 138 119
48.194664229731430 -1.028126865077628 -46.339727849590105 144 141 122
47.190854403720309 -1.034383726310649 -47.633186423310235 141 138 119
45.682798530671178 -1.390643978549827 -49.568683735171732 145 142 123
44.111723159800334 -1.802690511485525 -51.584317383996733 146 143 124
43.360200375376039 -1.665991709106601 -52.556505188422818 133 131 111
42.987006456358500 -1.274481611430329 -53.047153816402556 143 140 120
42.172586499069055 -1.192451291855237 -54.099547983687302 142 139 119
40.916894918469936 -1.425635673681072 -55.713606850104782 141 139 118
39.661235363521556 -1.669446171806088 -57.327571657530598 135 133 112
38.846974396046164 -1.611636767657152 -58.379792566947401 134 131 112
38.221941171545311 -1.425977039449875 -59.191278752835416 137 134 115
37.344756084091657 -1.426076876230297 -60.323659774952887 137 134 115
36.152329777520791 -1.660648989014119 -61.857111362077944 140 137 118
35.779746605839975 -1.311157209840463 -62.347619653829497 144 141 122
34.776612219366058 -1.424369943006610 -63.640300404989205 145 142 123
34.278065422209011 -1.175988499956553 -64.291225120437900 145 142 123
32.770481888742793 -1.676050486275431 -66.225468174448167 145 142 123
32.208996398098719 -1.486905019244273 -66.956532373930202 143 140 121
31.710670635762725 -1.255245011991023 -67.607390709540852 144 141 122
31.338592603544015 -0.932887481229284 -68.097861351829636 145 142 123
30.272716498521334 -1.137327664746438 -69.470446514841484 140 137 118
30.090065509827426 -0.680083098568089 -69.720350210706556 140 137 118
29.339744796385787 -0.657678390617783 -70.691936595240037 142 139 120
27.902397760397093 -0.582708230315962 -72.554840758729000 142 139 120
27.152279798596126 -0.578590573270517 -73.526335901150816 142 139 120
26.086722672870465 -0.827075099713750 -74.898620292217259 144 141 122
25.028536076784633 -0.503633950208322 -76.280317837692678 143 140 121
23.402671814820835 -0.650653593282777 -78.383327608655321 145 142 123
22.400468204901060 -0.886259594259308 -79.675193784737388 142 139 120
21.524543072877208 -1.028354943904405 -80.806715934067427 141 138 119
184.306842243997892 -0.610197564930746 126.443537824985100 146 144 139
177.354706814696783 -1.878631872003980 117.587994874714070 151 149 144
175.586274851291478 -1.306982651094346 115.324073613953772 155 153 148
173.691395228732659 -0.797516878481626 112.899566795536799 158 156 150
165.160256300521269 -1.626375340021303 102.023416808759634 152 152 145
160.041183885359658 -2.423263452206548 95.500996596563766 154 154 148
156.376095251795618 -2.700102857550632 90.827396757672290 155 155 147
153.469608413942012 -2.710933816974330 87.118452880462854 156 156 148
150.247008314239167 -2.872113494716328 83.007989694460662 159 157 146
148.541665416082793 -2.452937950748502 80.826315214209870 161 159 147
146.267342354739696 -2.278943864067707 77.921632705350930 161 159 147
144.688442360545110 -1.839873353747429 75.900981354212718 159 157 145
143.235991110221420 -1.362125309864183 74.041156999994826 160 158 146
141.277778242704358 -1.108268187114969 71.538720812196971 159 157 144
137.233248357481102 -1.752060827136635 66.385268291946716 158 156 141
134.326697605301916 -1.945272198248123 62.678232324329173 157 155 142
131.167249845769618 -2.272381658039381 58.650124158780443 155 153 140
128.007793305993516 -2.626620242184734 54.622299447375781 157 155 142
125.923130885427284 -2.535831178955169 51.960317063937993 154 152 140
125.102959624248200 -1.902069790829742 50.904995055665751 151 149 137
123.144774046355622 -1.785056857151285 48.403954418587801 150 148 136
121.502726681297631 -1.541934827593750 46.304670664447684 149 147 134
120.556179856109281 -0.995500452576177 45.088987423792616 149 147 134
118.977402870515519 -0.748482372050896 43.070254117900106 148 145 130
116.513474497831325 -0.926585458381677 39.927325798393070 149 147 132
113.733417801673269 -1.274157407442535 36.383082188774182 144 145 129
112.217919466127668 -1.046780013587290 34.445137649974754 146 144 129
109.690793066200243 -1.315752640074731 31.222519530981430 146 144 129
108.175337816534039 -1.118694992037891 29.284866476420007 145 143 128
106.659909998362963 -0.934624173001488 27.347333978680268 142 139 124
105.207740675412097 -0.732513479901550 25.490212025093427 143 140 123
102.870369889472627 -0.980927767249038 22.509180508245095 144 141 124
101.734410456601722 -0.649657347109701 21.053749745768499 145 142 125
99.460310087425569 -0.901107396398786 18.153340011956629 144 141 124
97.755320098758801 -0.883077488065102 15.975625894561460 143 140 123
96.492992674901998 -0.653004046039035 14.359973047311115 142 139 122
92.577279760211141 -0.949365999409344 9.363036421154760 143 140 123
90.682692159799146 -1.089459712491983 6.945076142440655 143 140 125
89.483732122443598 -0.877704120200553 5.410155994443159 143 139 127
87.905388525109885 -0.878543819030805 3.393766681728522 143 139 127
86.453553980074972 -0.824853743365020 1.538012339509635 143 140 125
84.495840916190218 -1.057705551915019 -0.959653013101246 147 144 127
82.854350616566720 -1.134562446212586 -3.055909561628937 147 144 127
80.959926371384739 -1.364663940588313 -5.473021493616272 144 141 124
79.318493485471393 -1.470594768409871 -7.569006236062847 142 139 122
77.424118583750854 -1.731929419429716 -9.985820275221471 143 140 123
76.288695185153927 -1.581921038785153 -11.439641653426634 134 131 114
75.532789394057403 -1.226183731149461 -12.411987315854532 143 140 123
73.954742427899916 -1.347001689329951 -14.427283539411661 144 141 124
72.503222278211226 -1.408374838016436 -16.282003883715504 147 144 127
71.051738502033075 -1.482090568773077 -18.136614580584506 146 143 126
69.979788847153941 -1.346264021209844 -19.509796714561759 145 142 125
68.781387889301399 -1.294020344434228 -21.043342387998848 146 143 126
67.266772287980274 -1.439550813378167 -22.977870695860901 143 140 123
66.005203308962706 -1.446774977119389 -24.591443757058386 141 138 121
65.186460082324373 -1.198236258818899 -25.643483641700300 143 140 123
64.051498650882280 -1.148273109912390 -27.096496207580117 140 137 120
62.600299015350672 -1.300953413528485 -28.950430014343624 144 141 124
61.022616387920095 -1.543706862643664 -30.964645393035539 145 142 125
60.646906279427355 -1.055973961357054 -31.455080754250872 145 142 125
59.322354290826254 -1.162661331799467 -33.148358019719183 145 142 125
57.808051958309562 -1.399650634447317 -35.082094762583182 145 142 125
56.040719908063991 -1.809353050198212 -37.336440672644102 145 142 124
54.906067689395655 -1.831681626445378 -38.788857029811766 143 140 121
53.834730747908168 -1.823074571520324 -40.161022749628046 142 139 120
52.763444137468682 -1.823495359251642 -41.533119619525564 145 142 123
51.692207676291346 -1.832940351341509 -42.905147589989326 143 140 121
50.557747894174256 -1.892733967426414 -44.357270361667616 140 137 118
49.486609211133668 -1.920489244759803 -45.729156631892579 139 136 117
48.605350653117540 -1.831639637133093 -46.860504520971290 142 139 120
48.230383295844845 -1.413000221016325 -47.350583997871922 139 136 117
47.855507746831691 -0.997367527336740 -47.840676445824670 140 137 118
46.404917451768213 -1.310485002112506 -49.693250298580040 142 139 120
44.511357433799077 -1.936625945676099 -52.106699040900025 144 141 122
43.630382308293505 -1.887067621167382 -53.237778078204940 143 140 121
43.572225585498344 -1.279229029876486 -53.327071774256808 143 140 121
42.944564071462423 -1.065690005884818 -54.137587571037102 139 136 117
41.747338734817077 -1.253825561437063 -55.669221313435486 144 141 122
40.233671245954667 -1.673694232000803 -57.601379294123007 135 132 113
39.289700605772879 -1.704935638236187 -58.812348665839011 135 133 112
38.852189524405844 -1.385034091491488 -59.382349965944172 136 134 113
37.718437355638287 -1.565308616261493 -60.833571086905891 137 135 114
36.964557783931511 -1.482546062044264 -61.804076219476855 139 137 116
36.527288070302362 -1.177508032545918 -62.374039991430692 143 141 120
35.836869842610653 -1.059853294778152 -63.264405091304297 146 143 124
34.640017160059472 -1.317872336849422 -64.795497764310824 144 141 122
33.063296562308622 -1.865106420310693 -66.807039202576675 144 141 122
32.373039338340760 -1.770503581555647 -67.697244041303122 145 142 123
32.126109678789263 -1.352036235348388 -68.026856772874055 145 142 123
31.562669447166726 -1.172125057921025 -68.756890777790460 143 140 121
31.315954957541351 -0.758633456285131 -69.086555228078055 139 136 117
30.372715307741359 -0.873850546512563 -70.297009899185980 140 137 118
29.682861625068199 -0.804206300796058 -71.187150879348309 139 136 117
28.676394640514488 -0.982471156268464 -72.477567712835537 135 132 113
27.923331532126781 -0.974213388259384 -73.447696523467300 140 137 118
27.550399377647537 -0.678099891269559 -73.937488413570890 140 137 118
25.291869198870486 -0.703977567783469 -76.847668802850336 141 138 119
23.976596485391070 -0.600913645459807 -78.547544317156650 142 139 120
23.224025988972855 -0.633387499808411 -79.517489520615356 141 138 119
21.647717118228968 -1.334361114888814 -81.527645409438975 140 137 118
182.073154982271944 -0.591515962131014 121.636412954648051 150 149 144
176.299831712961122 -1.463688639145672 114.319170201133716 155 154 149
174.968773875251827 -0.744796251704702 112.620507204395011 156 155 149
156.761465568701851 -2.961744069532793 89.537141274230663 158 155 146
153.907195942838229 -2.950291064431034 85.913846366670043 160 156 147
150.291343045456273 -3.264055548758388 81.327931293663028 160 157 148
148.198613843702617 -3.000807621296102 78.668032824969259 161 159 148
146.550136106515822 -2.576297855085465 76.569958223719283 160 158 146
144.774732744963217 -2.217702043892295 74.311565121711709 159 157 145
142.682005963302743 -2.005075294285593 71.652186564467115 162 160 147
140.271951010957082 -1.942474186971722 68.591866581068615 159 157 144
137.544562849729289 -2.033954754385420 65.130649332551712 158 156 143
134.690236943887044 -2.202700036447926 61.509236220633596 158 156 143
131.708971612154585 -2.450328387559759 57.727644708165570 155 153 140
129.108507712550875 -2.558466156796555 54.427596558734791 157 155 142
127.396600822439609 -2.300076474398910 52.250717319380755 155 153 141
126.065521520391300 -1.888106949191237 50.555223902314054 151 149 137
124.544056349461300 -1.572479678802176 48.619225476797823 150 148 136
122.705262636005486 -1.412789294578742 46.282346650417622 149 147 134
121.310777393511898 -1.066860807097852 44.507007326579526 148 146 133
120.043258603808141 -0.674620451886513 42.892168745452693 148 146 132
117.252455450084938 -0.998678758488003 39.352824166563238 147 145 130
114.715542801783741 -1.227912264176846 36.134478700513824 144 145 129
112.432527671731023 -1.359067526260240 33.237095503072425 146 144 129
110.911201909021443 -1.147244596387971 31.302098895365219 145 143 128
108.945587815714163 -1.161747780117205 28.805965796063361 144 142 127
107.614736237810149 -0.885554104250109 27.111761045571768 143 140 125
105.649168232614755 -0.930894956904966 24.615923325492986 144 141 126
103.620145372716053 -1.024288816086490 22.040077939214655 144 141 126
101.781571035568007 -1.040305996831563 19.704902810194909 144 141 126
99.879543920806839 -1.103824884962647 17.289713346503760 143 140 125
98.421883542402014 -0.958848130847521 15.435806403360004 143 140 125
97.027735184697320 -0.793913696879483 13.662168977710053 143 140 125
95.887539187386977 -0.510278407401804 12.209255305469327 143 140 123
93.414307387066359 -0.927506974328469 9.073239152552077 143 140 123
91.258489146708882 -1.199880921881241 6.338176803787604 143 140 125
89.547059276480411 -1.256426097303909 4.164311142457933 143 139 127
88.978341526028615 -0.720475794755716 3.433136994886070 143 139 127
86.886085910526489 -1.005228963286712 0.778652814726058 144 141 125
84.920817469889158 -1.239245492218155 -1.715386082492103 148 145 128
83.209511416775811 -1.351821100306186 -3.888734228114515 147 144 127
81.942636827681696 -1.235275529380595 -5.501043127693038 148 145 128
80.167908942917379 -1.410107026982850 -7.754268540220522 142 139 122
78.266232116677017 -1.670711628435318 -10.167596878484687 142 139 122
76.682023111121566 -1.769361531704114 -12.180173390441013 141 138 121
75.415297265431363 -1.701987660324067 -13.792047299348951 147 144 127
74.339088354352967 -1.536847016298382 -15.163493564481030 147 144 127
73.262929716418355 -1.380799172948010 -16.534870283347544 150 147 130
72.059834837932073 -1.307251187201627 -18.066389697197479 145 142 125
70.285334377219471 -1.576665565732133 -20.318750319503948 146 143 126
68.891833779820232 -1.637636526972787 -22.090372273745658 146 143 126
67.625366284070225 -1.635356193134178 -23.701699735897307 145 142 125
66.549437800717456 -1.530401446665843 -25.072660633013754 143 140 123
65.600560415711911 -1.358387905496369 -26.283374840105125 142 139 122
64.588239183024015 -1.232684348045030 -27.574119920926449 140 137 120
62.940947859446084 -1.501551615552502 -29.665624820249406 142 139 122
61.865218329439031 -1.434465964884355 -31.036291090337585 142 139 122
61.234078556593161 -1.102386861530888 -31.846363092611995 142 139 122
60.158463612660398 -1.051493717464790 -33.216917502680474 142 139 122
58.574833378282037 -1.327182621939328 -35.227948545407855 143 140 123
56.991230040256625 -1.616259435959861 -37.238854646779913 144 141 123
56.169792606371246 -1.435882848053445 -38.288904004859916 140 137 118
54.713286613491448 -1.667447064624638 -40.139487276712742 140 137 118
53.701416964214616 -1.625837591150991 -41.429582770838437 142 139 120
52.626085091765376 -1.633760037553845 -42.799667182915272 142 139 120
51.677841346525568 -1.568050952962944 -44.009590275924268 142 139 120
50.602614693493365 -1.593464303845247 -45.379544981943070 139 136 117
49.273349034527769 -1.795372968408961 -47.069587083050664 142 139 120
48.769933779841935 -1.460608936569914 -47.719071924486570 144 141 122
48.457182645120668 -1.002692707289399 -48.128460840044767 136 133 114
46.810435190543132 -1.443699620894694 -50.218454004580451 144 141 122
45.354291065037472 -1.769733015850509 -52.068237973834385 145 142 123
44.597027938633886 -1.632452924055758 -53.037685601837808 143 140 121
44.348112308175317 -1.153366384701473 -53.366972235541681 144 141 122
43.718080614620618 -0.938854124246594 -54.176364164576370 141 138 119
42.325657570284903 -1.258164753726957 -55.945842396526160 146 143 124
40.933258404219785 -1.589195596935949 -57.715211409711202 137 134 115
39.795057573157621 -1.753534718718656 -59.164468336988136 137 135 114
39.419454489991267 -1.388879752089423 -59.653687995742246 137 135 114
38.789755285705127 -1.207777065883114 -60.462895084971990 139 137 116
37.778827186702799 -1.304361143142986 -61.752018517881481 139 137 116
36.767948168931952 -1.409368477752263 -63.041078726264487 142 140 119
35.757117508829666 -1.522796893425371 -64.330075386372584 146 143 124
34.746334442499503 -1.644644342223750 -65.619008153840838 145 142 123
33.799160534537464 -1.728385111190722 -66.827904690916625 146 143 124
33.741951569505375 -1.164806966661938 -66.917196196020654 143 140 121
33.112762089417345 -1.025051952086529 -67.726221523204202 144 141 122
32.483653640684807 -0.890401067794445 -68.535233076133409 144 141 122
31.600329604819706 -0.951350137620625 -69.664050894649648 138 135 116
30.335598071067565 -1.307006011064812 -71.272524417877463 140 137 118
29.325206181511533 -1.480564719661028 -72.561112032999006 138 135 116
28.314856040399491 -1.662525857271833 -73.849633130010176 136 133 114
27.686069075254224 -1.560511044370390 -74.658462540107820 136 133 114
27.629676633713515 -1.022521718185093 -74.747881268689383 137 134 115
23.541257251516612 -0.785756797193657 -80.000260110278219 142 139 120
22.149733083880278 -1.334545134216934 -81.767806232436470 142 139 120
179.240057266071744 -0.809703797776562 116.120752242963050 159 158 153
174.718564786754115 -1.254459118441327 110.417416007277353 157 157 148
165.165799490864458 -2.451561697666199 98.370915820841475 157 154 145
163.702142305819848 -1.850505166732034 96.515183071181269 157 154 145
158.925676238498568 -2.536846528110025 90.492876552817734 158 155 146
155.168503304104462 -2.867334711250754 85.753022876704904 160 156 147
151.411305307858811 -3.229883120434156 81.013511202108532 161 158 149
148.864555027956612 -3.143238801103464 77.796620536160162 162 160 149
147.018601125530921 -2.796751926789494 75.461244329529023 161 159 147
145.427489646145204 -2.362571593816846 73.446485248100856 160 158 146
143.135573316442304 -2.229561307278518 70.550641165363970 162 160 147
141.799317471590882 -1.719938910940224 68.856618998571435 160 158 145
139.188853900561639 -1.755412868977471 65.560606692562743 158 156 143
135.686427082983869 -2.190502860856390 61.143395606008426 158 156 143
132.821107294912622 -2.383189482141860 57.527488369896474 156 154 141
131.102608675753544 -2.105382689831280 55.353562721057671 155 153 140
129.511550418727523 -1.786710709624189 53.339967163736503 152 150 137
127.856796427857304 -1.509653627055068 51.246412905282085 152 146 134
125.692349089908234 -1.473169440327402 48.512299455294226 152 146 134
123.655341708040638 -1.397969589291327 45.938538417203659 152 146 134
121.936923103165483 -1.195878238971749 43.765353866886329 149 143 131
120.154809282995444 -1.037545994813671 41.512232438779023 150 144 132
117.799271416242121 -1.158900289531018 38.538584098786885 150 144 132
114.742862069417185 -1.626565777525578 34.684347293433717 146 142 130
112.642208997093633 -1.671251845985063 32.031409296572519 146 142 130
111.433621027107094 -1.310974733259444 30.499566311923274 146 142 130
109.333009890670425 -1.387599411833349 27.846937013236072 144 140 128
108.060763378865772 -1.082414990053032 26.235256268613000 144 140 128
106.533673078930718 -0.912100729970220 24.303444665345495 144 141 126
104.688011745714874 -0.911184647887321 21.971485628371596 143 140 125
101.886559977004254 -1.399277959580130 18.438923805103116 144 141 126
100.359545895776947 -1.274637557660255 16.507545883033771 144 141 126
98.832563974380520 -1.162956020263873 14.576285967914060 143 140 125
97.942846444324260 -0.740550949458020 13.445551368118004 143 140 125
94.379266433176895 -0.839796820366238 8.943279862580482 143 140 123
91.450458751327304 -1.509321058274880 5.251794461443865 143 140 125
89.859902703548684 -1.501227463295092 3.241155588280463 144 140 128
89.416469508045296 -0.899615809015442 2.671087623622924 144 140 128
87.953451532428517 -0.845601369948917 0.820680057425392 146 142 128
86.171825830510926 -0.975282983242473 -1.429710213460254 149 146 129
83.816658835843043 -1.430856852996325 -4.400095687403478 147 144 127
