ply
format ascii 1.0
element vertex 679
property double x
property double y
property double z
property uchar red
property uchar green
property uchar blue
end_header
89.062780487226078 -2.734266638504895 -79.176398619675240 137 134 115
88.581498257676131 -2.337000895963936 -79.615397416135949 137 134 115
87.347187798400327 -2.339775867903232 -80.687762232907488 138 135 116
86.531474456764016 -2.128293833640190 -81.408293506322877 136 133 114
84.209065519470414 -2.726513349104756 -83.395152035054139 138 135 116
82.305098465286562 -3.114996033853574 -85.030056228325265 137 134 115
82.159445959694565 -2.565198769209095 -85.187753678185430 135 132 113
81.679136825570524 -2.198106092598427 -85.626907413637127 138 135 116
80.529042820592068 -2.200451653424791 -86.628706628698495 141 138 119
77.787526531166890 -3.086352765755832 -88.966398810156761 140 137 118
77.056266919334789 -2.876639229900648 -89.616455369464319 139 136 117
76.911675363202932 -2.344553616051483 -89.774478058990354 140 137 118
75.761876245372477 -2.376593022308435 -90.776112693384619 138 135 116
73.606485638939702 -2.983003309256870 -92.621070137542262 135 132 113
73.378682419189005 -2.510057093057095 -92.849534785810135 137 134 115
73.486502670157392 -1.846799465174608 -92.797083983331845 136 133 114
72.253308334881126 -1.952073602075689 -93.868927674602929 133 130 111
70.600907899048636 -2.307199236339735 -95.291947181911524 136 133 115
69.200019928998756 -2.526979898352189 -96.504105909767361 139 136 119
68.050745629044513 -2.608839769871170 -97.505478788158115 140 137 118
68.579250916070563 -1.712752658777594 -97.102384471173991 143 140 121
68.353219929788679 -1.258381893083329 -97.331505743415136 143 141 120
66.223695146753784 -1.354955772352563 -99.194085311089708 136 133 114
64.235759929932698 -1.967845459492438 -100.897368374086426 135 132 113
218.983184394555167 -2.792726380733487 31.278011057604573 150 151 146
215.233938832178069 -2.917305836801698 28.084269820810931 155 154 150
206.230511321653353 -3.725503566126995 20.427038294499681 155 154 149
203.818501315533524 -3.491768420836690 18.363621997786368 157 154 145
201.908106841290049 -3.108394356321239 16.723847550972692 155 152 143
197.991277966763164 -3.404968540879016 13.390330254586132 155 152 143
194.575980223866964 -3.558462747909998 10.480562699369102 156 153 144
191.996715195117076 -3.450501351140177 8.276737514715705 157 154 145
187.577932336599758 -3.989275625141005 4.520693061384549 158 155 146
185.583899907619127 -3.718382538197536 2.811229663717455 157 154 145
184.342502928039494 -3.197709361337996 1.736866899215357 156 152 141
182.933964347898154 -2.743905486231330 0.521434652982748 155 153 141
181.107375246822187 -2.447806795466078 -1.046674742907641 153 151 139
179.280843093181147 -2.163487559589448 -2.614690130409031 152 150 138
172.533233727153430 -2.760686053509722 -8.360079353024247 148 148 136
172.212330379179264 -1.966924115087910 -8.658166421383839 148 148 136
168.127416135682012 -2.574683430962290 -12.129786838361781 152 152 140
165.548089068330398 -2.644241176481912 -14.331755050251274 146 146 134
164.474575143819891 -2.160783499699279 -15.264331645164788 142 142 130
163.150203846184240 -1.779932153234930 -16.408419408900812 137 137 125
161.491269835524577 -1.536355020079823 -17.834476024754792 139 139 127
157.154928626675598 -2.342654512029466 -21.516347624319053 142 140 127
154.575549719744231 -2.489453638236205 -23.717495951997108 143 141 128
153.669740078690893 -1.992464647935277 -24.508723216041034 145 143 130
153.266190390172994 -1.301388451638641 -24.877074447364322 143 140 125
150.686908935895048 -1.485676393418152 -27.077883504846341 139 138 120
147.438022939567247 -1.957482334266329 -29.842267556786624 142 141 123
144.189008159581391 -2.450410001826288 -32.606372582522710 144 143 125
141.693204658272691 -2.654851623004486 -34.736050869699795 144 143 125
140.369298284939759 -2.389985533080263 -35.879167157117053 143 142 124
139.129204923297635 -2.098618978411759 -36.951793199716036 142 141 123
136.800847340846815 -2.273122809860515 -38.940167435386400 141 140 122
134.388729507065932 -2.498201935799484 -40.998809341933992 141 138 121
132.981347133861959 -2.309536237684813 -42.212065513152481 141 138 121
131.741523599576794 -2.057753288850504 -43.284413186294216 143 139 122
130.083089055777293 -1.995526942655693 -44.708842010629098 145 139 123
128.675949800986871 -1.834122066474033 -45.921933879528495 144 141 124
126.180074318385834 -2.161235999173103 -48.050315003374351 139 136 117
124.102928711386085 -2.318718775576500 -49.826466738526733 145 142 123
121.606926161997279 -2.676825808426293 -51.954468046507372 142 139 120
118.189327010991647 -3.466023606121064 -54.856590999564588 142 140 119
116.279538379666704 -3.593609183087240 -56.491395715279964 141 138 120
115.961688103868241 -3.006335308876963 -56.788817877527748 141 138 121
114.722353982248919 -2.844886300707736 -57.860469831380129 138 135 118
112.645117812503031 -3.079594684707538 -59.635783319651324 139 136 119
110.651648061650661 -3.288630687969002 -61.340575749385124 141 138 121
109.161029579413025 -3.274241042618608 -62.623077025312057 142 139 122
107.251358080194834 -3.467708036096529 -64.257259626109658 139 136 119
105.425491261474690 -3.633561947623137 -65.820959449202860 141 138 121
103.431941920576136 -3.891629421212588 -67.525209097776013 139 138 120
102.528300264101475 -3.636100955766014 -68.314988043729386 140 137 120
102.295605534003656 -3.059984091494072 -68.542174597523001 142 136 120
102.230895697037383 -2.402915416546346 -68.628840056199749 141 138 119
99.063465404399096 -3.275356407064710 -71.317209414829904 142 139 120
97.489353055695986 -3.377805652719559 -72.669423714753293 140 137 118
96.166903370895056 -3.364667202599711 -73.810645717917481 140 137 118
95.515635619889551 -3.022534704235553 -74.389474279237533 142 139 120
95.200155777174501 -2.514507169959260 -74.687214726160391 143 140 121
93.038998754625965 -2.948405811006350 -76.531189285647542 139 136 117
91.800797395489298 -2.923128922402456 -77.601981461155134 138 135 116
91.485834003019875 -2.429405080293664 -77.899821741016240 136 133 114
90.583611812432594 -2.242419036697068 -78.689574213003766 137 134 115
89.010002693205976 -2.411940216767515 -80.041338851068815 138 135 116
85.589473953191870 -3.562766284188625 -82.938337877339364 140 137 118
83.763775669332105 -3.891994160299801 -84.500436636642604 139 136 117
84.625040745993132 -2.802314407458975 -83.815090669046953 139 136 117
81.203903733303179 -4.000988126508622 -86.711306179839596 140 137 118
81.729811237984805 -3.094271481375343 -86.307078507820080 141 138 119
82.760189515167312 -1.910163192706952 -85.481889946197555 140 137 118
82.110989546274311 -1.635448717698075 -86.061013759810180 142 139 120
79.613566952435036 -2.379389865453291 -88.184364139022080 140 137 118
77.367981727416577 -3.000469733494084 -90.096880670362538 140 137 118
76.466846371294778 -2.889105336428676 -90.886374668636250 139 136 117
74.473182090871290 -3.394056615610378 -92.588028031499874 139 136 117
74.580927127522813 -2.730367928868787 -92.535545683855588 137 134 115
74.941294455586871 -1.922751847164353 -92.272821836724177 137 134 115
73.788613203957510 -1.973183453982495 -93.272888348028346 136 133 114
72.720098159241971 -1.982769410323509 -94.202781244101459 133 130 111
71.315242949022149 -2.192694843119665 -95.413143502683738 135 132 115
68.396227654581068 -3.288140142819447 -97.885481594812461 138 135 118
67.327668268698588 -3.325302831582999 -98.815069417063114 142 139 120
68.278646126297275 -2.186688415531822 -98.062286560509051 142 139 120
68.725361526088321 -1.338315743797982 -97.730431978050461 141 139 118
64.064407001916763 -2.939448531827686 -101.692263601521063 134 131 112
63.669950346081365 -2.603306929046357 -102.061311388436508 133 130 111
221.964793664926333 -2.168194962289555 32.505804025223938 148 149 144
218.372381057648681 -2.233059173303648 29.458137531114289 151 150 145
214.360702556920103 -2.454808881071549 26.058366879936642 150 149 144
209.510494441249989 -2.972524752185320 21.954203601503139 148 147 142
205.833948225735185 -3.139936095204182 18.836983021412777 153 150 143
201.234974847054559 -3.634140352274353 14.944964543871066 152 151 143
198.480590095112063 -3.546221260612786 12.603404570206663 153 151 142
196.061612111468492 -3.363750551176962 10.543849420647803 155 153 144
192.468608700010634 -3.593986110676358 7.498167815598265 155 152 143
188.540058531676891 -3.962048526128663 4.170993810264832 156 153 144
187.546725876791413 -3.343708053976489 3.309529239349530 155 152 143
185.714817730847642 -3.023522411861809 1.743716517201221 155 153 141
183.882966869339100 -2.715119381739926 0.177997674719848 155 153 141
180.709117359701338 -2.894211062339443 -2.514437745256743 153 151 139
178.961199701193664 -2.583743936610141 -4.009472306207385 152 150 138
176.877799858486384 -2.405626559678237 -5.786086537404259 149 149 137
177.143367412510088 -1.385406817941707 -5.591058124514490 147 147 135
174.472881749459248 -1.442249084288599 -7.860406148422271 146 146 134
167.859113992410869 -2.978184327724057 -13.438444079218044 149 149 137
165.607882020118780 -2.925548896386669 -15.355194116040167 145 145 133
164.279641258879735 -2.539259109856790 -16.497486722247373 142 142 130
162.196293576812593 -2.448782015159200 -18.273223781464026 138 138 126
160.532551108477719 -2.210714766648935 -19.696923331637635 142 142 130
156.854762399940341 -2.762738341224596 -22.809590500412867 144 142 129
154.435704615674410 -2.847359042089302 -24.866358167566148 142 140 127
153.695240857487079 -2.287076890126778 -25.515620073682669 144 142 129
153.458560369444882 -1.531599910712180 -25.742746098305702 142 139 124
150.955712761791659 -1.683986152845761 -27.869590341319622 141 140 122
148.536773119643470 -1.818685445446553 -29.925899043154971 144 143 125
146.621507476835120 -1.764237449621837 -31.559957338360903 143 142 124
143.279017970498558 -2.306945803288401 -34.389690842726054 144 143 125
139.516568433981689 -3.044730345239217 -37.570803315553917 143 142 124
138.776706434134326 -2.548608830351357 -38.219692663128683 141 140 122
137.029351018589580 -2.479837247535320 -39.712508305544929 139 138 120
134.106347831998903 -2.919362697636758 -42.189690316256389 139 136 119
132.442976651946708 -2.841090730608196 -43.611922636365222 143 140 123
131.787523705856529 -2.340766395117029 -44.190377362750752 144 139 122
130.124317157747640 -2.280486625333628 -45.612503239492156 145 139 123
128.965162859157999 -2.011186001072063 -46.612764231792426 143 140 123
125.621941279075216 -2.708329698743986 -49.440557834009212 141 138 119
123.790755142599650 -2.758214641945207 -51.002906640570103 143 140 121
121.035368494951996 -3.231735258622776 -53.338208129802297 144 141 122
119.204138642142809 -3.308193774879508 -54.900262487482138 143 141 120
117.877111523315619 -3.168429821479188 -56.040598081814750 137 134 116
116.802286187726622 -2.922273740071601 -56.970104637632204 140 137 120
115.223310680807060 -2.914202929013348 -58.321130057798570 140 137 120
113.224114879848230 -3.110386115042190 -60.023315465293166 138 135 118
111.645187697827453 -3.123901617125173 -61.374141805160320 139 136 119
109.898165356847471 -3.226291141655622 -62.865354942044775 140 136 119
105.797085816967382 -4.450547005103632 -66.322896027977720 138 135 118
106.320058150547084 -3.504654989411239 -65.917667431933154 139 136 119
104.573040968111101 -3.640966325679261 -67.408533862398315 137 136 118
102.405541866871516 -3.991009872887135 -69.250337555784597 139 136 119
102.256448395474791 -3.376293946223259 -69.407057099798863 141 135 119
101.687084728504516 -2.967488292327307 -69.914895709540815 140 137 118
99.856142300562624 -3.182192779758438 -71.475664535061810 141 138 119
97.520407427432701 -3.658405736736318 -73.457403856563786 139 136 117
97.035525826270103 -3.227932073510559 -73.895022551792465 141 138 119
95.961866267384636 -3.095547977350095 -74.823915698990646 142 139 120
96.487215741233712 -2.163115314068188 -74.419685774827002 141 138 119
95.077302064012059 -2.209841673726589 -75.629307970178587 137 134 115
94.845809864176715 -1.663204108953093 -75.856766365088930 137 134 115
92.931036743657700 -1.983780768613096 -77.487199964094742 138 135 116
91.437135970876582 -2.098774820991551 -78.766799192078935 138 135 116
88.511909711647419 -2.969083916010069 -81.238483419995930 138 135 116
85.165353183739299 -4.079282150945115 -84.060429816751480 137 134 115
83.502704515362893 -4.322782336167986 -85.479695621561831 136 133 114
83.271852583484446 -3.816795638465698 -85.707041878672186 139 136 117
83.209766353958642 -3.221883919624331 -85.794322649381286 140 137 118
82.895284086283070 -2.762749162004912 -86.092037054871867 141 138 119
83.086615687221936 -2.031839656639735 -85.969375285806393 139 136 117
82.014375750949355 -1.986876355884604 -86.898047709432944 139 136 117
80.015204155752201 -2.456092904406370 -88.597434227320605 139 136 117
77.594468399445020 -3.170364636218960 -90.646917844029872 137 134 115
75.594972318656559 -3.666945349215665 -92.345867456031414 139 136 117
74.607027895763366 -3.612661759653130 -93.204103617812166 139 136 117
74.883986446174816 -2.855433993316185 -93.011817510030596 139 136 117
74.486751436028555 -2.476250690437839 -93.379979191608498 136 133 114
73.921106964542432 -2.194891866473958 -93.888285177477428 136 133 114
72.427801879493217 -2.446242994236732 -95.166765788553874 133 130 111
69.415887354166188 -3.578678683229529 -97.705139331319771 138 135 118
69.187969789259768 -3.123777889557922 -97.933363526657757 140 137 120
68.200869444396446 -3.110769538250220 -98.791578625712503 141 138 119
69.661543241135035 -1.674789324129270 -97.620540185371908 141 138 119
69.097095667141005 -1.417854993710773 -98.129167349316560 140 138 117
65.071347401433144 -3.208259340127493 -101.506060122935281 138 136 115
66.533422653482688 -1.766153106090466 -100.335755192212105 137 135 114
63.858118674702666 -2.784682114079915 -102.592899025649160 137 135 114
219.914078824339526 -3.113975724549679 29.505674515066829 144 145 140
217.236058434140944 -2.897472153867148 27.237117392781897 152 151 146
213.548982925377715 -3.018898453555348 24.124460643338267 149 148 143
206.006387197329218 -3.387747731858433 17.759309693855215 153 150 143
202.150846558179182 -3.636266851584576 14.506836545740157 151 151 143
198.968009924762612 -3.687176416171716 11.817381092060799 151 151 142
197.635431789936661 -3.140662282378355 10.675514200814092 153 153 143
193.359148854491167 -3.595357761652878 7.072150577303546 152 152 140
191.101410948926855 -3.390431608440558 5.156945351753762 151 151 141
188.675460964600234 -3.257848564728149 3.101239102228362 151 151 141
186.417755503239079 -3.082513320379993 1.186322949573139 150 150 138
184.580688842589922 -2.774407309732360 -0.376897615107026 150 150 138
180.976990047257146 -3.102454784566968 -3.416455757990462 151 151 139
178.803423915180872 -2.943684535997695 -5.260594480626537 150 150 138
177.555378465182145 -2.465800219886724 -6.331336192430172 149 149 137
177.569552319212278 -1.537532985030095 -6.347672036584129 150 147 138
175.227917427493509 -1.472176031003942 -8.332163460572076 149 147 135
172.128945272840781 -1.701809414154160 -10.949040814460602 148 146 134
166.000373085404789 -3.081044359483704 -16.095654328012756 145 143 131
163.826817559364315 -3.012392575220972 -17.938870489915217 143 141 128
162.831548225149305 -2.510728636323100 -18.798207549907602 142 140 127
159.648074808662500 -2.852585285783969 -21.484363504244982 143 141 129
158.484620779447198 -2.435561945096920 -22.484088104281909 143 141 128
156.311169319447316 -2.418925463682313 -24.326818631379012 143 141 128
155.400445392481458 -1.920850364602935 -25.115706097750433 143 141 128
155.163365120531012 -1.162066415051370 -25.342674907426982 143 141 126
150.211796749368148 -2.284916045918730 -29.502977726204762 142 139 124
149.385525557665460 -1.781115051658958 -30.221467146241366 146 143 128
147.212189000892522 -1.828515968393839 -32.063593473539612 143 140 124
143.354705439626230 -2.577963369683975 -35.309980827927149 145 143 126
140.254911866609916 -3.040288218060689 -37.924070007940372 144 142 125
139.176218779611304 -2.683709963262159 -38.852862875643012 142 140 123
137.844984795634844 -2.439620023981891 -39.992259799889723 141 138 121
134.239656411035213 -3.162697033666372 -43.026972115405698 140 137 120
131.392228145951663 -3.587079018263076 -45.429605903894412 142 139 122
131.577356122353194 -2.731661629180524 -45.305257964309021 142 137 120
130.414839889433381 -2.456132364268603 -46.303974733276704 142 136 120
128.494163858740251 -2.517465237258473 -47.934252926817805 142 139 122
126.489234838558104 -2.628003075621391 -49.634577172475844 143 140 121
124.147234919512130 -2.900083432143524 -51.615420556890228 139 136 117
123.237793343284338 -2.550674866160533 -52.403391196150380 140 137 118
121.569999806507269 -2.546434336023224 -53.822745833190481 141 139 118
119.733671612797863 -2.628846912466760 -55.382299873926712 137 134 117
117.475891344381552 -2.914414315502829 -57.292435936656005 137 134 117
115.639538859735680 -3.021743056019646 -58.851721882097877 134 131 114
113.971797342027514 -3.063169083893318 -60.270631336059694 138 135 118
113.147206356398243 -2.724122830989299 -60.988228657604111 141 138 121
110.973666538128853 -3.020420998074266 -62.827695720866103 139 135 117
109.559003734087071 -2.973688920812148 -64.036007964866258 138 135 116
108.144403712868126 -2.935939971666856 -65.244257776103183 136 133 114
106.729864907086508 -2.907173435222896 -66.452444412109287 137 136 116
103.712742297214817 -3.657019150300683 -68.992264615879066 139 136 117
102.466887645045219 -3.569952358515956 -70.060031516746989 141 136 117
101.642945241455251 -3.285422206268238 -70.777377956105255 140 137 118
100.397300478962563 -3.212687361533314 -71.845097741544492 141 138 119
99.573647628959208 -2.939685598432834 -72.562464034845220 139 136 117
98.075040896503168 -3.006991317544585 -73.840302827822455 140 137 118
95.816879468360668 -3.463519144784605 -75.748496763515732 141 138 119
94.909104240384536 -3.255164347868530 -76.535812640763339 139 136 117
96.956028287195181 -1.556226561655271 -74.871928870504320 136 133 114
94.613639233747961 -2.080753629551420 -76.849987533536535 137 134 115
92.862131529804799 -2.317269069019823 -78.337674262732406 138 135 116
91.279476311905910 -2.477829857999444 -79.685203512006865 138 135 116
89.190107570745894 -2.911746935697512 -81.452662264542425 138 135 116
86.847236196391378 -3.491632042658582 -83.429920358800246 138 135 116
85.264425045415763 -3.686759806496276 -84.777019194988156 138 135 116
85.371222918530847 -2.997558593244150 -84.724346340806392 137 134 115
85.562892613795711 -2.262151982358065 -84.601892605873843 140 137 118
84.233947638518202 -2.340164475490687 -85.739069021888895 143 140 121
82.736022770146135 -2.517738281257378 -87.016098971496774 141 138 119
81.407140373590039 -2.613152377532060 -88.153126201514681 140 137 118
80.247360413525428 -2.624704358563356 -89.150196922555438 139 136 117
78.073138837964734 -3.200641210407755 -90.986459374005449 139 136 117
76.067838902373680 -3.697276589589725 -92.682631879056885 140 137 118
74.992607394718206 -3.689953581969207 -93.609485694742006 139 136 117
74.763233331787688 -3.216541139459584 -93.837203656118703 139 136 117
73.688296836056963 -3.219794887443899 -94.764089732638666 137 134 115
73.036448949803415 -2.990497974286761 -95.341479285882315 137 134 115
71.623302634725306 -3.198301599189934 -96.547896949154506 135 132 113
70.125523565563611 -3.463536347963288 -97.824094310481399 138 135 118
68.458435134504725 -3.835781061569521 -99.239910915936377 141 138 120
68.992111705956205 -2.944740196588629 -98.839238580149527 141 138 119
68.849058827716547 -2.443782933427963 -98.997676948153867 141 138 119
68.537020951699944 -2.042344399460550 -99.295966846021230 140 138 117
65.854068055944481 -3.038659255313891 -101.549680125222949 140 138 115
64.102393602685183 -3.500954703704248 -103.034963015063596 140 138 115
65.484976469125257 -2.108139765100326 -101.936980704396689 140 138 115
217.605923650588011 -3.085481563429420 26.286098221882582 148 147 142
214.835852384810494 -2.914621837021580 23.951188873048835 149 148 143
209.957267835953814 -3.436444321042873 19.860643054415249 148 147 142
204.909808348315408 -4.044279904627706 15.630054033842072 153 150 143
200.368223718110187 -4.519438474702196 11.821243813838379 151 151 143
201.309266180272175 -3.215891622006661 12.577081997088328 150 150 141
197.189345101239070 -3.591418383059398 9.119818243886982 151 151 141
194.840804310820772 -3.397892243584256 7.137311268352960 151 151 139
192.745363119302198 -3.133526472066405 5.365569779100127 150 150 140
188.962641432926091 -3.460791413037651 2.189929748797539 150 150 139
186.782822928546523 -3.257937262085559 0.348328361886928 149 149 137
186.206130673510074 -2.509350650278694 -0.159501812535439 149 149 137
183.182660730732096 -2.626553544759845 -2.702797584364532 151 151 139
179.146549373865810 -3.123282578358259 -6.088049140576260 150 150 138
177.388701422635052 -2.828470487736638 -7.578171938385594 149 149 137
176.474820102923672 -2.239335278563167 -8.366486246348018 150 147 138
174.632745673594997 -1.995056667510480 -9.926654104168904 150 148 136
172.621926762771352 -1.824754349294791 -11.627051475146544 146 144 132
169.513895448883545 -2.075235271044904 -14.239380364121502 146 144 132
164.633206413651862 -3.010434552832508 -18.324664308644799 143 141 128
162.875510134068691 -2.795855851358278 -19.814033783070101 141 139 126
161.624375914782206 -2.399278683805184 -20.882460902908633 142 140 128
159.529130788616584 -2.335393565309866 -22.652232541079911 143 141 128
158.531457032856054 -1.859137128608143 -23.510157801862846 142 140 127
156.689604110591233 -1.719418319132094 -25.069355341339843 142 140 126
152.145799968059009 -2.657163043793326 -28.872342122581671 142 140 125
150.641639075834064 -2.415462416035425 -30.150704582123296 141 138 123
149.559797296724781 -2.014048078161686 -31.078452646639875 145 142 127
147.971370574228729 -1.824211313155587 -32.426827645945821 143 140 125
144.187093281729858 -2.539025539033283 -35.597734240133917 145 142 127
141.838485760188291 -2.688702452242430 -37.576676530295629 144 141 126
140.587947118760638 -2.399002502248064 -38.644288431649500 145 139 123
138.154864113279984 -2.610469518959968 -40.693040788196924 146 140 124
135.721728340505138 -2.837563878791080 -42.741607040958485 146 140 124
133.373022731440471 -3.044501743451383 -44.719912990646634 145 139 123
132.545140579710278 -2.617382202717540 -45.436842412205351 143 137 121
131.548426689733162 -2.268062331798721 -46.293920247649908 142 136 120
128.777246862731772 -2.693917933812204 -48.622156973954503 141 138 121
126.597526838268195 -2.879370500674822 -50.459808437204345 141 138 121
125.516502405694595 -2.595578043272066 -51.386736776398038 137 134 117
124.266557769559725 -2.393452446373005 -52.453731401037942 139 136 119
123.777494617761860 -1.859669834470660 -52.890413067682516 138 135 118
121.682437792675003 -2.050831932955459 -54.657649459315280 137 134 115
119.671891461855395 -2.217139702450257 -56.354712334901365 138 135 116
117.492218049496358 -2.473440400127121 -58.191656821820686 135 132 113
115.988957457155763 -2.433028231336961 -59.468378018514215 139 136 117
113.978356766436463 -2.636851472381494 -61.165028722915764 141 138 119
113.236317668288123 -2.262634808400056 -61.811621726255709 139 136 117
111.310335356710127 -2.448368032027969 -63.438080897907383 138 135 118
109.638091345867466 -2.526570314415006 -64.854457818124416 138 135 118
108.642629697868557 -2.293573855217568 -65.710937346526293 138 135 118
105.701424586889544 -2.998515906833312 -68.176679552588126 139 136 119
103.098439105814194 -3.559338083826272 -70.362272828863155 140 137 119
102.272293702753416 -3.274497992809158 -71.078568551181320 140 137 118
102.377219803291766 -2.539868017856480 -71.025467868480433 140 137 118
101.636135318288837 -2.220438273224391 -71.671953606193512 141 138 119
100.387369727794706 -2.156965979141011 -72.738085054127197 140 137 118
95.921867920707484 -3.704631995772925 -76.461394293071095 141 138 119
95.265570346542546 -3.370232962668806 -77.037736999789615 140 137 118
94.948156562303609 -2.868743756842116 -77.334484953417075 138 135 116
94.376977609693228 -2.498027725042376 -77.841063061116216 139 136 117
92.789752845128390 -2.650461681561159 -79.186489908497890 139 136 117
92.388305693298534 -2.202621582440048 -79.553343234826315 138 135 116
89.869424965531493 -2.854011650096418 -81.667380791080689 139 136 117
86.333718002857452 -4.051682639005837 -84.619655637039386 140 137 118
85.847732849413759 -3.672418427328723 -85.056219272029239 139 136 117
86.209361604079518 -2.848632338086247 -84.794265333070996 139 136 117
85.639215742940863 -2.517074375051971 -85.300934594515923 140 137 118
83.458902475678329 -3.049450109045319 -87.134731198005682 141 138 119
81.363189761389989 -3.550340814273362 -88.898465622349164 142 139 120
80.539003048888958 -3.376813788093381 -89.614552574222017 140 137 118
81.071609386903106 -2.469931578794812 -89.213531305342201 137 134 115
79.569519015156189 -2.673333242240212 -90.488302633299838 139 136 117
76.371185717405140 -3.820651814958159 -93.159058647170383 139 136 117
76.056359293773710 -3.390841949472359 -93.456306553785055 139 136 117
76.166001332082118 -2.726163278279779 -93.404741915638368 140 137 118
77.718441569551089 -1.251416795214084 -92.167144381754412 139 136 117
75.818495531919496 -1.109483266145383 -93.809432056108307 138 135 116
71.261231963865853 -3.105759865337011 -97.595083893970468 137 134 117
68.995194055329335 -3.816793465480956 -99.496889992668372 141 138 120
68.427028062641782 -3.562388827413807 -100.003712238461560 141 138 119
68.283693961669243 -3.064747972398020 -100.161981933019376 140 137 118
67.885925299635986 -2.716231910869543 -100.529572644042673 140 138 117
68.507799750633012 -1.771288745196973 -100.060789830052073 139 137 115
65.561987773380736 -2.928420197208409 -102.519673514421015 139 137 114
215.617839305027161 -2.970378022219592 23.355945167426825 148 147 142
210.302133284342062 -3.627451416575523 18.921614543550788 147 146 141
203.717307088177165 -4.727757602297562 13.436105805419970 152 149 142
203.646059871933915 -3.749795783717615 13.349264692250813 150 150 142
202.136825288532464 -3.244989495238183 12.070621190438118 150 150 141
199.866246784665975 -3.002579065181450 10.161173018610157 150 150 140
196.665006888772524 -3.086677040558853 7.480863247603338 150 150 138
195.071323133592557 -2.647229187289615 6.132433822388322 150 150 140
191.616182087254799 -2.853942298410627 3.242274975881088 150 150 139
187.822470635331968 -3.199580468967433 0.072081536628389 150 150 138
187.244326303041618 -2.450190478429821 -0.435062238593957 150 150 138
185.989341410635262 -1.942211756362103 -1.502793921774924 150 150 138
181.179931494789969 -2.702441398533551 -5.513119718165598 150 150 138
177.639822716976084 -3.039429872689826 -8.472148188343652 149 149 137
176.215609234396368 -2.635284872059550 -9.679570451237339 150 147 138
174.114332792739901 -2.486803845098613 -11.447327516934507 151 149 137
172.859577362645780 -2.040696556553630 -12.514532100352341 144 142 130
168.557389603153240 -2.732152633031266 -16.103065849067832 146 144 132
166.540770220126035 -2.596660394511662 -17.800329976388298 144 142 129
164.862834560474738 -2.346319619375797 -19.217365890061558 139 137 125
163.862312507669259 -1.849015703612795 -20.074145187576676 142 140 128
162.607915511454195 -1.455409344725666 -21.140980826090384 142 140 127
159.490713621426210 -1.790294310926480 -23.748053729643516 141 139 126
158.067071805658571 -1.484615385863719 -24.954735915199649 141 139 125
153.594740339552516 -2.386902713077794 -28.681421075739649 141 139 124
151.747631506195489 -2.277049988402522 -30.237796778751601 141 138 123
150.747551778206571 -1.840400994031009 -31.094163331366474 145 142 127
148.815868583091969 -1.785441505904757 -32.720372790870954 142 139 124
145.190011294786473 -2.430937123954214 -35.746062733458899 143 140 125
144.020705480449521 -2.093966107796834 -36.742163840760611 144 141 126
141.580702719589510 -2.288727739964667 -38.787777766968645 142 139 122
138.632286390578031 -2.710529466673271 -41.252984656643491 143 140 123
136.361608271793216 -2.867179029609445 -43.158277448057561 143 140 123
135.277240334704857 -2.537311814020558 -44.084080536783972 142 139 122
133.684533402733905 -2.430617275247112 -45.429552073846878 140 137 120
130.312107237683108 -3.097209585815754 -48.243688783495060 140 137 120
128.973654748096124 -2.906670076247815 -49.379081177926224 138 135 118
127.211473493872006 -2.909049612538270 -50.864071795724755 142 139 122
126.551334397543428 -2.439377535810576 -51.439969164801141 139 136 119
124.365402379310751 -2.647821758645197 -53.274412166859747 138 135 118
122.688128643843100 -2.643875121084429 -54.689228484157752 138 135 118
121.604423121577966 -2.384533283495936 -55.614622516720402 137 134 115
120.351250725071552 -2.208521105050903 -56.679804193327925 138 135 116
117.656497727652692 -2.695947245035933 -58.933110591537428 136 133 114
115.809719507744148 -2.812291981368902 -60.487316094791936 138 135 116
115.065586690326725 -2.431847449160781 -61.132971576586442 140 137 118
113.643025122278175 -2.371113201307053 -62.337649210336451 139 136 118
112.559866118853705 -2.160649162909972 -63.262801571897938 139 136 119
110.543570990885797 -2.396452240617760 -64.956398892514613 139 136 119
108.866628423431877 -2.484199838324399 -66.370429784628357 139 136 119
105.322828855865822 -3.473938589568832 -69.320973507124393 140 137 120
102.457610128471103 -4.160281559575579 -71.712399903403281 139 136 119
102.223259018628710 -3.591803114989993 -71.938715424713649 139 136 117
102.243837097834316 -2.900402336952200 -71.955676842808145 140 137 118
102.094970316979825 -2.291723814375798 -72.112442688767629 141 138 119
100.842718434998702 -2.228515971426963 -73.176903584675557 139 136 117
97.892387094449674 -3.017098808626531 -75.637418877169665 140 137 118
95.621118867573969 -3.484953397489293 -77.539225973227872 141 138 119
95.557790442499595 -2.855675925649961 -77.626266225803960 139 136 117
95.324923582292570 -2.312454993030648 -77.853031818793340 137 134 115
93.478408324200984 -2.593453895106527 -79.405668254036556 140 137 118
92.056606353388560 -2.668228975884518 -80.609314410906990 138 135 116
89.700237369736953 -3.234741525522680 -82.580252945593344 138 137 118
87.513631526101761 -3.728114089893539 -84.411440681333943 138 137 119
86.176708559533623 -3.791040659195335 -85.544955740654331 138 137 119
85.604771048376804 -3.459771714142770 -86.050764907864590 140 139 121
85.373074478746446 -2.951750592797743 -86.277728034514126 139 138 120
82.591258818169266 -3.803856408132052 -88.596489006917267 138 137 119
80.404295906732699 -4.354932640908711 -90.426911949798921 140 137 118
80.768222079118402 -3.543993372914662 -90.165924848818207 139 136 117
80.962521570011702 -2.822412771838819 -90.044586881035514 138 135 116
78.945748394175908 -3.306455144795948 -91.735400253420096 140 137 118
76.928823908822864 -3.803484740944227 -93.426007555837714 138 135 116
75.847626951648081 -3.796386959104417 -94.350005202558549 139 136 117
77.659655861566662 -2.187901989093363 -92.905393982448174 139 136 117
76.376041278101553 -1.090216374489319 -94.076358353769621 140 137 118
74.189158178958962 -1.730097674892084 -95.905905363406191 138 135 116
70.724740273236932 -3.115129310217205 -98.779497167676425 139 136 117
69.559179912459925 -3.199451640785041 -99.773053503065427 139 136 117
67.371525085555305 -3.882758159743277 -101.601784323196426 142 139 120
68.165338692915199 -2.844385201446220 -100.994500562201324 139 136 117
67.340907352685463 -2.747840485796099 -101.709678067412369 140 137 118
65.067904849014354 -3.509252003138165 -103.607633762461063 138 135 116
67.482418915692563 -1.509870233941734 -101.679260878878637 139 136 117
223.074165044938411 -3.043927995704816 28.325755717300780 130 131 126
219.439944057730202 -3.116763281991572 25.298172259124897 142 141 136
216.908494612316503 -2.865505627284054 23.180856127853190 145 144 139
212.934798237100267 -3.089311191316571 19.873795004903968 145 143 138
207.603510039893877 -3.774861287867103 15.447211965865762 151 148 141
205.750662217627394 -3.365446223388637 13.890498229825624 149 149 141
204.406973923723712 -2.800928859171309 12.753761084304472 149 149 139
200.263229085009868 -3.171832317215628 9.307846946092951 149 149 139
196.798195178701462 -3.342403695558620 6.422048784874278 148 148 136
196.218356489552576 -2.561531343643264 5.915391520404199 148 148 138
191.055969135657563 -3.345370015651334 1.630736400393545 149 149 138
189.118361687352376 -3.053359059971709 0.004920993468801 150 150 138
187.859792306951476 -2.538006422796632 -1.061171786354691 149 149 137
187.280362103560378 -1.792729287084643 -1.567658069569148 149 149 137
182.032600630740603 -2.701371853543228 -5.921044719463083 150 150 138
179.755575337719733 -2.583890510414401 -7.826122811606524 149 149 137
177.393669361190405 -2.511479666618524 -9.800989227335521 151 148 139
174.352599058430599 -2.700774156563051 -12.335122972270540 149 147 135
171.056752506099372 -3.002841026221312 -15.078788464715501 148 146 134
168.270226565923565 -3.137738519213838 -17.402678641060533 146 144 132
167.181835351436007 -2.657359812864416 -18.328106298054678 144 142 129
166.603064515436017 -1.992221883410467 -18.834083107260483 141 139 127
165.345133982414268 -1.588232496155777 -19.899335191604820 142 140 128
163.747623564159198 -1.322070691229565 -21.244150233974324 143 141 128
160.536532567893175 -1.688360213600816 -23.916842532975636 143 141 128
157.070518404990878 -2.174310547758543 -26.798925388774876 140 138 124
155.133263896386211 -2.082983133479796 -28.422843904336133 139 137 122
152.856258459062502 -2.138292049807436 -30.326152878434073 140 137 122
151.768545412520865 -1.734116210546071 -31.251120574257072 145 142 127
149.491583374006439 -1.814595883772325 -33.154191214951140 142 139 124
146.704830953197757 -2.116046234843319 -35.476258631500571 144 141 126
144.427791386104786 -2.227216760506757 -37.378976266426577 144 141 126
143.000457323560283 -2.003293070500851 -38.583050546075867 141 138 121
138.768899310170241 -2.951211233940294 -42.091874545211255 139 136 119
138.276379201385964 -2.363740766837823 -42.527455051547037 140 137 120
136.084251880850218 -2.494997982421768 -44.359728766860655 141 138 121
134.232086881954046 -2.495956998425885 -45.912544976695955 141 138 121
131.359895912269025 -2.944813115152615 -48.303080447646010 138 135 118
129.082639505398163 -3.155726382032643 -50.204667645023704 137 134 117
128.250615800307514 -2.753888020493209 -50.919355529773270 142 139 122
126.908621566066131 -2.580214616653103 -52.052879954402783 140 137 120
125.736777658051281 -2.340063988961836 -53.046770225491997 137 134 117
122.694237209921113 -2.937335714713726 -55.576001143282696 138 135 118
121.862649365740012 -2.565893188654202 -56.290584662793236 138 135 116
120.180722080902640 -2.582422347410085 -57.702963970366113 138 135 116
116.712599850089262 -3.419496715780629 -60.580424037628831 134 131 112
114.945506884780983 -3.502022873840785 -62.062239920240529 137 134 115
114.029149761838980 -3.204528461970932 -62.846367807189381 140 137 118
113.283107989284161 -2.833868054279830 -63.491009338480779 140 137 119
112.196898831880588 -2.626451339870197 -64.414671149197062 140 137 120
110.004565146326712 -2.945269187097408 -66.244915484389537 140 137 120
108.407877495169217 -2.996415883381026 -67.586857919913228 139 136 119
104.598300695533169 -4.111173758024657 -70.741544495715146 140 137 120
103.256809271547198 -4.067397358524849 -71.873972367926996 138 135 118
102.255899433778012 -3.867728733463148 -72.727502440878396 140 137 118
102.447042744795638 -3.095204497041801 -72.605178955892171 140 137 118
102.127685952950401 -2.570848425335773 -72.901232761478667 141 138 119
101.382831757740732 -2.257779978021677 -73.545849602721432 139 136 117
98.849735310150294 -2.835439760259066 -75.653845350206410 140 137 118
97.849554054462885 -2.664687085263288 -76.507426327928187 139 136 117
95.997689976937778 -2.927748762377163 -78.057688543155990 139 136 117
95.594019523111413 -2.470815813193085 -78.423571846703680 139 136 117
92.208596776065292 -3.532596229875356 -81.227423166372176 141 138 119
91.379070388899109 -3.308016056095648 -81.941481151883238 139 136 117
90.464491170877380 -3.132361184454982 -82.725205426857286 138 137 119
88.527301082961060 -3.492411590349910 -84.344508502399208 138 137 119
86.845735947014205 -3.731467415500692 -85.754770481994996 138 137 119
85.931384061726845 -3.578531389468941 -86.538369655679105 140 139 121
85.869783554534180 -2.980924780944555 -86.625910534140786 139 138 120
83.079856962468824 -3.833140672132419 -88.940790131655859 138 137 119
81.909961716873042 -3.837153767925043 -89.933099336303798 138 135 116
80.654849420213068 -3.894335118994209 -90.994952593181665 139 136 117
80.679351614133338 -3.266925921465971 -91.013132596820100 138 135 116
79.424510236709239 -3.335549446533422 -92.074997680486746 138 135 116
77.316449093192546 -3.879367406638226 -93.832382786815003 138 135 116
77.427005682638281 -3.214247525084377 -93.781260208397498 140 137 118
78.220787543950976 -2.169388308252194 -93.174028026519778 140 137 118
78.844464848571292 -1.213821766472354 -92.706217043269874 138 135 116
75.882987302365152 -2.264401909211679 -95.158703159301524 137 134 115
76.080382519443589 -1.552167271169635 -95.038749973622032 139 136 117
73.887053911070566 -2.194709786463858 -96.865186080514434 137 134 115
72.633021279267155 -2.315277740309155 -97.926903375213840 138 135 116
69.585087553601767 -3.473322162185288 -100.447781852449083 139 136 117
71.235760772555338 -1.938839946435622 -99.146934645177595 143 140 121
70.665614688661478 -1.682360627507790 -99.652830977857178 140 137 118
68.984659696447054 -2.077762914776806 -101.061775495446852 139 137 114
66.790715221890409 -2.785036637018099 -102.887250663236699 136 134 111
67.503267469517695 -1.790347034739751 -102.351500976478491 138 136 113
220.144880608613676 -3.198062834767116 24.629193231879128 139 138 133
217.606226565815064 -2.947369872875483 22.515329567967939 140 139 134
214.301787457839424 -2.955783998652115 19.772752009479206 142 140 135
209.380544473024059 -3.503363357388292 15.702878968837922 148 145 138
207.097054183226248 -3.228663354858829 13.799275378351325 148 148 140
205.068886150976226 -2.885040953714474 12.105393696914120 148 148 138
202.530145404843552 -2.722826253937728 9.992482262780328 148 148 138
196.331792148515660 -3.796352273194602 4.876104957845570 149 149 137
192.345981903266477 -4.165056749433907 1.576330586091530 149 149 139
192.445563581114811 -3.171548139688271 1.629323254450810 148 148 137
190.076926541613375 -3.023557135893328 -0.343101028379607 149 149 137
187.963668003997327 -2.802255665789472 -2.105875477844023 148 148 136
186.531465966703081 -2.356510148606879 -3.309904258559953 147 147 135
183.992641714860724 -2.309886711549538 -5.421585904913172 149 149 137
180.857843792007998 -2.491395532780447 -8.021819704386843 149 149 137
179.000088289061580 -2.234564724301708 -9.574614996413004 150 147 138
175.865194543928055 -2.451964583795565 -12.174433510349019 149 147 135
173.411420028456803 -2.440526932422690 -14.215581589167783 148 146 134
170.872474525107464 -2.476082607499995 -16.326359318331356 146 144 132
169.696068771757638 -2.021315025049480 -17.320276378378594 144 142 129
168.604955826763273 -1.541979854860286 -18.244391227185730 143 141 129
167.343640548799726 -1.133864427975751 -19.308066532550498 143 141 129
163.867881583416846 -1.578156251887449 -22.185916320218809 142 140 127
160.562334472255884 -1.979156289120253 -24.923922729776763 141 139 126
158.108512373714660 -2.070963342155887 -26.963985295409771 139 137 123
155.654657160206028 -2.178387228283819 -29.003871267047714 139 137 122
154.478717023905517 -1.797684330773604 -29.997248691686394 140 137 122
152.536082648114359 -1.729055934977545 -31.618359844826074 144 141 126
150.252642315234908 -1.809275278975617 -33.518333971401148 143 140 125
147.543111752967917 -2.076066126468691 -35.766841943143788 144 141 126
145.515253791186865 -2.082640503696588 -37.457267209866984 144 141 126
143.061275553706963 -2.276894833421386 -39.496200537882913 141 138 121
141.544787051141725 -2.099137182888333 -40.768007313706505 140 137 120
139.346472835849795 -2.215057346052341 -42.597479111760919 141 138 121
138.171058019037332 -1.915427964079903 -43.590273317018813 140 137 120
134.949763725593812 -2.488814100900499 -46.255952644135363 137 134 117
132.751361921524449 -2.646654623371687 -48.084951032701582 138 135 118
130.723449926670412 -2.745223494636297 -49.774403504646671 139 136 119
129.036603264226926 -2.709054647323232 -51.184971845884718 140 137 120
128.799493719783868 -2.051483933899537 -51.410884813016480 138 135 118
126.260003325281133 -2.406470737950599 -53.518113803041018 137 134 117
123.805698873928037 -2.739928896756605 -55.555458176515430 138 135 118
121.948380487071177 -2.822949647684723 -57.104964320552767 135 132 113
120.005757352825555 -2.956027279945160 -58.724004590134086 134 131 112
116.954061072405935 -3.602838034093975 -61.248345459035505 136 133 114
115.693857091360741 -3.453398523448440 -62.309889723883373 137 134 115
115.201690578233695 -2.959682884240920 -62.744674323627635 139 136 117
113.771075147696877 -2.902283314507415 -63.945464691652546 139 136 118
112.255180150780404 -2.893550384266284 -65.215815542187414 139 136 119
109.459073704373324 -3.493830050888134 -67.530332024689500 139 136 119
107.772429085248831 -3.588858320934126 -68.939646544922056 137 134 117
106.085790779388688 -3.694548360924954 -70.348854338444539 137 134 117
104.313780601799820 -3.851706107582915 -71.827549623122906 137 134 117
103.480973044899997 -3.568160145366347 -72.540644872762527 140 137 118
102.733726831314499 -3.248307868929282 -73.184187209974482 141 138 119
102.755276922616673 -2.558137796269657 -73.201600967055498 140 137 118
101.325207930215868 -2.580149560402662 -74.401835328459271 139 136 117
100.749374714603661 -2.189062995916864 -74.906396536818050 138 135 116
99.490344473962452 -2.141239650997912 -75.967456328810528 137 134 115
97.462457553971063 -2.486202355513473 -77.654384540980658 140 137 118
94.750903051628896 -3.188508364526923 -79.897441290387292 140 137 118
92.979119473168311 -3.431576409078046 -81.375360661458046 141 138 119
92.489286386112013 -3.031632004324021 -81.810296329813383 141 138 119
91.315890623124531 -2.985653297521373 -82.801445489677747 140 139 121
87.834448359452750 -4.139893293754840 -85.669268553740324 140 139 121
87.259428862410175 -3.804873765386585 -86.173641916105197 139 138 120
86.342608265026897 -3.652175705512724 -86.956057616879406 138 137 119
85.511450278597152 -3.460032123201283 -87.669001164764694 138 137 119
83.226472167423509 -4.043297058133050 -89.563061522499112 139 137 119
82.395460785836704 -3.866016105250317 -90.275922217127629 140 137 118
82.249018750940706 -3.326658398435581 -90.433134499261939 139 136 117
81.589549786464033 -3.064777499751891 -91.007213558138318 138 135 116
80.930292542956153 -2.806758118304298 -91.581354155063735 138 135 116
80.100078097197880 -2.646078677868150 -92.294425213353463 137 134 115
78.756448873110173 -2.772561519452859 -93.424077805425043 138 135 116
78.440150255966969 -2.339696334404381 -93.720652869649086 138 135 116
76.411740370218240 -2.860400490903173 -95.405521901743299 138 135 116
75.582020992277990 -2.723689264828484 -96.118583081909208 137 134 115
73.125188353756840 -3.507293495581188 -98.150084399655867 138 135 116
73.066486503404022 -2.949842626324267 -98.238598642417145 137 134 115
72.237131563269443 -2.830949418783272 -98.951650758564341 137 134 115
73.293014158802663 -1.638159462642580 -98.138752740183918 139 136 117
71.607293435061038 -2.016143882630607 -99.545596639004430 144 141 122
70.778589968486131 -1.908695448190993 -100.258842611070662 141 138 119
69.778599354460241 -1.906021688085748 -101.110784670403262 139 137 115
65.034802737976989 -3.534633463786513 -105.032702065846536 139 137 114
218.630423992228344 -3.966650329762089 22.146707880532517 128 129 123
218.815153374965092 -2.868601082603580 22.268748974357976 138 137 132
213.709191926747962 -3.442793477674649 18.065800784957531 137 136 131
208.773690442074326 -3.995034020728246 14.002796941686142 143 142 137
203.837974653276518 -4.578766979834111 9.940219788032067 145 145 137
206.668820025198556 -2.662875916020751 12.224575038625176 147 147 139
202.671904538645947 -2.975714245475725 8.929538317931588 149 149 139
192.785195248425907 -5.271029658881907 0.823302337412287 148 148 136
193.311866630279184 -4.136001114576018 1.224814444139014 149 149 137
192.643709234942548 -3.402151298654971 0.650033687642605 148 149 136
192.487947365580311 -2.497293695340813 0.493517708325214 150 151 137
189.515066975440391 -2.565384748707794 -1.963626580011237 150 150 138
185.432208450448513 -3.038912571925129 -5.326753272941318 148 148 136
182.886070277282272 -2.998341550516510 -7.434873663848492 147 147 135
181.279178460670863 -2.640827749124388 -8.776141009392035 149 149 139
178.818445257700546 -2.599004052391515 -10.814272854793188 152 148 137
177.297066534070609 -2.233644968082820 -12.085671241422403 147 143 132
174.580153244462934 -2.313343356518837 -14.332573178379334 148 144 132
172.717260849414828 -2.096489699742765 -15.882499493926616 147 143 131
170.427360531653420 -2.049680949251771 -17.780690749867290 145 143 128
169.589541677923989 -1.474548522777240 -18.494390058237911 142 140 127
168.239362837712036 -1.097811501865236 -19.626089231246510 141 139 126
163.899351378101301 -1.866402663823692 -23.195734261290056 140 138 125
159.900809392365034 -2.531695962210516 -26.486364874296015 140 138 125
156.927293214712222 -2.826127961255074 -28.940875163007803 139 137 123
156.004308077600768 -2.340075075746300 -29.723773157789736 140 138 123
154.397893448490805 -2.128392173129781 -31.063767677498021 139 136 121
153.560637631530568 -1.622066384260175 -31.777028079442829 142 139 124
150.501595182072265 -2.008426257150083 -34.300535518016829 143 140 125
148.980809066591917 -1.794842818438082 -35.570655103387821 145 142 127
146.092554046009809 -2.145832803877780 -37.954512972704748 145 142 127
144.400873650657559 -2.025693960924416 -39.363633218035915 139 138 120
142.196341464397449 -2.127659512976999 -41.190274001914872 137 136 118
140.761196174456671 -1.923924266008281 -42.390403607366466 138 137 119
138.129186268094941 -2.230320569510804 -44.564730631400408 139 138 120
136.181105046673508 -2.264876429117643 -46.182173904884564 138 137 119
133.976500237308386 -2.420795592767449 -48.008224574490924 136 135 117
131.600825351313802 -2.663947625280654 -49.973255743916638 139 136 119
130.507925283512407 -2.368614048920439 -50.894621618458842 138 135 118
129.244098712246910 -2.154409635979486 -51.955099506236934 137 134 117
127.723767287340067 -2.060458459210046 -53.224205179049534 136 133 116
124.150445317548872 -2.881770766773434 -56.162359183510290 137 134 117
123.314472770558865 -2.509434953425810 -56.874854271281350 133 130 111
121.451973025293285 -2.601726742166600 -58.421786239766590 132 129 110
120.017299018202010 -2.512915871331842 -59.620958330981352 133 130 111
118.497120421396801 -2.471937665582269 -60.889591838831876 136 133 114
117.490481054211372 -2.205708315056239 -61.741066067534177 140 137 118
113.916315018696821 -3.127981038811493 -64.677777037564056 140 137 120
112.396143611076425 -3.120641001762541 -65.946067730127169 140 137 120
110.704805934589828 -3.202779785453109 -67.353269785762251 140 137 120
108.842250513592830 -3.376075882976551 -68.899341301125105 138 135 118
107.493397502978510 -3.317978513025309 -70.028394828470510 138 135 118
