ply
format ascii 1.0
element vertex 690
property double x
property double y
property double z
property uchar red
property uchar green
property uchar blue
end_header
-129.188927012722615 -135.826896731341009 12.525381060700539 34 39 35
-129.168895811724070 -135.204846656599983 12.398536243973155 32 37 33
-129.237948451021424 -134.703698178064059 13.313283296239206 29 34 30
-129.287335239720392 -134.172104629725595 13.996591116749244 28 30 27
-129.297340365153929 -133.586085059948999 14.217063110480154 29 31 28
-129.258148165305869 -132.936387575489363 13.859049379063492 29 31 26
-129.209270204648647 -132.276173941821384 13.385434879948576 28 30 25
-129.160574842353554 -131.618252577115754 12.911931330740231 28 30 25
-129.151476115391318 -131.009484465432905 12.901312174956928 31 33 28
-129.162223029514109 -130.423696242509976 13.122141419223681 31 33 28
-129.143559463161779 -129.803400273268124 12.995968930112213 29 31 26
-129.095519298643524 -129.151057744084738 12.522836251031066 26 31 27
-129.116519397623591 -128.575339914331636 12.859533128324756 26 32 28
-129.098297259121836 -127.956675529143553 12.733588611498305 21 29 25
-129.188360359775146 -127.449453061899177 13.880042243683079 121 130 127
-129.105723571423312 -118.919610280613512 13.974424900458871 92 81 72
-128.981964842727109 -118.237658392302862 12.577892856444720 96 81 72
-128.868171906141981 -117.568010490963601 11.297113949256016 104 84 75
-128.871877812789450 -116.969543120589464 11.403585401926392 98 74 64
-128.875694483015991 -116.370573230117429 11.510104670821534 95 68 59
-128.899164045355519 -115.780860871948605 11.847838878210581 93 70 56
-128.795738124124625 -115.129647750169312 10.683068158999475 91 67 52
-128.731542069449745 -114.501273204578851 9.980735502099833 91 65 48
-128.765126504456816 -113.916829023446880 10.434221742815367 91 64 47
-128.789041860582330 -113.326446162929031 10.772162314606021 92 63 45
-128.803295236787420 -112.730942044775219 10.994569027723287 93 65 44
-128.817650091192860 -112.134376745111865 11.217013364389345 95 67 46
-128.812597430407493 -111.530809078012410 11.208383363584886 95 66 47
-128.749141953738786 -110.911088080372821 10.506494071981109 94 66 46
-128.715071803569401 -110.301939667898580 10.151348103541864 93 64 45
-128.690870783871247 -109.696603637513846 9.911821620976042 96 67 49
-128.735005925121271 -109.105526956424029 10.481145896659910 94 67 51
-128.711022421176693 -108.500506334341708 10.241726719541077 94 68 51
-128.687154096317812 -107.896596120567722 10.002374073692607 94 68 50
-128.653660561928660 -107.292735425053678 9.647558385393125 94 68 50
-128.688449554641323 -106.696031327123308 10.101494684903685 93 66 49
-128.713593664653530 -106.096644335261303 10.439930404294785 90 63 49
-128.719364398740936 -105.495151087454246 10.547358516458303 87 60 47
-128.686307562486633 -104.893252176349307 10.192771936682078 85 57 46
-128.624174255175916 -104.293915292814631 9.491724990293733 84 57 45
-128.552436933235725 -103.698438321735622 8.675264363323919 83 55 43
-128.539191781467366 -103.101680681365096 8.551926317020445 81 54 43
-128.535780026562293 -102.504348669494959 8.544145506696339 75 51 41
-128.561645740343351 -101.902828359137402 8.882904479538013 73 49 39
-128.587606866816373 -101.299671368850838 9.221692250315726 69 44 36
-128.613663824348635 -100.694876075213458 9.560509002464357 66 41 34
-128.591216244699865 -100.099518194080019 9.321924069710690 66 41 34
-128.607754008962019 -99.495294141741169 9.545333867581093 64 44 40
-128.595238651241715 -98.898256341373937 9.422342068421074 61 39 36
-128.670277746766459 -98.274449656582320 10.338690438291309 61 37 35
-128.687111997627824 -97.666109600412128 10.562199706239340 61 37 37
-128.674905183427569 -97.067406818211097 10.439338374747280 59 37 39
-128.565676845422445 -96.507765432629554 9.161875508202343 60 40 41
-128.495425021003342 -95.937610958420962 8.346386195336009 52 36 39
-128.483558456235073 -95.344869698817362 8.223749002952786 123 112 116
-128.394119566960143 -94.790029381252850 7.177520530493723 194 187 191
-128.314511890700970 -94.235138295699869 6.246853638982884 191 188 191
-128.118524416896747 -93.747202855906579 3.930893640294784 188 186 189
-128.700040840648086 -78.934573540097418 10.819007249521206 181 185 185
-128.380866849925184 -78.727508210519090 7.005840876562559 191 187 188
-128.187944537296829 -78.378262027885640 4.692774838669948 119 107 111
-128.024242062659994 -78.002103426838971 2.725987102834324 18 8 9
-127.928585835750539 -77.545102205026708 1.566932499404402 211 204 204
-130.428474603433784 -2.798258996388720 9.310150314977449 32 34 31
-130.415003784144290 -2.384262736185631 8.745150025120950 20 22 21
-130.158464133745241 -3.055365585401482 5.525281556701202 14 19 15
-130.325801746486263 -1.846470656325141 6.923198153295232 7 14 6
-130.430486757933863 -0.915560169144696 7.628850084170580 2 10 1
-130.418972314172493 -0.507851230065242 7.064850436215636 104 112 99
-129.938056714638861 -0.912163662284257 0.076551872664510 47 51 37
-129.306831975934102 -2.150002728075385 -8.527098548368969 86 89 72
-129.135219874645344 -2.548162387974795 -10.822276430400393 87 88 71
-129.126227493531871 -2.192567901969428 -11.384533091983940 87 90 72
-129.066120862495097 -1.693264931764130 -12.970451863430839 88 91 72
-128.730836500107813 -2.901050086748746 -16.998479386015504 91 93 80
-128.668550797523380 -142.406248581324064 11.568147242380775 21 34 27
-128.608378761876338 -141.715222920719640 10.977953647911221 8 21 14
-128.625829830913261 -141.158108541723095 11.313144176109375 7 20 13
-128.711107530641073 -140.712207463476147 12.457939700756612 15 28 21
-128.757799531829335 -140.197643880776951 13.140133642149806 11 24 17
-128.717671122207008 -139.539943222330379 12.781589650495931 10 20 13
-128.677741228442670 -138.884023990932178 12.423158965271597 9 19 11
-128.686253038625892 -138.304905381313233 12.642987597155070 14 21 14
-128.675621142500916 -137.695356896753140 12.631626945729522 20 27 20
-128.674791307005592 -137.100389354481109 12.735964540394860 21 25 19
-128.654842420563313 -136.476631644922549 12.609141525126034 26 31 25
-128.596539148659843 -135.797910579869637 12.019968598209175 36 38 33
-128.605819262368840 -135.217481072453836 12.240151290136282 38 40 35
-128.624857423722744 -134.649427418505212 12.575988474406330 33 37 31
-128.701725141349584 -134.158352308837181 13.605436808524018 37 42 36
-128.692150222292611 -133.547149549984454 13.594564783028517 38 43 37
-128.663507585924577 -132.910976363769777 13.352596023936172 34 36 29
-128.577402291298910 -132.202418293018837 12.417238922596454 27 28 22
-128.616314235079074 -131.654209263681793 12.984505696788716 28 29 23
-128.597751265593473 -131.033061873465073 12.858372568769738 27 28 22
-128.627300965488018 -130.469767634308027 13.310146313014940 27 28 22
-128.551486275990413 -129.781519362906607 12.490780145783134 27 30 23
-128.514203648412689 -129.140771151126273 12.133772066554542 27 32 28
-128.553728645162550 -128.586721944544337 12.701272007307978 28 34 30
-128.545466227585877 -127.978281146108813 12.691056308267804 29 37 34
-128.537338460062529 -127.369921504623335 12.680905860740808 10 19 16
-128.558053803504095 -126.791042996011001 13.017433977505675 193 204 200
-128.297270441109191 -119.966394328638557 10.716107760195115 113 93 86
-128.614885006853797 -119.584972612097587 14.633329401713695 110 85 75
-128.513170794135050 -118.910118029468691 13.469134204554592 105 81 71
-128.497360901225989 -118.294548473224324 13.344375554380179 102 77 68
-128.405489910990042 -117.633958206138118 12.295895035803284 97 70 61
-128.380423794033788 -117.016329037014245 12.055828154221871 94 67 58
-128.355482144321030 -116.399835111921064 11.815832502980214 90 63 54
-128.349693543754768 -115.794239604134177 11.806829557524225 85 63 50
-128.334504637848426 -115.184073785489602 11.682423608789122 85 62 48
-128.300412400791032 -114.565818288796777 11.327173330265452 86 60 46
-128.294967364436332 -113.961427015337435 11.318347140539572 87 59 45
-128.308641776764375 -113.364650710750709 11.540463784068550 87 60 43
-128.265400327191230 -112.745708755571215 11.069970602655729 88 63 43
-128.241286280705310 -112.135470028845319 10.830435261860117 90 63 46
-128.217288906134655 -111.526351528835846 10.590967267565276 90 64 47
-128.183911578456161 -110.915652617268051 10.236136782964763 89 63 46
-128.160147186861138 -110.309042130025432 9.996806063162126 90 63 48
-128.164971418721592 -109.710005691836457 10.103806661080228 89 65 49
-128.207854300937129 -109.117965758221402 10.672521945092285 86 64 50
-128.155947781407775 -108.507144194309348 10.087108126259977 84 62 48
-128.151592686801820 -107.905741766212159 10.078834126617465 88 65 51
-128.080957167708164 -107.296925145127204 9.262763286633970 89 67 53
-128.143194114698247 -106.702985343327626 10.062435702437313 87 65 51
-128.148629772411851 -106.102143942487970 10.169710225000415 85 62 49
-128.173120897800942 -105.501254687014224 10.507818095232039 81 58 47
-128.121894539727492 -104.898977236327610 9.922817612158411 78 55 45
-128.099211593400156 -104.298528746843616 9.684067680603448 76 53 43
-128.057691867422477 -103.700329555303881 9.214611681543545 73 49 42
-128.044701032504577 -103.101773406781547 9.091376786601671 71 46 39
-128.022345466119390 -102.504887841630733 8.852820147458857 65 45 36
-128.028502404606314 -101.904913842729982 8.960448656875485 62 42 33
-128.053691594151189 -101.301061190218476 9.298859974872073 58 38 31
-128.069508611496190 -100.697510220507624 9.521931898265450 58 38 31
-128.085421987553815 -100.092865361895520 9.745038659388683 57 37 30
-128.101432055176076 -99.487125010695706 9.968180400969516 56 36 36
-128.117539179773757 -98.880287554996571 10.191357281226885 55 33 35
-128.162124204091356 -98.263258522642403 10.760629638839305 57 35 38
-128.140587261538712 -97.666618625805256 10.522467155319390 53 34 36
-127.977290526260475 -97.124708972578148 8.554167364955873 55 39 42
-127.795220589252551 -96.599762922900439 6.355343384286186 126 114 115
-127.717305549989291 -96.039825897663420 5.425434304120273 197 191 192
-127.425145990460265 -78.660237052985806 1.891861670852933 183 185 186
-127.492441280473258 -77.988029624025486 2.693148332615237 184 189 189
-130.203716652746920 -1.604615795956698 13.735554394417193 60 61 59
-129.718437976347673 -3.316644535466412 7.867218379944831 30 32 29
-129.715777941561839 -2.859411708573448 7.417803761557963 20 22 20
-129.713603704617810 -2.403559301850031 6.968635756551663 12 17 13
-129.784225553037885 -1.617530698973292 7.326906674249585 8 15 7
-129.896993773576071 -0.638076398584958 8.146784783711780 8 16 5
-128.481006122438657 -3.417485554834893 -11.569737206613951 85 88 71
-128.630237913796577 -2.303677201984335 -10.401221368852475 86 87 71
-128.822894300973559 -0.978903065603072 -8.770667390406373 86 87 71
-128.320655240672465 -146.349157056030634 13.216043696874323 30 43 37
-128.118830999436739 -145.370243249088901 10.892237521674360 27 40 34
-128.030794381957435 -144.618793563184056 9.955514977159822 22 35 29
-127.971358055378346 -143.925154758790683 9.365646444984804 26 38 30
-127.959341782842671 -143.321797004017952 9.353687236921303 25 37 29
-127.938073090151619 -142.701393737381807 9.226267359833088 25 36 28
-127.964121677234317 -142.166316898402840 9.676656639585104 24 32 27
-127.924357102972010 -141.512636145832630 9.318328084430931 29 36 32
-127.960120731599858 -140.991754622668765 9.884370011195102 34 41 37
-127.996003367371145 -140.468268159895359 10.450442056616737 37 44 39
-128.041409517904924 -139.958001268186251 11.132065079463217 27 34 29
-127.983515877201540 -139.273498347265388 10.543028603161360 31 38 31
-127.963418361028189 -138.652983150557873 10.416167860752324 29 34 28
-127.952883452397003 -138.048148483157348 10.404902129499391 28 35 28
-128.017598804235490 -137.561275443007901 11.317721182570779 10 17 10
-128.044871305332862 -137.012315576978494 11.768553073620581 1 8 1
-128.044132523826988 -136.418738041647970 11.872948536242035 10 15 9
-128.024794387480142 -135.796914408313739 11.746437610143545 15 15 13
-127.968145375679214 -135.121219775061093 11.158087228172292 26 26 24
-127.977237712076317 -134.541889737669294 11.378191405474354 26 26 24
-127.986461749737046 -133.961571468552762 11.598348415843958 17 17 15
-128.033237325905674 -133.431507854857159 12.280422789615756 17 17 15
-128.042703950166384 -132.848110269001552 12.500664155629153 26 27 22
-128.005563089034069 -132.202398639940952 12.143672806034687 33 33 29
-127.959245973513475 -131.546436682753892 11.671327171097175 44 44 42
-127.997152965119568 -130.998205048589995 12.238112946931210 43 43 41
-127.979148789024606 -130.378672845186344 12.112263769684205 36 36 34
-127.914633217352673 -129.703932393262761 11.409300989382217 32 32 30
-127.878281590145605 -129.065247860655887 11.052759540026244 31 33 28
-127.981943836693688 -128.587615982290743 12.427741317630421 35 38 33
-127.964488381509796 -127.968973340219648 12.302163803288039 42 47 41
-127.928538602725084 -127.330807592755804 11.945819936955957 30 36 31
-127.818235911643058 -126.615948638302527 10.666245371170561 75 81 77
-127.804161794930522 -122.421210165797518 11.059769351306073 116 99 92
-128.113066134688353 -122.075524445317001 14.973191899128381 121 102 96
-128.161938127688273 -121.505749942862863 15.655860427399318 122 100 93
-127.802541385384814 -120.621733548680822 11.262189005975188 121 96 91
-127.916653184283916 -120.105100415997185 12.752627239023326 119 91 85
-127.984430720913366 -119.548805979208609 13.666196641492490 115 88 79
-127.903924629935162 -118.888202726669704 12.734011803019570 107 79 71
-127.916270337880121 -118.291779200799240 12.955496430254527 102 73 65
-127.826785886443105 -117.631573913935270 11.908161586453502 99 70 62
-127.793045210628094 -117.008908398677718 11.553034099086688 91 62 54
-127.759431216173368 -116.387922994189850 11.197984509872583 86 57 49
-127.781494728578792 -115.797921115155262 11.535043087608955 81 54 43
-127.757371296092444 -115.183263475426671 11.295457770491566 82 55 44
-127.798141879299862 -114.600102521848370 11.863253933700406 81 54 43
-127.801990746806126 -113.997985533011970 11.969756210999378 83 56 45
-127.815190817529498 -113.399148355581389 12.191624717531056 82 55 44
-127.736022856186011 -112.764055327792832 11.260342625247233 84 59 45
-127.629264792456269 -112.123618260472384 9.983229858907833 84 60 47
-127.596596946931271 -111.513002867973029 9.628739647841400 83 59 47
-127.582525774338166 -110.909452686758897 9.504936516971526 76 53 41
-127.642463332098217 -110.325897329400789 10.303615805152191 84 63 53
-127.610118720324252 -109.716992559873873 9.949297836305902 82 61 51
-127.642523464946905 -109.122922858931304 10.402120636874315 80 62 51
-127.610393758173529 -108.515423069251582 10.047919940007063 79 60 49
-127.615295715863482 -107.914925223066732 10.154942678688911 79 60 49
-127.537246665693885 -107.304322538338468 9.224447961079363 79 61 50
-127.560811665068286 -106.706802118295855 9.562147452915468 76 58 47
-127.566018236730542 -106.106621336792969 9.669319181583575 73 56 47
-127.589765736318810 -105.506397657289256 10.007078154888774 69 51 43
-127.521398849717002 -104.904819508293102 9.192167130142707 65 47 40
-127.545342689013864 -104.304068664600734 9.530014605325732 62 44 37
-127.550942004046959 -103.702833561250827 9.637363368411798 60 42 35
-127.565853067231956 -103.100212623406748 9.860011459725627 58 40 33
-127.516359892378603 -102.504332720605802 9.275905978737939 57 40 33
-127.476193632127234 -101.909791625128676 8.807135127662661 53 37 30
-127.482192979979672 -101.309113870936926 8.914681002153173 52 35 29
-127.460659866165855 -100.713699634623921 8.676532966628230 53 37 31
-127.494480238893601 -100.106117330967521 9.129893906821849 52 35 32
-127.509975330160216 -99.501313201899364 9.352798922484055 51 36 36
-127.580797865690016 -98.878882300101040 10.267144266131339 53 38 40
-127.614882833821099 -98.264190826023238 10.720558609596480 82 70 71
-127.483402061472219 -97.706718666801066 9.099895928911650 174 166 167
-126.712555098497518 -96.248941605833480 -0.485167695945421 193 194 193
-126.103297343481572 -95.961530765137709 -8.096279386501664 188 192 190
-127.089046549394084 -93.132131676086360 4.318934799960971 149 160 154
-129.025336515471253 -3.787320227991409 6.542755953880572 33 35 32
-129.052999775762828 -3.193093966801214 6.439014408441807 23 25 23
-129.011002950588562 -2.927793955404303 5.529321325575097 13 18 14
-129.079924851449078 -2.145510542967968 5.886817545314074 9 16 8
-129.099234896514417 -1.598626743559227 5.668708285164911 6 14 3
-128.018511654615509 -2.971969896172647 -10.686990041999877 84 87 70
-128.102801490881120 -2.159927223895940 -10.211589296730864 84 87 70
-127.631140296158392 -147.284271269605711 11.232924437432473 44 57 50
-127.489428286088639 -146.411468206222224 9.604121308286523 39 52 43
-127.504468073317014 -145.862279202528697 9.938239867402075 39 50 42
-127.482881592002556 -145.238415457066168 9.810632340878755 38 49 41
-127.452300582858442 -144.597242000181097 9.567684800596538 32 42 34
-127.376004678534457 -143.868586943415949 8.747672494500989 33 43 35
-127.345853061122682 -143.231301418718800 8.504970394190877 33 40 33
-127.325070835340000 -142.612465086521013 8.377799370447491 33 40 33
-127.341142381088446 -142.062021944901602 8.712398609830728 32 38 34
-127.293216309612689 -141.393530119631095 8.239154279652695 34 40 36
-127.263814093772510 -140.760125457134706 7.996850638149880 32 38 34
-127.280359896386344 -140.208458280661119 8.331664160786289 34 40 36
-127.306187385123252 -139.671104964704455 8.781924234926436 33 39 35
-127.295567322913513 -139.069481499160730 8.770650821007280 34 39 33
-127.230279970206908 -138.376321998105141 8.067129226778093 39 44 38
-127.201739648697696 -137.746590919186389 7.825275726610158 45 50 44
-127.319430202028684 -137.353742076304570 9.429559082310760 51 57 50
-127.428022531745171 -136.938881778459972 10.918404419136351 65 72 65
-127.454574969216509 -136.389384910555151 11.368886306585523 61 66 60
-127.335401914727882 -135.615301095814118 9.973599673192069 34 34 32
-127.325811914534512 -135.011497901454561 9.962796600367113 10 10 8
-127.325475427599883 -134.421161602507425 10.067417883006868 22 23 20
-127.388991412126089 -133.921978320670661 10.979536447365319 30 31 28
-127.407094029132082 -133.354460122611584 11.314931582142577 24 24 22
-127.398032401193177 -132.747786933532467 11.304351738495654 14 15 10
-127.307301784662371 -132.030837374549492 10.255836636286375 12 13 9
-127.307641635904019 -131.438809973962236 10.360764069432690 12 12 10
-127.299028423171947 -130.834610851270526 10.350424212891852 17 17 15
-127.345020105847368 -130.299158347108460 11.032068104146731 32 33 33
-127.227759365320708 -129.559462954786795 9.638050292505028 64 64 64
-127.210498869335410 -128.946270347379794 9.512622145919664 51 53 48
-127.284047081329817 -128.439929472173276 10.540325301727563 39 44 38
-127.303278188792888 -127.866653082869888 10.876201030516199 38 43 37
-127.277316064604861 -127.241436675800216 10.635627402894642 38 43 37
-127.206212109710805 -126.568378963497523 9.818671199006104 31 38 31
-127.243917856715655 -126.013565416553419 10.385292949178023 90 91 86
-127.245514551596813 -125.419067799993414 10.490796224839414 98 91 87
-127.283412379239763 -124.860020528231317 11.057466285873801 110 98 92
-127.194795424033401 -124.176383428406126 10.010305253874009 108 98 89
-127.088276633490636 -123.480857598575597 8.732739898700345 114 97 90
-127.135570070560576 -122.930165246549066 9.414849673385646 114 93 88
-127.282312834075725 -122.463036297227958 11.364843559166474 113 94 88
-127.383914915214206 -121.948597842910019 12.738460892124067 114 93 88
-127.314036778295815 -121.288144169135307 11.922220855053581 114 94 87
-127.271388977406502 -120.652778099333275 11.451842611473666 115 95 88
-127.283008532410406 -120.060430008363255 11.673021800129504 117 95 88
-127.339823731078241 -119.499659070196685 12.470441893895668 112 92 84
-127.279502252173472 -118.853854649353565 11.769783406301428 106 86 78
-127.309458310212392 -118.271150604334210 12.221551756007642 99 79 71
-127.240385448887565 -117.623555205105902 11.405829316700192 91 69 61
-127.243522902160649 -117.023278817226625 11.512010202098850 83 61 53
-127.210741488801332 -116.401862321865764 11.157354479392012 81 56 49
-127.250105515156463 -115.821210194387106 11.724503575231381 77 50 44
-127.235548628408679 -115.210188482209588 11.600391172153195 78 51 45
-127.248096159147451 -114.612768839754011 11.821962097192568 80 53 46
-127.251743565135683 -114.010224623959786 11.928363598330179 82 55 48
-127.273476960325667 -113.414755919167746 12.265207976338388 83 56 49
-127.214382762096079 -112.785987234078902 11.565311972998614 78 57 49
-127.119464789858881 -112.147527044468433 10.404742699760618 77 58 51
-127.051652709417482 -111.523478364843299 9.589865791920033 77 58 51
-127.037877552317042 -110.919492997140068 9.466199794253981 71 53 48
-127.060135433644746 -110.325798145497927 9.803313343794315 73 58 53
-127.055540974872287 -109.724016525223760 9.794920929939451 69 53 48
-127.069002104574992 -109.126024987962126 10.016923030791133 69 54 46
-127.109482378035622 -108.531797180303101 10.584466394123609 66 52 43
-127.123120213240128 -107.930841942307808 10.806522523421108 61 48 40
-127.020212193803076 -107.314949040049086 9.531504250495459 61 48 40
-127.025086403661120 -106.714594510235329 9.638515189937010 58 45 37
-127.039023234279540 -106.114228230200851 9.860720420055827 55 42 38
-127.053050601282379 -105.512782323502478 10.082957849331024 51 39 36
-127.004414115880621 -104.910427614014310 9.499195557202626 50 38 34
-126.964855039327659 -104.310511169650582 9.030659849560948 49 36 33
-126.997098816600001 -103.708222621653434 9.483321043179188 46 34 30
-127.029426500389235 -103.103757434472854 9.935999972146959 45 32 29
-127.017046238432982 -102.502691807837351 9.813031341898153 46 37 32
-126.968938020857735 -101.907726852820844 9.229597837742233 43 33 30
-126.938852140553365 -101.312167797539828 8.876497812429790 40 30 29
-126.899917215443537 -100.720177921417331 8.408342288847990 43 32 31
-126.870042385184803 -100.128161002290284 8.055379690140825 54 43 44
-126.867125913768930 -99.530339003350747 8.047830778057232 75 66 66
-126.944856375704020 -98.907744405002205 9.076338049928069 150 144 144
-126.933172481134804 -98.310480023868649 8.953741687579850 178 177 177
-125.469719133138582 -97.692350305177413 -9.822730339556841 199 201 203
-125.682146352618602 -97.044532913879380 -7.067160957649946 168 177 176
-125.783138130442325 -95.302115918674986 -5.706475791711000 142 154 152
-126.040505500134444 -94.593566060390600 -2.375737921174249 57 69 67
-125.958175992440545 -94.067031572722385 -3.418273923727128 54 65 65
-126.054749327284384 -93.435797065114443 -2.159123451130057 60 72 67
-126.133522228748305 -92.810043939256602 -1.130149992072205 58 71 64
-130.421362246462792 -0.677103995587589 35.004174975331722 122 123 109
-128.870117056879877 -3.157803564765925 12.780976006148677 116 119 108
-128.654297110336557 -3.695543730941552 9.800932705226813 120 122 118
-128.428514080010615 -4.293732897860514 6.705886446185019 44 46 45
-128.387198626721300 -4.024656836597979 5.796480460514374 31 35 33
-128.424147081812492 -3.385546741555541 5.807577793511655 19 23 20
-128.344596686004394 -3.309709274128963 4.438433904637606 13 18 13
-128.411889723725210 -2.530269262537627 4.795180150387125 11 17 10
-128.568061465781909 -1.319591044790606 6.187736676433019 4 12 1
-127.268202067140123 -1.310958360403085 -16.495118564063546 89 93 76
-127.089193036375235 -147.927827734675617 11.202000945822846 66 76 70
-126.915231558784512 -146.974195802557944 9.113502230124112 58 68 63
-126.893766061652087 -146.351025593837164 8.985959720940883 52 62 54
-126.809905318452635 -145.598574614396227 8.051224593550756 45 54 46
-126.833547599015674 -145.070242314797042 8.500532129443911 41 47 40
-126.821602779729176 -144.467785058930161 8.488616373657493 39 45 39
-126.809834755319230 -143.865484147361286 8.476786805264396 33 38 32
-126.753641462063001 -143.175975912440322 7.888512247141449 27 30 25
-126.733331272488812 -142.558152697888829 7.761577472431128 26 29 23
-126.713200751502839 -141.941023966568764 7.634735799222284 22 25 22
-126.639820186564890 -141.224696273941731 6.816245073247813 21 24 21
-126.575573693103976 -140.528723033490394 6.113192459280924 16 19 15
-126.556021407210082 -139.916674452896387 5.986679704301594 19 23 19
-126.572197552574238 -139.368606275071045 6.321353430477842 30 33 30
-126.570732352021651 -138.787918587077343 6.425534058391293 61 63 58
-126.507250696278135 -138.099870455806695 5.722928917296798 64 66 61
-126.479480987018249 -137.475244228685824 5.481496622191486 66 70 64
-126.513978983485416 -136.954932237235681 6.046938937344208 68 72 66
-126.761382437366620 -136.778901822656564 9.378391594859295 72 77 71
-126.716221349871475 -136.119138273553290 8.906559868071326 68 73 67
-126.688958464454856 -135.489490705688951 8.665318348572583 68 70 67
-126.626443354006085 -134.806516589087465 7.963227828816002 85 87 84
-126.634917958367879 -134.233804400799471 8.183104606075148 79 81 78
-126.740815682658024 -133.804034591349762 9.670507381808278 51 53 50
-126.776016922293095 -133.264757277203472 10.236090906488130 59 61 58
-126.749456160355948 -132.635077911725602 9.995184953146463 46 48 43
-126.696548792412017 -131.969796927338734 9.408731753690262 32 34 30
-126.696792010961872 -131.379286591028290 9.513628573992719 23 25 22
-126.688335603761544 -130.776602448383841 9.503379327131455 21 23 20
-126.644724293506755 -130.128233210666707 9.032406295834164 20 22 21
-126.566001148465006 -129.437458383818921 8.100763841414562 10 12 11
-126.549165729872385 -128.827415049690643 7.975571467448702 48 53 49
-126.611760986664507 -128.313603713992791 8.887098984908306 64 69 65
-126.603967113808409 -127.712700497495547 8.877185024173855 33 38 34
-126.631512346028217 -127.152177135274485 9.328028359982454 34 39 35
-126.597551014370907 -126.520921386316175 8.972706888026153 31 36 32
-126.642903784114182 -125.977141745152977 9.653959410119995 41 37 34
-126.644369010574337 -125.383871043597622 9.759412420991907 106 96 94
-126.672317880873209 -124.817069871604289 10.210384235224268 102 89 86
-126.612488146449024 -124.161050275801315 9.509855846576556 101 87 82
-126.500109817221372 -123.457751972116966 8.118548417282483 103 84 80
-126.545976391399336 -122.908012357000104 8.799985392650683 105 86 82
-126.670919825888276 -122.426067106118708 10.517680272671242 101 86 81
-126.637940393872213 -121.798874854061381 10.162870365752610 102 87 82
-126.622634864616060 -121.188064424618943 10.038401989503910 101 87 81
-126.660059838747628 -120.620280150386463 10.604755904683714 103 89 83
-126.662502376540203 -120.022624143838854 10.710631317799852 104 91 83
-126.621232668706085 -119.391845589213844 10.240959570812151 104 92 85
-126.623895952931065 -118.794559263577426 10.346944393576223 104 91 85
-126.679207829797832 -118.232648077515321 11.143633566201260 100 87 81
-126.638282941692182 -117.604190078089331 10.674150666430080 90 77 71
-126.623742465616317 -116.994257680702603 10.550057327025513 79 64 59
-126.626811975333879 -116.395232337289116 10.656218586089182 73 58 53
-126.726202029978708 -115.849463748634776 12.028455196342776 71 54 50
-126.685717290384360 -115.223346804004606 11.559206959763799 75 58 53
-126.697810218111925 -114.625499465514494 11.780556001790757 75 58 54
-126.640074954266652 -113.994041421171886 11.081282425076495 72 55 50
-126.687322934064809 -113.411444502351827 11.763042043425315 73 56 52
-126.621082723815533 -112.779798638116503 10.948838911258974 68 55 51
-126.554974384697857 -112.152000315671060 10.134738470470438 66 52 49
-126.488996386477552 -111.528047648630960 9.320739969583457 66 55 52
-126.501707409602318 -110.932285276356140 9.542406167934388 68 58 57
-126.497054265644380 -110.330590498743987 9.533986573203094 74 64 63
-126.483773857881857 -109.726757929518925 9.410558834755989 79 71 68
-126.522930781563531 -109.134812740174311 9.977492608227294 91 83 79
-126.544723010322073 -108.536930620870351 10.314340289525120 93 85 81
-126.531724807824816 -107.932063475902140 10.191036907701772 97 89 86
-126.431657423834451 -107.317069698367604 8.917386840179319 94 88 84
-126.436307216515985 -106.717642485867330 9.024299964555837 98 93 89
-126.458474926497558 -106.118729219527594 9.361316660669303 100 94 92
-126.463303858381266 -105.517689521023229 9.468298886497593 100 93 92
-126.398545786377014 -104.916290122336520 8.655116146251714 99 92 90
-126.342613797092682 -104.318421734403401 7.957051005113811 98 91 89
-126.382566669034475 -103.717590958050550 8.524274093693663 92 85 84
-126.396482658730164 -103.116558633181612 8.746462497652431 88 82 81
-126.393079561887916 -102.516664674178614 8.738659457907090 87 83 81
-126.311453752683178 -101.929241588401609 7.695833345371170 89 85 83
-126.256049116840856 -101.341753056114655 6.998127333380836 97 93 91
-126.174658006373335 -100.763328135800990 5.955506122553771 99 95 94
-126.023804181575159 -100.207436740675675 3.993015056820042 97 92 92
-125.846999768566420 -99.668241118865296 1.685704521858042 90 88 87
-126.044222072866575 -99.021748510606102 4.323154676197845 82 82 80
-125.528594690644127 -98.610468955530976 -2.468427413412087 67 70 69
-125.169667063333364 -98.172063215719888 -7.189864172272109 71 76 75
-125.149887034616228 -97.616900438716968 -7.426759209404565 71 81 80
-125.330075072249613 -96.974507336497993 -5.019133761415446 70 81 80
-125.267010775248551 -96.435792806627717 -5.830860958660679 70 82 78
-125.238803306002296 -95.883342652672425 -6.182618616984144 72 83 79
-125.340998437193036 -95.262647966873914 -4.809811319683547 66 77 74
-125.382457783404718 -94.669904597382569 -4.241784291235120 47 58 56
-125.302405359914133 -94.147260552223372 -5.283190898231197 62 74 72
-125.179037947845899 -93.656886111952332 -6.899281504639873 63 76 69
-125.220773215150032 -93.064902842027763 -6.331114652399947 53 66 59
-127.955031727822359 -4.203998011248226 8.363051469241071 119 121 118
-128.396206143307637 -1.577186085075680 13.314000754217204 46 48 47
-128.007768364704418 -3.008066721282791 8.154252404166556 29 33 32
-127.864577323349806 -3.250197163208785 5.981923857585912 20 25 21
-127.721348209110687 -3.502548159076100 3.809682302363996 15 22 15
-127.768095414900912 -2.819337433043207 3.935872259079815 8 15 6
-127.882121300826427 -1.801472247372379 4.866815533734666 5 13 2
-126.755786365139073 -149.044548783708251 13.936326315808458 103 112 107
-126.368752008071766 -147.594009973515625 8.969307229788313 76 84 79
-126.304093147824787 -146.874725276385419 8.265817384430193 55 61 57
-126.239685310202077 -146.158909470548934 7.562483334475758 44 51 44
-126.210258055465715 -145.520836011556668 7.320119656183152 35 40 34
-126.241776083401774 -145.012086382696566 7.884255381811641 34 38 33
-126.247398048228405 -144.446685781372025 8.102842727932853 33 35 30
-126.244504885494280 -143.862594594649920 8.206305189711117 29 31 26
-126.163813323894743 -143.120867296262304 7.273196572171543 28 29 24
-126.178599589658461 -142.572837971650017 7.607205784646681 22 23 18
-126.132957867735058 -141.904852241005045 7.135059488950589 31 33 30
-126.052931932829665 -141.172612106032716 6.202366961078951 65 67 64
-125.929935361384707 -140.363032839708239 4.694026912844464 83 85 82
-125.867683792287565 -139.673408155505228 3.991994012733869 76 78 75
-125.848807491806866 -139.066324681454603 3.865855755195014 76 78 75
-125.821465896353686 -138.444364080801506 3.624655706899716 73 75 70
-125.777047372361793 -137.793069383085509 3.153266394088064 75 77 72
-125.758670178795555 -137.189091920775923 3.027398879325517 75 77 72
-125.688763382404915 -136.497409658820288 2.210823680115681 73 75 70
-125.748210089071634 -136.026486364497345 3.121286410142574 75 80 74
-125.893784436461530 -135.693091278738535 5.182956804414346 74 79 73
-125.858720940077376 -135.057911793204227 4.827067671638929 76 78 75
-125.866808043738843 -134.492642576622814 5.046835684138102 79 81 78
-125.883609843110619 -133.939739126851379 5.381758949163896 82 84 81
-126.055121638840831 -133.620822757054611 7.788563421273807 79 81 78
-126.029150845293032 -132.995848773135720 7.547988141643600 80 82 79
-126.011911518260092 -132.384602395067645 7.422590155728727 79 81 76
-125.934774822664934 -131.688147295342020 6.491648183384171 78 80 76
-125.986426627631772 -131.176017318873420 7.287098813156291 83 85 82
-125.969600624332472 -130.566409335819714 7.161915424721826 85 87 84
-125.944344607090642 -129.945989974265530 6.921728974642349 91 93 92
-125.842172681502831 -129.226215974581862 5.645993546169848 87 89 88
-125.817229539085361 -128.610607698046664 5.406006297248894 83 88 84
-125.877970820960030 -128.102404324463549 6.316704605034062 81 86 82
-125.844713698227267 -127.476052553299738 5.961770503320508 80 85 81
-125.897075658263702 -126.952181558155843 6.757440012640274 74 79 75
-125.864064664711549 -126.326521057119521 6.402630773873653 76 81 77
-125.873896976980120 -125.750220498541168 6.623120137043571 80 81 78
-125.892370355831517 -125.182151223920059 6.958686970508893 81 79 75
-125.928008796586454 -124.630475738967291 7.524352030105490 85 80 74
-125.869883713150244 -123.980313337314954 6.824699431689083 87 82 76
-125.760739178856369 -123.282863354375309 5.434999238510244 91 83 78
-125.805234596474591 -122.738988799349997 6.115840629290091 98 88 84
-125.858325955547471 -122.199785756538560 6.911701260139921 93 83 79
-125.851849893133064 -121.603485690795793 6.902465117946832 96 86 82
-125.862514904068235 -121.021929759393430 7.123298745112010 100 93 87
-125.907329740667691 -120.467623193738120 7.804185562911641 99 94 88
-125.901153035917488 -119.869293293306114 7.795071738290829 98 93 87
-125.835526611324539 -119.225324914988349 6.981035397250849 102 97 93
-125.880610493428634 -118.666521296155025 7.662004635070190 102 97 93
-125.951273289773638 -118.122429307100234 8.687938826742453 103 98 94
-125.928492858993735 -117.510680862952952 8.449025942849488 104 96 93
-125.948311701017161 -116.927239940162252 8.785078213187802 103 95 92
-126.002195910719195 -116.362849866308579 9.581058878297569 103 93 91
-126.081622948282870 -115.809345806650626 10.721947854677040 104 95 89
-126.042243716539190 -115.185789344833012 10.253254845600310 102 93 86
-126.011471198566596 -114.568793340337805 9.899605673893689 105 96 89
-125.972326908652633 -113.949395614276440 9.431067868139309 107 98 91
-125.992678932110096 -113.358798611663687 9.767301549523552 107 98 91
-125.953751328747813 -112.741915945232904 9.298893294644955 105 101 96
-125.881025404886799 -112.114231892468212 8.370769315313169 101 97 93
-125.859287345571744 -111.508817668354041 8.132420299664972 101 98 95
-125.795283347910896 -110.890982185595021 7.319429121130099 103 101 98
-125.765291023137081 -110.286725817379008 6.966284326651561 97 95 93
-125.794693945247218 -109.699260185883702 7.417739044623772 89 87 85
-125.764899436163972 -109.096408222470430 7.064703340737736 90 87 84
-125.769073439396095 -108.501676697274846 7.171437184140899 90 88 86
-125.680232806639850 -107.891633973385623 6.014067804529589 87 86 84
-125.667680844051290 -107.296700572296430 5.891080155365017 82 81 79
-125.672144704651373 -106.703923244036204 5.997972781070160 86 85 86
-125.702071659295569 -106.112190486915779 6.449634270742763 88 87 88
-125.588311872014529 -105.513982096631153 4.947888815001988 91 89 90
-125.373227770130086 -104.923104479574434 2.067438994751427 90 88 89
-125.513356775418018 -104.333601143895166 4.013009220232021 88 86 87
-125.577454362158051 -103.739916511044527 4.924433271216628 86 84 85
-125.607815851795820 -103.145223869845609 5.376272173366971 90 91 91
-125.596012104792280 -102.553903360517239 5.253679657283413 90 90 92
-125.491383733195690 -101.978338457640831 3.867394605217669 89 89 91
-125.327761183350319 -101.420903754200324 1.677061369300134 89 89 89
-125.206502906507680 -100.864189100142298 0.061296892806922 92 92 90
-124.967172697668246 -100.345912486416765 -3.162581518064741 90 91 87
-124.871510360396670 -99.800857113585138 -4.433404315202495 86 88 85
-124.818164419103155 -99.248066141020018 -5.129768295364585 80 83 80
-124.815553718892460 -98.680430305144228 -5.136860206211054 75 81 79
-124.711777214834129 -98.152279058358872 -6.522249675185748 76 86 83
-124.675607824082874 -97.602152981588048 -6.988651251492541 71 82 81
-124.647969340405865 -97.050361437062037 -7.340129929672315 72 83 82
-124.805978828206904 -96.409796577152335 -5.164813574725713 73 82 79
-124.778503348994377 -95.855253492735429 -5.516242595110754 69 78 75
-124.801715239667885 -95.274405897500870 -5.178540407505380 68 77 74
-124.799715395630372 -94.706687157440740 -5.185340940226894 47 56 53
-124.671348156005763 -94.216946147246233 -6.914675811706985 55 64 61
-124.568384516544228 -93.718949958973553 -8.299366007878945 59 70 62
-124.558244902997743 -93.164282527851881 -8.420785119673923 48 61 54
-124.927450417420417 -92.339337781305829 -3.374859101296721 198 211 204
-125.327465660125142 -90.294578510779033 2.116685561488140 0 7 2
-125.241894430617108 -89.780309509932508 0.961866100228121 9 21 21
-125.257524898449432 -89.182886941898090 1.184911861691177 11 23 23
-125.298520787842676 -88.561378330231477 1.752421078898152 11 23 23
-125.423843833712397 -87.857836413875887 3.468016557903667 5 17 17
-125.389210863289534 -87.301874695182363 3.002289930621686 2 14 14
-125.430484291169904 -86.671803046486573 3.569843777647748 3 17 17
-125.227603079008588 -86.292589849666825 0.808269431141753 10 23 23
-125.092213147257823 -85.854285757633761 -1.034754491061904 9 20 22
-125.175899607622426 -85.183093889972270 0.106960758856360 8 20 22
-125.209151792186518 -84.563787001215516 0.559929192735723 4 18 18
-125.116181225296728 -84.089811915111412 -0.708874205579036 2 18 18
-125.141214924836262 -83.480250581184663 -0.370596035793682 5 21 21
-125.225300314920347 -82.796319667155032 0.771178931331235 5 21 21
-125.326331912209852 -82.085565521878635 2.142502570743346 6 22 22
-125.141143179684775 -81.739804230397581 -0.388545647042037 0 13 13
-125.309758620708024 -80.935501371032430 1.901018007009100 0 13 13
-125.116357925008387 -80.613665781802112 -0.744571391458692 2 16 20
-125.285194156449165 -79.799144288188643 1.544992702435650 2 13 17
-125.294130492671215 -79.202050771206117 1.653980516449280 3 21 25
-125.311600843105481 -78.592053579978170 1.877777034529004 16 34 38
-125.531328745388947 -77.679263816945834 4.855829314172468 19 38 42
-128.346465903724209 -1.283039656771929 22.266747075701176 123 127 111
-127.544618108323604 -2.826485507196402 10.037132615894052 40 42 41
-127.718007492968752 -1.481576363172222 11.769120951542504 34 38 37
-127.451236062564163 -2.367451410867346 7.992273968168575 23 28 24
-127.257647103553197 -2.895985456965132 5.133630017182497 11 18 11
-127.239117791167729 -2.540221943646597 4.455950295564804 5 13 4
-127.239477767641731 -2.091904527983867 4.008072211019424 4 12 1
-127.351445926852236 -1.070699533751877 4.937996697939809 1 8 0
-126.812999082238917 -0.528723294546903 -5.524190673261160 77 80 63
-126.595427771808971 -0.908522653056747 -9.171850894262036 83 84 70
-126.458247474598494 -1.264545461325754 -11.340131570105797 82 83 69
-125.957521635085470 -148.529056377724487 10.666801974944974 94 101 96
-125.750798707969238 -147.473807363490096 8.007289873813477 69 74 70
-125.671064735822625 -146.718146501357069 7.074495938614575 55 58 55
-125.642184856664244 -146.080107792196941 6.832394480619655 48 51 46
-125.647205890298210 -145.517602668468271 7.050724147923603 39 41 36
-125.669220340120773 -144.990743209778373 7.499268095861652 36 38 33
-125.666119821424658 -144.407784308412317 7.602643014440389 33 35 30
-125.646359363068726 -143.788938786620832 7.475960706138551 31 32 27
-125.601562834683364 -143.118380879496186 7.004192271429332 42 43 38
-125.582170908650966 -142.501748156407984 6.877709045176459 74 75 70
-125.546162352725574 -141.851962970919061 6.521217455349074 88 92 89
-125.451615010727380 -141.087435705915453 5.359527818609308 73 77 74
-125.281857124764912 -140.181178108484318 3.162668849642159 69 72 68
-125.171096449568893 -139.398155940541443 1.771314662707312 68 71 68
-125.094102042659372 -138.685134042685377 0.840270230406645 70 72 69
-125.101040035166079 -138.132116010093767 1.059614619659470 69 71 66
-125.049541180538867 -137.471190645175028 0.473880082725259 70 73 68
-125.031679516719095 -136.873127019089651 0.348320069713424 68 73 67
-124.972181056554817 -136.202085087924502 -0.352204470908418 70 75 69
-124.988054282985416 -135.664523191771281 -0.017567513676454 68 73 67
-124.995691079994700 -135.111244534726353 0.202108498516679 70 75 69
-125.036826765026717 -134.612598959461536 0.881808169353292 73 76 73
-125.053025722513652 -134.069872312681724 1.216547791833364 73 76 73
-125.086006886476028 -133.552319612400822 1.781292862285198 70 74 70
-125.194072935401238 -133.149892118395798 3.380873290200213 72 76 72
-125.185558378965553 -132.560537303035034 3.370733430405892 76 80 77
-125.093926439268941 -131.845895757105069 2.210952010900996 76 80 74
-125.077387235312813 -131.247193416062885 2.086018083540978 72 75 71
-125.102567057364467 -130.709079073996037 2.535960482534847 70 74 70
-125.044707547416053 -130.051687235602941 1.836360517340552 59 63 59
-125.061802547480326 -129.500654483383812 2.171443304602320 57 60 59
-124.929486763710401 -128.746989477544531 0.437502760866323 50 55 53
-124.905330827466301 -128.143266901950994 0.198014454171073 52 57 53
-124.989194652408983 -127.678824292881202 1.452801613596620 56 60 58
-124.956959798011425 -127.063531807196213 1.098470400331706 60 64 62
-125.049244653527921 -126.601112033601112 2.468165858901102 60 65 62
-125.000651412420922 -125.965530529402770 1.884082234605359 64 66 64
-124.885918779448218 -125.256498248587022 0.380730606841922 67 73 69
-124.928747994591319 -124.730534192978624 1.060959253836984 69 72 68
-125.137234200952904 -124.381052867257793 4.039431961411765 68 69 65
-124.782888968706445 -123.425028119393929 -0.795999592756374 72 71 66
-124.859110553915130 -122.930814589298521 0.343966213409601 68 68 63
-124.819596671722977 -122.316876230640403 -0.124692208012561 78 77 73
-124.920752003375043 -121.839352735414820 1.359950270660903 78 75 71
-124.964086041091932 -121.301445979922278 2.040297490835428 77 73 71
-124.949660007749856 -120.708887092048087 1.916437734703521 76 74 71
-124.951859196091462 -120.131071064269676 2.022400953144654 78 75 74
-125.011944154806343 -119.600363412882999 2.932553630343278 76 76 74
-124.931786118785723 -118.954357978162179 1.889826677920666 76 75 74
-124.926028868728039 -118.369605169782346 1.881053274816054 76 76 75
-124.936865677478878 -117.796859331658467 2.102059776183268 77 76 75
-124.890074948046546 -117.183095988661691 1.519063052587995 85 82 82
-124.810437059012429 -116.550352764593612 0.476721451297408 89 86 85
-125.151178611775990 -116.185917609677105 5.292052894709059 92 91 88
-125.170545885789053 -115.607849559532255 5.627944442136283 87 87 82
-125.157054446526871 -115.009705850332779 5.504474305237153 88 88 82
-125.044870691147310 -114.359992718114114 4.002952653573345 88 87 82
-125.138601998279512 -113.819224977217118 5.372533614651616 84 84 78
-125.117178598612441 -113.218738716677663 5.134385857105116 86 86 80
-124.964243846612959 -112.562931401023036 3.059011913247105 82 81 77
-124.943059666626468 -111.969044575294873 2.821046528873609 78 77 74
-124.741102432807139 -111.310666449047787 0.057040625580271 79 79 76
-124.703725382324563 -110.719589052647535 -0.410360223507610 79 81 79
-124.871887245708947 -110.191634663651641 1.992689919107335 74 77 77
-124.760732706415737 -109.578667881625464 0.492038889533717 72 76 75
-124.756491935909423 -108.997398324249971 0.484026819900834 75 75 73
-124.637380444669674 -108.393481755429050 -1.131196514739429 77 77 75
-124.641551858511761 -107.817408449077334 -1.024271851671926 76 78 77
-124.539107919968018 -107.226846998419646 -2.409666245452740 73 75 74
-124.559880757275920 -106.654856643356155 -2.073039720594522 76 78 77
-124.433057283710667 -106.071730627271293 -3.802597318461636 76 78 77
-124.355585234383838 -105.498327755465752 -4.843291969404305 77 79 78
-124.401236651824178 -104.929588701621768 -4.162153495049125 75 77 76
-124.373162729534357 -104.360190226740059 -4.514021722547852 77 79 78
-124.402563696725082 -103.788499570831263 -4.062405560054003 75 77 76
-124.513992832602753 -103.206287338602948 -2.463066857495193 71 74 73
-124.600880737603447 -102.619767403572666 -1.208089591778077 68 72 73
-124.442041854935070 -102.068644344734778 -3.396069368786584 68 72 73
-124.389828708071903 -101.506400129417443 -4.091988730952608 66 70 69
-124.272199123104301 -100.962825418633415 -5.705881997653819 72 77 73
-124.203822514966333 -100.413696170786565 -6.631116675182341 77 81 78
-124.209234171252035 -99.846694278451125 -6.523505307759535 78 82 81
-124.263840961066919 -99.262686488868155 -5.727380897803670 78 82 81
-124.302144788723581 -98.680886842186339 -5.160750809379238 70 74 73
-124.234138339547755 -98.139095947258269 -6.085732866775999 66 72 70
-124.084414532456421 -97.637262484180496 -8.157985775381746 68 75 73
-124.073891607239162 -97.080070599699070 -8.279614247632736 64 72 69
-124.227051103445149 -96.441298957752807 -6.106599653547448 66 73 71
-124.241215366893783 -95.866586136441356 -5.884021556404434 69 76 74
-124.198216327909364 -95.323325041445770 -6.464478633230300 66 74 71
-124.147135677450592 -94.787698193988874 -7.159582227059445 48 56 52
-124.071624253087279 -94.270914639285877 -8.198756110666011 67 75 72
-124.045264282712523 -93.726207352595097 -8.549550230639625 63 74 66
-124.125258462351553 -93.108476755440464 -7.409051051450405 74 85 77
-124.295228737506619 -92.419115754050097 -5.006797210188154 80 92 84
-124.612359246674757 -91.605116119801238 -0.539965456889632 11 24 17
-124.668023834332885 -90.979727814070458 0.256239049488130 10 23 16
-124.674742610347849 -90.391488935342096 0.364257135539503 12 24 20
-124.624358045659775 -89.852411586092785 -0.330548970991288 17 27 29
-124.647601603267859 -89.250178271078738 0.006948232010103 18 29 30
-124.728119554760070 -88.592724451000862 1.147289090769817 13 23 25
-124.743369834010309 -87.993168617003761 1.370131012540128 10 20 22
-124.750544148444774 -87.400683426845404 1.478323317193286 9 20 21
-124.667965286021925 -86.900773385923429 0.325083198077635 6 20 20
-124.593657360536668 -86.397540438832678 -0.713375452579470 8 21 21
-124.568455019977222 -85.845092854918988 -1.063695441185217 12 23 25
-124.567851858921728 -85.266380015826428 -1.069940973339840 13 25 28
-124.600012875056848 -84.649384446027014 -0.617470759129532 11 26 29
-124.542438738782991 -84.138325258781208 -1.426286811967088 12 27 30
-124.582962463980238 -83.509769805458845 -0.859076013174217 14 29 34
-124.639917628493336 -82.857679966278610 -0.062528951550291 16 31 36
-124.680640674363318 -82.223023208438150 0.504714397776752 19 34 40
-124.631637559565092 -81.705758433048914 -0.189206300081565 16 31 37
-124.443910876648701 -81.382079525506612 -2.832100244484110 15 30 35
-124.631937241915168 -80.543245992023984 -0.201029257624072 17 34 41
-124.624078278813002 -79.973649463604744 -0.321510986762092 24 41 48
-124.608158837783861 -79.416557387367362 -0.556578991223887 28 45 52
-124.551511365408146 -78.921947664013359 -1.364782408633488 27 45 51
-124.601142789060006 -78.267777071521508 -0.682619302693524 26 45 51
-124.650888030976560 -77.610263990203961 -0.000436152402386 26 45 50
-124.627237282831089 -77.067392492302289 -0.349915293051765 34 53 57
-124.718054919895778 -76.338731312071545 0.905478811772355 36 55 59
-124.612942625015606 -75.931734584469837 -0.590161475544534 34 53 57
-124.434405922605478 -75.657135299947839 -3.117294878637779 24 43 47
