ply
format ascii 1.0
element vertex 683
property double x
property double y
property double z
property uchar red
property uchar green
property uchar blue
end_header
-101.558647195901500 -101.262120053533536 -19.007782062308394 116 78 65
-101.580565919901090 -100.721931940405284 -20.000586611778004 119 83 69
-101.583139663966705 -100.170231322757090 -20.226752042888023 121 86 71
-101.591259910177641 -99.624848047288964 -20.671916788647906 123 83 71
-101.577230094677574 -99.058545299982228 -20.241022303275173 121 79 66
-101.577051355973381 -98.505861434599382 -20.357655748850021 120 78 64
-101.576878391503854 -97.953721350257183 -20.474280834639330 120 78 64
-101.576711358894201 -97.402124969739191 -20.590897486030599 119 77 63
-101.568221565781855 -96.839152105627264 -20.379036166617652 121 79 63
-101.559729472034832 -96.275092740142938 -20.167187131724802 126 83 67
-101.556793641933183 -95.718980200476039 -20.174315968520006 125 82 66
-101.562203528697054 -95.177232796782889 -20.509881030173858 122 77 65
-101.556498116601247 -94.616875069563037 -20.407519638429335 122 77 66
-101.559144712290816 -94.071968926764612 -20.633580278629324 116 75 64
-101.559016967945652 -93.522545680746973 -20.750155765484436 102 70 60
-101.564469847134760 -92.985415387735841 -21.085652733469772 114 95 85
-101.572724512662234 -92.456061180813890 -21.530588178234495 64 58 48
-101.572629029456138 -91.909624232835355 -21.647117492005378 69 72 61
-101.555799386735330 -91.323589017914870 -21.106906665659437 58 61 54
-101.566882033366639 -90.804453485853529 -21.661242912924337 32 34 28
-101.564019136604657 -90.251866017374994 -21.668300573331265 29 30 24
-101.555574391912913 -89.684266609836754 -21.456465326243944 36 32 28
-101.541539905586319 -89.100024952452017 -21.025757729591760 107 95 93
-101.535895709207793 -88.537753076982142 -20.923386755747430 114 98 98
-101.538654925513185 -87.999895798196178 -21.149320961132503 118 107 105
-101.533028534893546 -87.437346925562181 -21.046944320345148 121 111 109
-101.530211587584361 -86.883115071258430 -21.053996925180684 137 127 125
-101.513390225449285 -86.283203730893504 -20.513924971360922 135 125 123
-101.493762437655889 -85.671164797242000 -19.864461552446016 119 110 108
-101.479742399083861 -85.075218510890295 -19.433867525663430 50 48 46
-101.482567831992398 -84.536795619547689 -19.659775875386742 15 20 19
-101.479795485423679 -83.979010461792171 -19.666843719318393 13 19 17
-101.468608107345119 -83.389738764427563 -19.345684737488256 19 23 23
-101.446183212278740 -82.755769401657247 -18.586926301108463 15 19 20
-101.423755922598190 -82.117989623578524 -17.828208232822817 26 35 35
-101.421024312153435 -81.555560122996255 -17.835304395286244 11 20 19
-101.429571379357029 -81.039444732846206 -18.279963682299780 9 15 15
-101.432514702538057 -80.501790324666402 -18.505807723337568 12 17 20
-101.418576189557712 -79.892470426317431 -18.075312356297957 14 22 24
-101.407467004858432 -79.293362744447180 -17.754217213752895 18 24 28
-101.407653001455273 -78.743283746075633 -17.870649358005210 34 39 42
-101.407863991437182 -78.193737132640052 -17.987064065402137 36 41 44
-101.405278069459470 -77.631511347253152 -17.994088434059449 25 30 34
-101.399892477786636 -77.055790385315589 -17.891732182813655 31 36 40
-101.380403332863736 -76.410740928284881 -17.242542231524936 28 33 37
-101.372232176332503 -75.818520347549025 -17.030829538903731 19 24 28
-101.361256114363485 -75.210899629012602 -16.709758339863811 20 25 28
-101.358788370663447 -74.645340896102581 -16.716760480141346 18 23 26
-101.353520425768863 -74.064923584988037 -16.614396288961387 18 23 26
-101.345449941696302 -73.468831315714681 -16.402675288216102 28 33 36
-101.334574695537228 -72.856247614152522 -16.081606945715748 24 29 32
-101.337893571963491 -72.320296605945074 -16.307253789416677 29 34 37
-101.335582304302775 -71.753554135350100 -16.314193256900012 21 26 29
-101.338978256676882 -71.219189843309181 -16.539786894865074 30 35 38
-101.325394946243520 -70.587055376412337 -16.109356441959648 25 30 33
-101.323192801585478 -70.019697456875605 -16.116250040497704 13 18 21
-101.323869186007940 -69.469329047816117 -16.232450563944752 13 18 21
-101.316068946372397 -68.867612953678872 -16.020658168041592 11 17 17
-101.311147892907499 -68.282339847772676 -15.918178008325867 11 17 17
-101.303426733271891 -67.678660584156134 -15.706367988711463 11 17 17
-101.309960878547983 -67.164379445176479 -16.041112484886185 11 17 17
-101.308015951143872 -66.596569605184015 -16.047887683415837 13 19 19
-101.294740350759426 -65.954134535166446 -15.617416052360284 13 18 19
-101.281507023527084 -65.309486787841351 -15.186946974172741 13 18 21
-101.274010511081286 -64.701007385540294 -14.975078894351668 12 17 20
-101.272257621903123 -64.130326439240520 -14.981791776191869 10 15 18
-101.279102924063153 -63.618809740732900 -15.316358960205292 10 15 18
-101.277462100085557 -63.048858590721437 -15.323010718277857 11 16 19
-101.275878389871906 -62.478861517355362 -15.329635626033649 9 14 17
-101.265802472751233 -61.847161392298368 -15.008381662211548 9 14 17
-101.258633670097453 -61.234602531389989 -14.796398799065997 9 14 17
-101.248672545390320 -60.599807107060798 -14.475121780417027 9 14 17
-101.238771328433387 -59.963324510370263 -14.153833469018451 11 16 19
-101.248902406324305 -59.476634914708434 -14.597432076263772 11 16 18
-101.250544925648200 -58.926326651758473 -14.713169784971427 8 14 14
-101.246549369650054 -58.332132330232213 -14.610338700993964 9 15 15
-101.231205232633940 -57.647501708266418 -14.070432105865535 12 18 18
-101.230203888209047 -57.073729575053108 -14.076817270411624 10 16 16
-101.226421483004088 -56.476887401790769 -13.973911471493352 11 17 17
-101.234137957293115 -55.972526443935251 -14.307988232113189 11 17 17
-101.241934733469051 -55.469726600665950 -14.642010507248898 11 17 17
-101.241243651155486 -54.897028364217036 -14.648236189305521 11 17 17
-101.232063637888615 -54.251976932667468 -14.326691059855449 10 16 16
-101.214394348448977 -53.532116758983953 -13.677400560229700 11 17 17
-101.202522749658200 -52.858174760865296 -13.246581576262884 12 18 18
-101.199310032443933 -52.256692210782852 -13.143451006292338 11 17 15
-101.201902215027175 -51.704937579618033 -13.258749287546550 11 17 17
-101.201728869955815 -51.128180020583024 -13.264769070527763 10 16 16
-101.201649510816708 -50.551325664367639 -13.270744887343170 10 16 16
-101.207381628083880 -50.026371611307489 -13.495124047714000 11 16 19
-101.213211652740611 -49.502405650484206 -13.719446198595477 12 17 20
-101.216283844572771 -48.952878859064100 -13.834491912796722 13 18 21
-101.213743079286530 -48.350150482943128 -13.731052707240281 11 16 19
-101.225593030282482 -47.882221971332342 -14.173635894221036 12 17 20
-101.226119621656792 -47.306901521366605 -14.179306037120227 12 17 20
-101.229611346564539 -46.759098790064513 -14.294133301519281 10 15 18
-101.221787830643379 -46.100073828607478 -13.972083064951732 11 17 17
-101.211223738088464 -45.411097435832474 -13.540793331060314 15 21 21
-101.217911262481024 -44.890549011518758 -13.764670078587272 7 13 13
-101.213294860999568 -44.256033990871714 -13.551692161251879 10 16 16
-101.205946440055371 -43.591281027900706 -13.229473602072943 12 18 18
-101.204431719764997 -42.983298951290031 -13.125597619085909 14 18 17
-101.225867561605469 -42.611033277152430 -13.895186897862772 10 15 14
-101.241715831062137 -42.182795400731251 -14.446307632270646 4 10 10
-101.254833998613449 -41.727039115652403 -14.888158813955897 40 46 46
-101.259525043652346 -41.182194553291126 -15.002381877796097 27 32 35
-101.284295494055641 -40.852258177106513 -15.880799059458838 7 13 15
-101.275002523520897 -40.155490448312413 -15.448981425285638 7 15 17
-101.268703904405712 -39.487551574481230 -15.126293438691079 9 17 19
-101.282478100510403 -39.038069445797639 -15.567766195521443 8 16 19
-101.302076862427114 -38.654082821947043 -16.227496091739908 21 30 35
-101.307586693663993 -38.113114299635342 -16.341287553042207 17 26 32
-101.293343944619238 -37.346461997215826 -15.690839463124178 15 26 30
-101.299157284477957 -36.804279627342460 -15.804498221684810 11 21 24
-101.307961248901904 -36.295283471959742 -16.027243558247875 12 22 24
-101.316915487067448 -35.787177411793209 -16.249907842170870 8 18 20
-101.306166965643527 -35.046227329531227 -15.708382444792960 8 16 18
-101.301266853698081 -34.369638989625891 -15.385114450461487 10 17 18
-101.305041251895418 -33.792994883442624 -15.389244478767495 11 17 17
-101.311814627098613 -33.250334460794917 -15.502448880547462 11 17 17
-101.315925717320638 -32.673497403229867 -15.506419822688429 10 16 16
-101.323037403137448 -32.131182978229042 -15.619458816302853 7 13 13
-101.330321260873930 -31.589170672702213 -15.732412333593601 6 12 12
-101.343425404763593 -31.118087553665259 -16.063569106031508 6 12 10
-101.359518304490422 -30.683989825260532 -16.503774243636371 6 12 10
-101.378594983108655 -30.287699770383341 -17.053021663191089 6 12 10
-101.378125520472153 -29.640889518460799 -16.838186425518842 4 10 8
-101.366604512650895 -28.847016675147458 -16.186716458630684 5 11 9
-101.349688177625026 -27.976151506310359 -15.316902348626854 7 13 11
-101.355473468403531 -27.396351767347955 -15.320102855328287 8 14 12
-101.358654977670241 -26.779002036376461 -15.214076638190647 9 15 13
-101.376055288901014 -26.348419357368698 -15.653620132444189 7 13 11
-101.379645103215410 -25.730723487006987 -15.547402146557999 7 13 11
-101.383451512245955 -25.112151819961070 -15.441089557517188 7 13 11
-101.393062722923759 -24.569409581138725 -15.552937190708377 6 12 12
-101.397306436628611 -23.949617237230385 -15.446427961650500 8 14 13
-101.404562936079316 -23.367836755439651 -15.448945035946991 8 14 13
-101.409261392870206 -22.746515033951834 -15.342234002007245 7 13 11
-101.416972767887557 -22.163744097814856 -15.344543660635964 7 13 11
-101.427689511199802 -21.620349270277835 -15.455869128227732 5 11 9
-101.419238930255176 -20.796975292935741 -14.803233949638951 5 11 9
-101.413840899659263 -20.010177884798651 -14.259620825345792 5 11 9
-101.422538420926401 -19.423098778500488 -14.261503061148574 4 10 6
-101.445273250786030 -19.039906914286910 -14.808865607431983 4 10 6
-101.454445427273939 -18.453406056714662 -14.810514817599454 5 11 7
-101.483116212118588 -18.156398053773870 -15.575868259426613 4 10 6
-101.509234791047263 -17.821175342379334 -16.231977146086820 3 9 5
-101.510896483879492 -17.111094961105547 -15.905914757248468 3 9 5
-101.518320641718631 -16.483400646261234 -15.797965353574881 3 9 5
-101.526022058001686 -15.854691424118950 -15.689893757362711 3 9 5
-101.542180242954885 -15.353401345654580 -15.909041537511854 4 11 4
-101.534114548473468 -14.464901779321103 -15.146033716041671 1 7 3
-101.526403355876980 -13.571989476505124 -14.382901724598241 1 6 2
-101.575941162285829 -13.591437925024007 -15.911027204049645 3 9 5
-101.601280608984709 -13.222809894156928 -16.456993797712158 4 10 8
-101.613366309164675 -12.635385334664896 -16.457258696259970 7 13 11
-101.601523048486669 -11.646931307224627 -15.475369161149871 10 16 14
-101.603515963937909 -10.876781603461069 -15.038907755338073 9 15 13
-101.608542930409442 -10.148891670403593 -14.711418753789133 5 11 7
-101.643320100588269 -9.917563447486035 -15.584033731753351 3 9 5
-101.683640727409610 -9.781444372529075 -16.674734473313237 4 10 8
-101.721486506243593 -9.604489715353294 -17.656180629908476 13 19 19
-101.759530746107075 -9.432042402824171 -18.637485447064734 14 20 20
-101.784544194022814 -9.031702660211907 -19.073075537086794 12 18 18
-101.799273040077267 -8.445972714005800 -19.072058520202347 11 17 17
-101.793281618789507 -7.483246993688896 -18.197963535716838 13 19 19
-101.800866133754070 -6.751996351647112 -17.869285605201213 14 19 22
-101.837619420393892 -6.542168129039004 -18.740733905520187 12 18 18
-101.913725165396343 -7.054757022001411 -21.248803196172787 4 10 10
-101.883189321257362 -5.604155200658457 -19.282883284039144 16 22 21
-101.907741737923075 -5.160508343453540 -19.608280826796545 24 30 28
-101.917099710890284 -4.425333191264945 -19.278794877005851 24 30 28
-101.947479622725282 -4.080088381041122 -19.822109434187695 9 15 14
-101.975576777613767 -3.687656897748497 -20.256142885678116 9 14 15
-101.998862045279395 -3.197550670953181 -20.471765972883674 14 20 21
-101.999548558629726 -2.258695250892271 -19.705089463285873 13 18 19
-102.038848278731535 -2.067952672011778 -20.575123100446405 33 38 39
-102.103694412756425 -2.385859869138099 -22.536288482288484 18 24 22
-102.145902096649550 -2.256432971014584 -23.515158691354969 23 29 27
-102.110486270530046 -0.548573368301335 -21.110785889770568 15 25 17
-102.158449211334244 -0.521675822402055 -22.307565187370329 63 73 65
-102.272299829124762 -0.848001233074851 -25.464648073376537 125 128 119
-101.126384302411381 -152.407510036509194 -9.043386968467047 194 200 200
-101.129203805439900 -151.757466923777400 -9.381306002957018 199 200 202
-101.149284530791107 -150.979647716786133 -10.377435900904629 189 190 192
-101.175222518968127 -150.164196601258254 -11.592868838373533 138 139 141
-101.192706782605825 -149.417934574236227 -12.479057155878110 139 140 142
-101.216047313795016 -148.634577973039967 -13.584543457987223 148 149 151
-101.230907853495054 -147.918223303230405 -14.360820219657768 130 131 133
-101.237263371956729 -147.266415458513563 -14.807924686678291 78 82 81
-101.229340477154182 -146.716596741647351 -14.706515647731862 62 64 63
-101.241624174033916 -146.028567089941873 -15.372874713613840 51 53 50
-101.233852424405868 -145.479694696610778 -15.271383626350485 56 58 55
-101.240553109039979 -144.834681472860467 -15.718253026610341 56 56 54
-101.232920307167944 -144.286201157109645 -15.616691431365268 48 48 46
-101.242665213106378 -143.625710762832028 -16.173122685799626 46 46 44
-101.232278101934781 -143.096200516261746 -15.961824589310197 39 39 37
-101.227725379627287 -142.529568439787568 -15.969835224671357 31 31 29
-101.217447899158614 -141.998527671062845 -15.758500435662768 21 21 19
-101.213010378721975 -141.431449789879082 -15.766460547735619 15 15 13
-101.205733330133441 -140.881644606526095 -15.664742398866935 14 16 13
-101.204305814412180 -140.297431177737423 -15.782297804721480 19 21 18
-101.200035611039226 -139.730486756089050 -15.790176499118530 21 23 20
-101.198721090034837 -139.147172999629134 -15.907668587908603 21 23 20
-101.191651632406547 -138.596718844921838 -15.805857808424264 20 22 19
-101.187534833039791 -138.029891973536593 -15.813661904866649 19 24 20
-101.171830346245926 -137.525477975619935 -15.382931524512827 18 23 19
-101.167800667777897 -136.957633481549294 -15.390704417517441 18 23 17
-101.157990741438212 -136.419922549628865 -15.179214611556830 18 23 17
-101.154046567659506 -135.851598451918960 -15.186951536212291 18 23 16
-101.144311874803790 -135.312317369182892 -14.975441901161929 16 21 14
-101.134611007091124 -134.771977300127702 -14.763926984957266 18 20 15
-101.124942732147773 -134.230576984650838 -14.552407390132515 18 20 15
-101.118227870757195 -133.674424341616771 -14.450485630426527 18 20 15
-101.111546773667172 -133.117752770015329 -14.348553059587317 18 20 15
-101.113675015508960 -132.521119637940984 -14.575394130377333 19 21 16
-101.107063048280068 -131.964222232567010 -14.473430812669989 19 21 16
-101.100481165523718 -131.406802456618863 -14.371458479676846 20 22 17
-101.088066542904741 -130.873522587226944 -14.050310255415013 22 24 19
-101.063942683762832 -130.386870465965245 -13.290848187252664 22 24 19
-101.048627838937833 -129.861067154344852 -12.860151574467579 24 26 21
-101.027456697634136 -129.356139310441591 -12.210323942327108 25 27 22
-101.018043812642418 -128.802988500794498 -11.998803123564358 24 26 21
-101.011590449734427 -128.237793393805305 -11.896849342504652 21 23 18
-101.005159635754069 -127.672069408589579 -11.794890218124578 20 22 17
-101.001692866926959 -127.095386564412294 -11.802484794664053 16 18 13
-100.992361550162826 -126.539031590366363 -11.590957936014576 13 15 10
-100.994829565480629 -125.942059255698510 -11.817639951921024 9 11 7
-100.985536286982651 -125.384641125818419 -11.606105839492471 4 6 1
-100.976257400534536 -124.826146890516569 -11.394575918850336 6 8 1
-100.969942548867067 -124.257505479409971 -11.292591349027504 10 9 0
-100.966595577429331 -123.679531482243831 -11.300141905392906 14 9 0
-100.966220300834777 -123.093039491685232 -11.417217378036980 18 9 0
-100.954044339529304 -122.540120363084910 -11.096157135781795 17 14 5
-100.941875350017668 -121.985578773184798 -10.775110259053548 19 16 7
-100.932670887018872 -121.421702421969215 -10.563600135311191 19 16 7
-100.929394665196824 -120.841865887951329 -10.571136017330446 16 16 6
-100.926132327209984 -120.262035769867808 -10.578665191328042 17 17 7
-100.922883105209579 -119.682211629614102 -10.586188029149895 19 17 9
-100.910752969774734 -119.122267988487266 -10.265178170791529 19 16 10
-100.898625417719600 -118.560699307937256 -9.944183803900273 17 16 11
-100.889467244546978 -117.991423668177219 -9.732707112853120 18 17 12
-100.892189166022533 -117.397826209755408 -9.959232921627404 18 19 13
-100.891956299645642 -116.810857881587552 -10.076245168893792 22 24 13
-100.894707388297903 -116.219170317207698 -10.302737364691922 26 27 22
-100.894499432004679 -115.633567896932490 -10.419723635083528 30 28 23
-100.897277196019402 -115.043789074289293 -10.646183421842153 31 28 23
-100.894115383761630 -114.464002909762556 -10.653664052239520 25 26 18
-100.893938187464840 -113.880039871466465 -10.770618732172011 25 25 18
-100.899728874308821 -113.288806780050152 -11.106511001416067 35 33 27
-100.911495791495383 -112.691933560172231 -11.661320089065555 46 39 33
-100.920300412659842 -112.101144134323278 -12.106624820509467 26 18 11
-100.926137866286368 -111.515623277293400 -12.442435917786923 22 13 5
-100.926018097569951 -110.937377082436896 -12.559304278220367 21 10 2
-100.934865359910006 -110.352027240688415 -13.004532617900310 22 7 1
-100.940739849934971 -109.771130500663091 -13.340278398732409 31 13 7
-100.949616053038568 -109.189859198085500 -13.785450910797692 50 31 21
-100.955515883400153 -108.612497417335192 -14.121148181787930 74 50 41
-100.958434665000340 -108.038230026609497 -14.347380839256033 87 60 49
-100.970343695155762 -107.461477046417713 -14.901914832813702 96 66 56
-100.988260391044250 -106.885603044641798 -15.675283501751835 100 69 58
-101.006199461948128 -106.313533736099799 -16.448602302940515 101 70 56
-100.997175551840414 -105.748654699809620 -16.237016124455067 102 69 56
-101.003146484104505 -105.182167524308838 -16.572567442764182 102 70 55
-101.015130142507061 -104.617645799329281 -17.126939831969878 106 71 58
-101.033135114047667 -104.056719533828783 -17.900112405579989 105 69 56
-101.054165843917104 -103.500308214691202 -18.782649877086499 109 74 62
-101.051176119084900 -102.940387072591164 -18.789843700794165 111 74 60
-101.057208728716915 -102.384228441748320 -19.125259195963082 117 78 65
-101.057234151523048 -101.826649643789736 -19.241845357371176 119 80 65
-101.078333307430924 -101.282195543751172 -20.124227012432414 118 81 63
-101.093433979865239 -100.737951245235308 -20.787758391992952 119 83 67
-101.096501806592329 -100.187605550856773 -21.013673508745484 120 85 69
-101.093548081556762 -99.633122820127127 -21.020794129973581 122 83 68
-101.078532718612152 -99.067105174285132 -20.590368192427519 120 81 66
-101.072558836849154 -98.508381546568813 -20.488118415044397 120 78 64
-101.063565035429477 -97.945687947024837 -20.276495336867612 120 75 62
-101.063627476253103 -97.393004984377512 -20.393013393690666 121 79 65
-101.054630183816016 -96.828954107608183 -20.181405956740917 122 80 64
-101.048652255192835 -96.268059253851447 -20.079180464882256 123 81 65
-101.045698251127078 -95.711135362986198 -20.086326347685059 125 83 67
-101.051824445791993 -95.168568563359585 -20.421557164548318 121 77 65
-101.048880339618051 -94.612460180830496 -20.428689917796589 123 79 70
-101.048968182646675 -94.061680841789695 -20.545176227337777 122 79 67
-101.043002127061712 -93.500243619189177 -20.442950638333315 109 73 64
-101.052195055175474 -92.967624322849900 -20.887470830698504 115 89 82
-101.064436716185014 -92.443322074105012 -21.441305793067983 116 106 97
-101.070628406901037 -91.908904881379854 -21.776421388847069 49 51 40
-101.067726069121633 -91.356055274723516 -21.783500616021456 23 26 19
-101.086090311138150 -90.851917650208406 -22.555916761857560 27 29 26
-101.058899550147927 -90.243123011970297 -21.688320278392922 33 36 33
-101.025612220838852 -89.614975879294391 -20.602121807420843 45 46 43
-101.001428186340490 -89.004715860820994 -19.843960885124091 23 21 19
-101.001575592488464 -88.455016002522910 -19.960407588235597 21 15 15
-100.986512019378182 -87.864270991702696 -19.530259245457245 24 26 21
-100.971445856496899 -87.271350418353137 -19.100134535774487 29 31 26
-100.959424925545321 -86.685114643308992 -18.779343072508055 20 23 18
-100.944356958885706 -86.088113653074331 -18.349261227527506 28 34 28
-100.941488238467073 -85.526552219039687 -18.356414047487391 15 21 15
-100.914220089372691 -84.887581548684722 -17.489165203284216 16 22 21
-100.908310813220524 -84.313891825105216 -17.387038572341424 14 22 24
-100.902411491292810 -83.739654388755156 -17.284912817214462 17 26 27
-100.902633773500042 -83.185850330979605 -17.401365946462846 25 30 33
-100.890645778108066 -82.589534552705373 -17.080662485474647 30 36 40
-100.881722829645611 -82.002617019869987 -16.869254860600364 35 43 46
-100.881988821908095 -81.448523968114074 -16.985690053868382 11 16 19
-100.891456646094696 -80.929700117988148 -17.429936733436449 9 13 16
-100.888703986875356 -80.365645468560658 -17.437059694034929 11 16 19
-100.873715812331866 -79.753098978340361 -17.007099694420276 12 22 23
-100.858736446160179 -79.138370151542432 -16.577157944797420 18 26 28
-100.862163392119243 -78.597444561682238 -16.802804294272278 24 28 32
-100.877886171036280 -78.109340201072158 -17.465460183640687 14 19 23
-100.884440519552342 -77.584862268760432 -17.800299975370848 11 16 20
-100.878745926379239 -77.008084959380454 -17.698102422898444 14 19 25
-100.857717081901868 -76.361995389176911 -17.049659765006339 14 19 25
-100.855132880990467 -75.796769980928701 -17.056714186936432 11 16 22
-100.852574930504616 -75.231530507849200 -17.063756195529294 14 22 25
-100.843894607581589 -74.637142969138566 -16.852309391951678 17 25 28
-100.826009742819295 -73.997137519695059 -16.313158922949611 18 26 29
-100.820451554564940 -73.414837747349466 -16.210952960317201 20 28 31
-100.824157083436731 -72.878122009855574 -16.436422702556285 18 26 29
-100.824819671704873 -72.326820709765983 -16.552639428752201 13 20 23
-100.819356273185477 -71.744191941972232 -16.450391505550954 16 21 25
-100.823170525858814 -71.209590050574590 -16.675787475816207 11 16 20
-100.802361201519517 -70.544300259018272 -16.027437437766253 9 14 18
-100.796995860295254 -69.959429362219723 -15.925165683651272 10 15 19
-100.797836854530587 -69.408015248640424 -16.041298222290010 8 13 17
-100.795633354249716 -68.839833840576176 -16.048200945934468 9 15 16
-100.787296319457553 -68.236511708244421 -15.836681882752202 9 15 15
-100.772821015805633 -67.596416132655705 -15.406760104036152 10 16 16
-100.780005931823453 -67.080816637442737 -15.741206844221637 9 15 15
-100.771790872921073 -66.474955473431493 -15.529655563720382 11 17 17
-100.754345090982085 -65.812040507118539 -14.990530858166665 14 20 21
-100.746214218123811 -65.203118902375195 -14.778970806004395 14 19 22
-100.744315236510232 -64.631448392230666 -14.785763764042684 11 16 19
-100.745561210526503 -64.079199041815144 -14.901711159254688 9 14 17
-100.743766813374052 -63.507721061422487 -14.908452102639814 9 14 17
-100.745122082103507 -62.956204708413260 -15.024339666525123 10 15 18
-100.743438316435103 -62.384912078852402 -15.031025776278256 9 14 17
-100.729423371392940 -61.731380667778517 -14.601022065385507 9 14 17
-100.724754866282879 -61.138085111600567 -14.498503666513216 9 14 17
-100.710849803669618 -60.480917995120748 -14.068484812385293 10 15 18
-100.712497804187379 -59.928343839178609 -14.184243222883481 11 16 19
-100.704911435053461 -59.311349408990750 -13.972505779653630 9 14 16
-100.703589380650001 -58.737027086444165 -13.979050034129358 7 13 13
-100.696132567644426 -58.118283496538041 -13.767268616671430 10 16 16
-100.694946169655424 -57.543296072181043 -13.773754819810506 12 18 18
-100.684524183427527 -56.900067966985297 -13.452785077553756 10 16 16
-100.689685730466820 -56.370129139023483 -13.677488507558053 11 17 17
-100.701130275756043 -55.887751192966242 -14.120414374526831 11 17 17
-100.715758370104695 -55.431023394211067 -14.672412097606667 11 17 17
-100.705636702122177 -54.786425506479247 -14.351312783990494 11 17 17
-100.686279923095469 -54.067854019917355 -13.702816308495045 11 17 17
-100.660792149559853 -53.297213436971013 -12.836071083282803 11 17 17
-100.657118596676511 -52.694557449890851 -12.733173054293218 11 17 17
-100.669056693072989 -52.215795946904336 -13.175825582238758 11 17 15
-100.674874071631052 -51.688771332932291 -13.400185267223890 11 17 17
-100.665254970087759 -51.035494270372411 -13.078934866652389 12 18 18
-100.655727483610818 -50.380486500637105 -12.757658452785591 14 20 20
-100.658716537808687 -49.827727388182147 -12.872777211650259 14 19 22
-100.661802208702952 -49.275412600126444 -12.987845175764278 11 16 20
-100.671197638625117 -48.776621685204319 -13.321061394514118 12 17 21
-100.680693281813660 -48.279360221472963 -13.654213928171401 13 18 22
-100.696501593048893 -47.837799597287287 -14.205490916190939 15 20 24
-100.690676466550528 -47.207333038073024 -13.993049575913091 15 20 24
-100.681853977343309 -46.548023138673905 -13.671480177750880 12 17 21
-100.682456187120138 -45.970671939490899 -13.677135048587331 13 18 20
-100.676961079395738 -45.336836083953038 -13.464570510318936 16 21 23
-100.690204817043224 -44.872494309829335 -13.906449994452345 8 13 15
-100.684939993181601 -44.237849143388537 -13.693783619817054 8 14 16
-100.679795260657329 -43.601973293486047 -13.481072461940641 8 13 15
-100.674773288389744 -42.964862283052398 -13.268315290106159 8 13 12
-100.679182240837250 -42.415150469314732 -13.382723407138656 10 15 14
-100.696119911094883 -41.985115128541949 -13.933341478141017 9 15 15
-100.703876832893286 -41.467381207580679 -14.156677658517765 31 37 37
-100.724158964491821 -41.072052568580801 -14.816197382082493 22 27 30
-100.738365561302075 -40.618564577180067 -15.257504514254805 7 13 15
-100.737210029243187 -40.012526235031757 -15.153436689013688 10 19 18
-100.733096264336226 -39.374579944071662 -14.940253631852983 16 24 24
-100.750796365709732 -38.955601533812043 -15.490393143882670 8 16 18
-100.762437804142408 -38.475709329577185 -15.822340345936709 12 22 24
-100.768029275545075 -37.933254493463025 -15.936108050238175 16 25 30
-100.770672515596644 -37.358872544641130 -15.940755935201707 11 22 26
-100.779646522520224 -36.849415154302754 -16.163424671738881 14 25 27
-100.785677124670144 -36.308020966518171 -16.276971379609961 12 22 24
-100.782595028294566 -35.667643633316658 -16.063319799699144 7 17 19
-100.773503119104248 -34.959189562628744 -15.631526271855790 2 10 12
-100.773838332016467 -34.349296110404474 -15.526784961915041 6 13 14
-100.768173545137884 -33.670763866968315 -15.203902795026067 9 15 15
-100.781172891241553 -33.195603490310319 -15.535151671626579 11 17 17
-100.778932554409849 -32.549442341703937 -15.321156932552725 8 14 14
-100.792258700666281 -32.075733929534003 -15.652234523280441 5 11 11
-100.790369730279323 -31.428261497756768 -15.438085189400255 5 11 11
-100.800959530260158 -30.920673502596951 -15.659961693453681 5 11 9
-100.811720601088609 -30.413929760887765 -15.881747571795756 7 13 11
-100.841068424207748 -30.123189563916434 -16.757571488078042 6 12 10
-100.852165118832431 -29.619772701056078 -16.979162559911174 4 10 8
-100.845055980693715 -28.898708238499928 -16.546550286291506 4 10 8
-100.816728153649493 -27.918331619669093 -15.350745996561130 7 13 11
-100.816182014158343 -27.264273101182589 -15.136022050882360 11 17 15
-100.831125481800498 -26.795018256919505 -15.466280077791026 10 16 14
-100.855413264967837 -26.439671467839300 -16.123471958109093 5 11 9
-100.855468495584020 -25.784976414073707 -15.908466871209640 6 12 10
-100.852696033433517 -25.090784647667178 -15.584362217421472 6 12 10
-100.853197292045365 -24.432953834913320 -15.369176030200265 7 13 13
-100.860007578714772 -23.850932163831526 -15.371909053844348 9 15 15
-100.860960863186392 -23.190763319578114 -15.156530685534051 8 14 14
-100.874285378028645 -22.685857080443764 -15.377071306709553 5 11 11
-100.887820604898081 -22.181704217742265 -15.597503369091527 10 16 16
-100.904596140521988 -21.718033672160651 -15.926827458965903 10 16 16
-100.882281206719043 -20.735478136428316 -14.839027935326129 7 13 13
-100.887450871306200 -20.109607177067602 -14.732138304782552 4 10 8
-100.889852745802273 -19.442218551939170 -14.516141252801305 5 11 9
-100.913591194403750 -19.059259420573955 -15.063021275682615 3 9 6
-100.919493608438145 -18.431913077465857 -14.955796287181244 5 11 7
-100.928657199993253 -17.844999419832611 -14.957453853509548 5 11 7
-100.944070575741122 -17.341032203363202 -15.176985504955894 3 9 5
-100.956729905174797 -16.795782856424950 -15.287400735505599 3 9 5
-100.960675200100539 -16.123915120187508 -15.070711422221962 3 9 5
-100.973856194017031 -15.578049577166555 -15.180883433087132 3 9 5
-100.993253979093993 -15.117890847222537 -15.508916898928931 3 10 3
-100.986130954452108 -14.271178440859725 -14.855886856129615 4 10 6
-100.985284280649864 -13.507350045712052 -14.420718831678244 1 7 3
-100.999577395852327 -12.959013473916350 -14.530384243072660 3 9 5
-101.043721242554682 -12.850004087369316 -15.729835800625295 3 9 7
-101.061463720982346 -12.348794279122398 -15.948224833945005 6 12 10
-101.064745173096767 -11.625741196934673 -15.621521092345603 9 15 13
-101.047777474214286 -10.587068183535211 -14.531741115237224 7 13 11
-101.060574028331743 -9.992744178548795 -14.531736963156447 3 9 7
-101.091245382774488 -9.669875051288791 -15.185540655968907 3 9 6
-101.133838291928015 -9.532298467604715 -16.275169348319253 7 13 12
-101.176616192256475 -9.399798791176389 -17.364657282368881 13 18 21
-101.213762287942657 -9.180005737704665 -18.236020237196470 21 26 29
-101.245317431314405 -8.871216281808328 -18.889256199284290 15 20 23
-101.242378527833068 -8.004219251986537 -18.234433287083078 14 19 22
-101.236966127284518 -7.086165582258261 -17.470460354123105 15 20 23
-101.249270730393292 -6.447415044282664 -17.360289969420165 25 30 33
-101.293529676154733 -6.331085450301661 -18.448902929629384 27 33 33
-101.326520734443164 -6.028243779224914 -19.101390731405928 4 10 10
-101.328336426514895 -5.198253457178524 -18.554771193276224 26 32 32
-101.361926113837470 -4.897774703900430 -19.206948290274852 29 35 33
-101.381570212726785 -4.356311277180840 -19.313983060680101 29 35 33
-101.427055281990334 -4.255990871784899 -20.401844656988345 13 19 17
-101.450142511624691 -3.766146991207516 -20.617559784447820 5 11 10
-101.453855476243575 -2.929495702587421 -20.070101162310038 11 17 17
-101.446804763913434 -1.889666867537146 -19.086447715201047 15 21 21
-101.459882753557906 -1.195155286145666 -18.865622436541656 35 39 40
-101.518003345581405 -1.306183389136502 -20.388699265385185 20 24 23
-101.573475479168138 -1.373739607471873 -21.802631700693354 20 25 21
-101.604169076939272 -0.988609155388812 -22.235347869626622 46 50 44
-100.636569717166452 -151.498370051641842 -10.949954095488380 197 199 201
-100.646605733812478 -150.810239297167328 -11.506530599670896 188 189 191
-100.669189083502360 -150.039666089827534 -12.501388663998625 146 147 149
-100.679451415222388 -149.358233262146314 -13.057787954700302 151 152 154
-100.705390228356165 -148.575763548631102 -14.162022118452882 161 162 164
-100.718987596058838 -147.880792690990887 -14.827824178035740 124 125 127
-100.735808210884272 -147.168936708533664 -15.603116939235974 85 89 88
-100.730883596395032 -146.600610524267267 -15.611322924844643 82 84 83
-100.744773875741785 -145.914281089464055 -16.276895905994650 74 76 73
-100.736877232080204 -145.367119291009089 -16.175446959596485 55 57 54
-100.741557504413805 -144.742938587858845 -16.512209593655058 42 42 40
-100.733793858644418 -144.195892489277384 -16.410695830564180 38 38 36
-100.735488506459973 -143.592589619563597 -16.637812986210264 30 30 28
-100.721578500479964 -143.082011925594003 -16.317146463326395 26 26 24
-100.710853392508028 -142.551807090032128 -16.106017213101097 25 25 23
-100.703318124187064 -142.002789626729452 -16.004414487269116 19 19 17
-100.698977484960437 -141.435773959131041 -16.012327611307455 17 17 15
-100.688405634468126 -140.903259812504217 -15.801148814128140 14 16 13
-100.690461961793929 -140.301874572759885 -16.028073204407605 23 25 22
-100.689431466668253 -139.718302808595183 -16.145432071993781 23 25 22
-100.688456032909869 -139.135314258877941 -16.262758595091327 26 28 25
-100.681231140854138 -138.585188021191044 -16.161018799489625 30 32 29
-100.674050429645220 -138.034553700821249 -16.059263097872588 28 33 29
-100.666912497883544 -137.483409756976187 -15.957492176525079 27 32 27
-100.659815963732242 -136.931754694684969 -15.855706711901576 25 30 24
-100.649600395950813 -136.394639722155887 -15.644404828906858 27 32 26
-100.639419824908401 -135.856466969396962 -15.433097091855473 20 25 18
-100.626110241298960 -135.331743980831504 -15.112288933590833 18 23 16
-100.612829525169403 -134.805416858290727 -14.791483477379643 18 20 17
-100.605909194044742 -134.249554151875998 -14.689657029226908 18 20 17
-100.602190609142241 -133.679479083241148 -14.697304056560597 17 19 16
-100.598507916677079 -133.109427410798673 -14.704933672246568 19 21 18
-100.601203070310206 -132.513098750917408 -14.931500400293572 22 24 21
-100.600765142511605 -131.930756217611986 -15.048563132610894 20 22 19
-100.597187684881760 -131.361583217026634 -15.056133359701505 21 23 20
-100.587287623847956 -130.817097418195260 -14.844756410978079 23 25 21
-100.564696857392178 -130.319791778089211 -14.195529463471559 25 27 24
-100.548474832739416 -129.795660428857218 -13.765249632057703 27 29 25
-100.529085344943212 -129.280889651518777 -13.225529866165203 28 30 27
-100.522439399902822 -128.718428135128619 -13.123640077516285 30 30 28
-100.515815586722070 -128.155437362919827 -13.021745148957592 31 31 29
-100.502839611939862 -127.613323541928665 -12.700956405948091 31 31 29
-100.496253737107594 -127.048728331114731 -12.599059843106062 31 31 29
-100.483307292937397 -126.503921550242339 -12.278284692741920 30 30 28
-100.483138247160085 -125.917942390385491 -12.395256226445895 27 29 26
-100.473413701695151 -125.361366792303414 -12.183919758053037 31 32 27
-100.463702219262771 -124.803714069888883 -11.972588127732052 38 36 30
-100.450806796908225 -124.254056690951174 -11.651838498348809 46 40 31
-100.444314891110807 -123.685174834580422 -11.549941105638737 29 21 10
-100.437836519725380 -123.115757547683160 -11.448042749567776 21 11 1
-100.428170091228353 -122.554062214206240 -11.236731178225085 21 11 2
-100.408905664009680 -122.015245604892868 -10.697199099609008 17 7 0
-100.399251459482770 -121.450574865692005 -10.485912307706769 18 8 0
-100.389604497945086 -120.884823312757462 -10.274633176141947 20 11 2
-100.389584445656155 -120.296477257654587 -10.391557795513592 22 13 4
-100.386370860226322 -119.715579164768542 -10.399074639656192 24 15 6
-100.373538875300596 -119.154568916519665 -10.078411522811422 24 14 6
-100.363919536618837 -118.585576912802509 -9.867152532154790 23 14 9
-100.351091077592358 -118.021586507162922 -9.546518404789083 23 13 11
-100.347905492299020 -117.438531907452116 -9.554044051770461 23 15 12
-100.338296721410003 -116.866562606905035 -9.342810652329916 25 20 14
-100.341558663687181 -116.272432876483720 -9.569083595946864 24 24 16
-100.344833602079390 -115.679392858248036 -9.795339105311939 28 25 19
-100.344900764455730 -115.092168151780783 -9.912210458881788 28 25 17
-100.351420106038006 -114.496581010440678 -10.247798960619775 26 25 13
-100.357953664430042 -113.902626286302635 -10.583363857794410 29 23 13
-100.367725484965547 -113.306393006542336 -11.028261920697616 46 34 26
-100.383965483402335 -112.705056950750262 -11.691835924741895 49 33 26
-100.403454444117855 -112.103615477063627 -12.464715606408362 38 22 13
-100.419738380078400 -111.509074957140470 -13.128198641027467 45 26 16
-100.423121271248561 -110.929092376633221 -13.354268099387582 64 43 32
-100.439440133870832 -110.339988462484044 -14.017678463497077 100 78 65
-100.449312168233135 -109.758707440930877 -14.462374673343874 94 68 57
-100.459197840417374 -109.179601116386422 -14.907041973654657 97 70 59
-100.469096832650536 -108.602669412880019 -15.351680517232921 100 72 60
-100.485484190452311 -108.024980951359467 -16.014940608494726 102 71 58
-100.514846589522904 -107.445777785039880 -17.115444615787595 105 71 59
-100.528036062883658 -106.876620704414293 -17.669287861294777 105 71 57
-100.550966795826213 -106.308229510946774 -18.551039692708400 108 73 54
-100.544730018064456 -105.747596635047231 -18.448935336720666 106 73 54
-100.544980528739188 -105.186206798904379 -18.565453045794499 109 74 55
-100.545234149471511 -104.625361233121069 -18.681963664579172 110 75 56
-100.555234213792772 -104.066368158779710 -19.126369204295344 111 74 56
-100.571744405873417 -103.510964883605453 -19.789341139441063 112 71 57
-100.568767630900780 -102.952946021618871 -19.796509186855445 115 73 59
-100.572295071433430 -102.397430240544139 -20.022257644238380 116 77 60
-100.566067331517630 -101.838433703338652 -19.920132120919931 118 79 62
-100.572856809440609 -101.286072478880769 -20.255146444281223 123 85 66
-100.579654871066722 -100.735342153599007 -20.590139873563743 124 87 68
-100.586461562900823 -100.186242717177507 -20.925112386626097 123 88 69
-100.586758130459344 -99.633555229462473 -21.041518484600545 126 89 72
-100.570753384552475 -99.067006241910136 -20.611571333839436 121 84 68
-100.561261874007698 -98.504590316497001 -20.400183499762761 118 79 67
-100.548501154222677 -97.937664031276753 -20.079547186659454 117 77 65
-100.552058294200933 -97.387589232458737 -20.305225429165773 120 77 63
-100.549088608033159 -96.830666223280829 -20.312378805156783 121 79 65
-100.539583611467251 -96.265264946526983 -20.101028152467364 123 81 66
-100.533343508980977 -95.703288806013987 -19.998939213913928 123 81 65
-100.530372898739600 -95.145552755084665 -20.006101401025745 124 81 69
-100.530676398058787 -94.592871735975621 -20.122504116285029 125 80 72
-100.530984750393586 -94.040734518786451 -20.238898912251898 125 81 73
-100.534573610572068 -93.494738846520463 -20.464519991424396 117 79 73
-100.538170869802840 -92.949830129332071 -20.690125863944360 106 79 75
-100.545055107055759 -92.412149422220509 -21.024943740827069 104 92 86
-100.538832724040034 -91.850447444215135 -20.922843503247236 85 86 78
-100.555578934047318 -91.334993548920323 -21.585291309189842 59 64 58
-100.601889395579363 -90.885404951141453 -23.230647658229884 36 41 37
-100.520172830327624 -90.162080371426597 -20.616572888120089 31 36 33
-100.441678085643488 -89.433214631225368 -18.111872732963150 14 18 16
-100.422286181727102 -88.831732471663116 -17.573046686751582 20 24 22
-100.429192302998928 -88.291875354111667 -17.907876497280682 23 27 25
-100.426244777873734 -87.728703462897130 -17.915083594386829 22 28 25
-100.403558115639541 -87.114012956921172 -17.267110824485428 19 25 23
-100.403910029815080 -86.558065593737581 -17.383524000363849 26 32 32
-100.387803845544099 -85.957011839787427 -16.953980552262692 34 39 42
-100.394762970234694 -85.419590694710891 -17.288759931449448 28 33 36
-100.368773269959803 -84.787068062236273 -16.531691993740594 28 35 39
-100.369159649546035 -84.230295256509322 -16.648097178179370 27 35 39
-100.353062695913863 -83.622981111108999 -16.218613755526405 28 36 40
-100.346869512127199 -83.044953307183832 -16.116667599063049 35 43 47
-100.340686527200234 -82.466377731237031 -16.014722201992754 49 57 61
-100.337818192941796 -81.898285182555583 -16.021942065258941 38 45 49
-100.348184460867955 -81.375399113437140 -16.465800746882394 13 21 24
-100.351964261257564 -80.831531337041980 -16.691308577411178 13 21 24
-100.349150260358641 -80.265051173670273 -16.698485850692435 16 24 27
-100.336426181972428 -79.662209831814408 -16.378201700189692 18 26 29
-100.317091320221479 -79.032951139357152 -15.839634283008536 23 31 34
-100.324255868972614 -78.502258690627869 -16.174246126177167 20 28 33
-100.334761266365859 -77.986120631816476 -16.617968788080475 16 23 31
-100.345297974407288 -77.472146556785958 -17.061654196104882 15 22 30
-100.335973106818798 -76.879476237508143 -16.850498064283613 21 28 34
-100.333299719842302 -76.313204442722721 -16.857605923503797 15 23 26
-100.330650183722611 -75.746920613481933 -16.864702496432557 10 18 21
-100.337983871382264 -75.223499233687349 -17.199158579361949 12 22 24
-100.322106223464431 -74.599749891010518 -16.769739417348859 14 24 26
-100.312889589600999 -74.003482417845376 -16.558568534196525 17 26 31
-100.300373154278233 -73.391005224122182 -16.238284234627884 13 23 28
-100.297851914677864 -72.823017129011518 -16.245336973806332 13 23 28
-100.292035742334335 -72.239360716105807 -16.143268394460648 12 22 26
-100.286249014525083 -71.655141900572659 -16.041191518043490 14 23 25
-100.290476619177653 -71.118941941420829 -16.266406191852951 13 23 25
-100.278097981894504 -70.501478340129637 -15.946107297772528 12 21 23
-100.272408380327448 -69.915837026483871 -15.843998598981727 12 21 24
-100.273415911040544 -69.363647588131016 -15.960059447947685 8 17 20
-100.261134391305916 -68.742851234790692 -15.639748398856028 8 17 19
-100.255552745177795 -68.155504038815877 -15.537605614057043 8 18 19
-100.243340918201937 -67.531935174891473 -15.217289763032682 9 18 20
-100.251178201069763 -67.015287883562550 -15.551435198645066 10 19 22
-100.239046163458397 -66.390027926987926 -15.231098583928429 9 17 20
-100.223615747573902 -65.744463570294883 -14.801690020541770 8 17 20
-100.214901120666653 -65.134515461039626 -14.590419800642195 7 16 19
-100.219588540745022 -64.600182694605323 -14.815395280375412 8 16 19
-100.217648624527683 -64.027987301880302 -14.822213224267898 8 13 16
-100.225783568456805 -63.514938716031523 -15.156179216565505 8 13 16
-100.230634292009668 -62.983480785641447 -15.381046980344706 10 14 17
-100.228856611960936 -62.412523215701185 -15.387774569478466 11 15 16
-100.210415668211169 -61.738798150154594 -14.849237219705827 11 15 16
-100.192024040672862 -61.062306194826178 -14.310704758213149 11 15 16
-100.177029106656079 -60.404133764573004 -13.881217643028577 9 13 14
-100.165435147911708 -59.765094748996944 -13.560765448002655 9 13 14
-100.160593091125563 -59.167636107610036 -13.458372928384762 7 13 13
-100.162508959299984 -58.613388351698269 -13.574020419119392 5 13 15
-100.167840326565297 -58.081804912321125 -13.798659536521114 7 15 17
-100.159847080061638 -57.461452472386206 -13.587151307711480 7 16 15
-100.148571719631519 -56.817227315892978 -13.266600079897842 9 18 17
-100.150763817256461 -56.263280300456259 -13.382112327737445 8 17 16
-100.163081273738342 -55.779609919137954 -13.824633900669170 9 15 14
-100.178828433036983 -55.321587344223182 -14.376109594694185 9 15 14
-100.154441473950442 -54.580483674441986 -13.619392590257945 9 15 14
-100.133479001322613 -53.859575262889429 -12.971688328220296 10 16 15
-100.112592756846510 -53.135320021364230 -12.323982049498369 10 16 15
-100.125309029918512 -52.653998315265660 -12.766288653846487 10 16 14
-100.131407225792955 -52.124971251970294 -12.990534609006858 10 16 14
-100.137593153935967 -51.596947932498992 -13.214728261311222 11 17 16
-100.113690647504825 -50.840911008189259 -12.457933211875883 10 16 16
-100.099936269190309 -50.158120752234360 -12.028106022742492 13 18 20
-100.103040779160978 -49.603010068577468 -12.143193753864949 12 17 20
-100.116300959243716 -49.127137936874433 -12.585184059756614 11 16 20
-100.129658572132726 -48.653345487945550 -13.027106346908198 11 16 20
-100.139761715756379 -48.154820177963664 -13.359981263843935 15 20 24
-100.143258766591387 -47.603657872341593 -13.474840562123802 15 20 24
-100.136798866097237 -46.970862315143748 -13.262726869095985 13 18 22
-100.123738640356180 -46.281601709726274 -12.832634202308270 10 15 18
-100.134257896409025 -45.785348354647830 -13.165286666111115 20 25 28
-100.134827627799226 -45.206085769942760 -13.170976749347830 22 27 30
-100.145566298905905 -44.712039544839435 -13.503501526643390 5 10 13
-100.143009334080304 -44.104616941421099 -13.400118390930828 7 12 15
-100.147272660344640 -43.554501561247797 -13.514600329142297 7 12 15
-100.141600806974438 -42.916990391807559 -13.302158177237317 7 13 12
-100.139402691887241 -42.307783488200286 -13.198621735738158 7 12 11
-100.144029086848249 -41.757511406710613 -13.312931596134973 6 10 11
-100.155478595140195 -41.267811032446630 -13.645071577331805 32 36 37
-100.173749122908418 -40.840320042376341 -14.195025823589816 41 45 48
-100.185447075071295 -40.354134404081876 -14.527010771147388 20 25 27
-100.190579051962928 -39.807607949936227 -14.641040207257674 11 20 17
-100.199190239877566 -39.292643430017435 -14.863939202816454 11 21 20
-100.207935060078327 -38.778600981600867 -15.086764777802387 7 17 18
-100.223503486493641 -38.328938926300275 -15.527381033077290 11 21 22
-100.242548198871489 -37.913292236180204 -16.076842992742314 24 34 36
-100.245017622180342 -37.338801703305641 -16.081575148749948 16 27 31
-100.244293570578407 -36.731564855891264 -15.977313241554043 12 23 25
-100.237043563429182 -36.057924955599219 -15.655139079263193 11 21 23
-100.243304844427257 -35.514846741358205 -15.768592765694365 12 22 24
-100.236373528878403 -34.838599348773521 -15.446292982662328 10 18 20
-100.226274587361630 -34.126837756036998 -15.015015261618146 5 12 13
-100.233014555802384 -33.582293029903056 -15.128255041161083 5 11 11
-100.253240344427184 -33.174880065489184 -15.677067224122965 11 17 17
-100.266955785735405 -32.701032130254184 -16.007960013613285 12 18 18
-100.257535062290685 -31.985333860427360 -15.576398357563079 11 17 17
-100.258278755004781 -31.372273303097021 -15.471494232889142 8 14 14
-100.269172550115144 -30.864321349657704 -15.693229053119950 9 15 13
-100.293522313151414 -30.499529118193262 -16.350488509164620 12 18 16
-100.301429043946030 -29.958514194267792 -16.463133779569489 11 17 15
-100.302879866714093 -29.345524993376458 -16.357890631793907 10 16 14
-100.294576906407244 -28.622494756647832 -15.925869713308487 7 13 11
-100.269920877712835 -27.713569540863602 -14.949291132488725 7 13 13
-100.278601236664571 -27.168962674612448 -15.061603275501795 13 19 19
-100.304008498219090 -26.810782777699924 -15.718288763798768 12 18 18
-100.326277920077558 -26.418107932771548 -16.265971572759042 11 17 16
-100.312403576266092 -25.612235147774005 -15.615750955170029 14 20 20
-100.295470510089061 -24.764663620072351 -14.856563961062079 6 12 12
-100.311744688048762 -24.296298063427304 -15.186176226832004 10 15 18
-100.334797599042901 -23.906498663502084 -15.733454618875385 14 19 22
-100.348165946923785 -23.402448858637545 -15.953965454767342 10 15 18
-100.355167485784506 -22.820819256917183 -15.956602948251771 7 12 15
-100.362390570849129 -22.238837129664205 -15.959138083514034 16 21 24
-100.366559690760525 -21.616767240302064 -15.852687983790815 11 17 17
-100.354588232677798 -20.793747104443543 -15.201733538488185 9 15 15
-100.355979986863474 -20.128146464487280 -14.986201319971485 7 13 13
-100.377229109495971 -19.704415598682317 -15.423833026887763 8 14 12
-100.392159038831721 -19.200837189668864 -15.643591955250031 5 11 9
-100.387758704514539 -18.451258981795384 -15.209977305471767 9 15 12
-100.383638793403890 -17.699038900432527 -14.776255696323716 12 18 14
