ply
format ascii 1.0
element vertex 681
property double x
property double y
property double z
property uchar red
property uchar green
property uchar blue
end_header
-107.137691866763035 -103.990142653588748 -15.423834228705800 25 27 26
-107.134640365642568 -103.429008779769532 -15.431070089234822 24 26 21
-107.131551769516776 -102.866861043869847 -15.327475247158532 24 26 21
-107.128591832626540 -102.306745313809799 -15.445515708328941 22 24 19
-107.125711082855773 -101.748732770421086 -15.674355522416363 21 23 18
-107.122615706399287 -101.184485226634834 -15.459926653483961 18 20 15
-107.119654806073967 -100.623355576727192 -15.467119127424326 20 22 17
-107.116587105813551 -100.057477572274564 -15.252693801445275 24 25 20
-107.113851464598696 -99.503741116169081 -15.592279065102929 27 28 23
-107.110946701117115 -98.942881521590337 -15.599441903554464 28 29 24
-107.108260491618168 -98.391588485584450 -15.938978367898073 26 27 22
-107.105465021405749 -97.835002197984224 -16.056903818449314 27 28 23
-107.102829989878757 -97.286422878033051 -16.396387865783993 28 31 25
-107.099938724113912 -96.723453653250957 -16.292707077537102 26 29 23
-107.097063842037159 -96.159938192002087 -16.189024074076372 24 27 20
-107.094352732023950 -95.604972036289595 -16.306892490166092 22 23 17
-107.092113353779737 -95.079464078964804 -17.089385312882740 22 23 18
-107.089455150438951 -94.527207861738418 -17.207200523843539 25 26 20
-107.086819759889835 -93.975490782454614 -17.324999271625245 22 23 16
-107.083970876781009 -93.407407572411529 -17.110491963559866 25 23 17
-107.081538503652368 -92.867765649962067 -17.449787062689154 13 15 8
-107.079379547783802 -92.348283950367460 -18.121320495398351 7 11 4
-107.077009367260771 -91.812706577019810 -18.460544003352538 17 14 9
-107.075593060799875 -91.352694888733723 -20.017981079792975 91 76 70
-107.074319765195668 -90.907279267034212 -21.686058380604379 109 84 78
-107.073106707128346 -90.470009162942929 -23.354023018079943 120 88 81
-107.071076182304026 -89.965511483779267 -23.914481886847710 130 95 86
-107.069170349314618 -89.471532184701275 -24.585631717419346 128 90 81
-107.066942166968246 -88.948481975422197 -24.813799460619208 133 90 83
-107.065108843813888 -88.459919895779308 -25.484858840573281 144 101 95
-107.062759160896249 -87.922862818176966 -25.491511119121100 153 110 104
-107.060810083775849 -87.421379946985013 -25.941041105733063 154 111 105
-107.058611624929839 -86.894556264106342 -26.058374586651126 157 114 108
-107.056922638077125 -86.415463425430318 -26.729267444959021 159 116 110
-107.054982997467505 -85.910485012973183 -27.067970013618350 157 115 109
-107.052783052972643 -85.377174093128474 -27.074512096734281 154 110 105
-107.050412883828059 -84.823338862070742 -26.859629111944059 151 105 101
-107.048168311523739 -84.278928911443799 -26.755447907830103 152 102 101
-107.046256660566925 -83.766356875152155 -26.983356366399818 141 90 89
-107.044174908121576 -83.232714629471758 -26.989845317347658 127 75 76
-107.042332400602930 -82.721740905689359 -27.217704245699991 115 65 66
-107.040002870235256 -82.153764425038602 -26.892088497523730 115 65 66
-107.038123777828091 -81.631683853472765 -27.009220371404695 120 72 72
-107.035320246605565 -81.000703126045380 -26.130185493372949 119 73 73
-107.032967301602241 -80.415072560138043 -25.693903784125837 104 58 58
-107.030643038136873 -79.827245489634976 -25.257630963454517 73 27 27
-107.028787137076861 -79.289116870850393 -25.264058048365911 77 33 33
-107.025864209675191 -78.618505513635370 -24.163770457197188 103 65 64
-107.021291089454280 -77.739662641185760 -21.403532470402553 113 87 86
-107.016602390576367 -76.833406597739852 -18.532773068661044 24 13 11
-107.014061720324989 -76.180155659604665 -17.764700562228597 17 17 17
-107.012693352216246 -75.666406476799594 -18.103220118026911 13 19 15
-107.011260186132944 -75.139653732105543 -18.331045640228609 14 20 17
-107.009067093385013 -74.509813424568009 -17.784283646369630 13 19 17
-107.007146457372713 -73.907520312103827 -17.458825522865823 12 18 16
-107.005738555150060 -73.365248879399957 -17.575939815654323 13 19 19
-107.004617767738836 -72.854874477280831 -17.914306191382622 13 19 20
-107.003433807644427 -72.330130165021529 -18.141991820489437 13 18 21
-107.001828074033938 -71.741484000443322 -17.927101458786183 15 20 23
-107.000632977632947 -71.201240918317524 -18.044093067167637 15 20 23
-106.999132714725704 -70.611154236181093 -17.829167076612350 14 19 22
-106.998533841978229 -70.139318436139050 -18.388604842804114 13 18 21
-106.997633463977380 -69.618180366640431 -18.616117686341084 13 19 19
-106.995939156553476 -68.974893206611824 -18.069255490500609 11 17 17
-106.994054879616968 -68.293094417198063 -17.301162825130689 12 18 18
-106.992349062563008 -67.625578606539250 -16.643696648209698 12 18 18
-106.991442955061103 -67.065238652350430 -16.649897987571819 15 21 21
-106.990478167716702 -66.486157858737570 -16.545461423123726 15 21 21
-106.989703786174559 -65.925437955167254 -16.551603656248091 16 22 22
-106.988997789445648 -65.364661334858653 -16.557713758126056 16 22 22
-106.988361743975403 -64.803826012546637 -16.563790999810863 16 22 22
-106.987922514286311 -64.262707397878160 -16.680430016444518 13 19 19
-106.987431405438670 -63.702020955806383 -16.686436388446765 14 20 20
-106.986763625160620 -63.100624858727627 -16.471228554544552 15 21 21
-106.986423365028870 -62.539261349603649 -16.477169730429495 15 21 21
-106.986413302208760 -62.019563223793114 -16.704241828172002 15 21 21
-106.986483487662895 -61.500883664190447 -16.931265050801471 14 20 20
-106.985626262780315 -60.811919774124846 -16.273613686150355 15 21 21
-106.985230626334470 -60.184663481218884 -15.947682966637842 19 25 25
-106.985551046886627 -59.665481669138572 -16.174591647591228 20 26 24
-106.986336497629907 -59.214001033853101 -16.733157632233741 21 27 25
-106.986328229568571 -58.607639908744083 -16.517685397475418 19 28 27
-106.986285437509324 -57.977324676590754 -16.191617365616167 20 30 29
-106.986336451083830 -57.345282902345673 -15.865522229628425 21 31 31
-106.986734198022774 -56.758155380408908 -15.760516662466529 19 29 28
-106.987604238884842 -56.241171449161278 -15.987139783056080 19 29 28
-106.988197616110853 -55.653577496289529 -15.882045428243401 19 28 27
-106.988395335424684 -54.968772540534644 -15.334705456825020 16 25 24
-106.988947791615232 -54.329960594093251 -15.008440121192052 17 26 25
-106.990101436090143 -53.788151014455188 -15.124324224735062 19 25 25
-106.990870077635833 -53.146935441795641 -14.797980208501286 19 25 25
-106.991262869919140 -52.403031797796700 -14.029437477488756 18 24 24
-106.992748421830186 -51.859239868918415 -14.145183202968639 19 25 25
-106.994829794781154 -51.418994602022480 -14.703013571577969 21 27 27
-106.996899636539666 -50.955305166060612 -15.150231894359365 22 26 27
-106.998127267356168 -50.283057969654230 -14.713128838403406 21 27 27
-107.000192032953962 -49.768095731327932 -14.939159596473701 20 26 26
-107.002258221208351 -49.227218402987859 -15.054597546069658 20 26 26
-107.004330753755013 -48.659601600929115 -15.059448818493166 20 26 26
-107.005376916211048 -47.817624119982860 -13.959026385939893 17 23 23
-107.006803283553793 -47.025415089086053 -13.079627542855178 12 18 17
-107.008493977878601 -46.256642204988026 -12.310719891536451 10 16 16
-107.011343401994409 -45.738069532065637 -12.536412435678358 13 19 19
-107.013773400746004 -45.077844890605490 -12.209469301746424 15 21 21
-107.016788476641977 -44.530977671854842 -12.324514963698164 17 22 25
-107.019728582304140 -43.926358038792749 -12.218473195924702 10 15 18
-107.024196691431882 -43.702438488007012 -13.548947203302845 16 26 28
-107.027938789162832 -43.248009618821563 -13.995270200893088 23 34 36
-107.031611884443606 -42.735816912392899 -14.220503031372829 19 28 31
-107.034115929412664 -41.832410626459989 -13.009156585450995 18 27 30
-107.036119529854233 -40.709704725392939 -11.024294717137678 18 27 29
-107.036790765275228 -39.085505776612621 -7.271490208824247 25 33 34
-107.038998707362794 -37.845256217332221 -4.955163865329354 14 23 22
-107.042581043761814 -36.968400443828813 -3.964746040562176 14 22 21
-107.046556405191552 -36.149450981191926 -3.195261905061130 14 20 20
-107.050738486631047 -35.326424811984488 -2.425720839004583 15 21 21
-107.056260297910598 -34.916458975921998 -3.092452517238257 15 19 20
-107.060839079337569 -34.088835569181903 -2.322768992942883 13 21 23
-107.065883590107731 -33.355029819243882 -1.884473607816147 14 22 24
-107.070740347138880 -32.454198210021985 -0.893692899908444 15 24 23
-107.076297787866551 -31.747289402009617 -0.565734152033571 15 24 23
-107.082290275174557 -31.138860863769597 -0.569130227238304 10 19 18
-107.088411396428086 -30.496421257918030 -0.461955972488539 5 13 14
-107.094809833554891 -29.887171936179367 -0.465166291428346 9 18 18
-107.101153174837521 -29.140464214457790 -0.026382356713412 7 15 17
-107.108354030276203 -28.736961404778171 -0.692244258799292 9 17 19
-107.115671025882449 -28.301633346037622 -1.247519308182831 14 22 25
-107.123450640580799 -28.044386546361885 -2.355034386920948 15 23 26
-107.131329308339474 -27.756966185428972 -3.351953785717939 15 23 25
-107.139366842946828 -27.474216009530775 -4.348749110598419 16 24 26
-107.147518532178040 -27.160178892543488 -5.234952991579519 14 22 24
-107.155587618454817 -26.632864314392599 -5.458238452057174 16 24 26
-107.163794992311637 -26.033311059683928 -5.460483575376998 17 25 27
-107.172506926460869 -25.727707627197450 -6.346332624958393 16 26 27
-107.181300846842888 -25.315010079376663 -6.900668171374207 16 26 27
-107.190395830858733 -25.054104386343418 -7.896732759846429 16 26 27
-107.199851101201958 -25.136417680344056 -9.886822027406964 16 26 27
-107.209273399281258 -24.963096533687040 -11.103546248059530 15 25 26
-107.218805177930420 -24.681001231477076 -11.988761105847914 10 19 22
-107.228347746110302 -23.633900700037710 -10.664667686682407 9 18 23
-107.238282695893389 -22.889593670406878 -10.224140827242195 8 17 22
-107.248507572003192 -22.298710572334301 -10.225331538121850 12 21 26
-107.258924497950915 -22.139625079438424 -11.441433397475976 17 27 29
-107.269596515952344 -21.630142191995219 -11.663290073788346 19 29 31
-107.280564586975444 -21.001812137914243 -11.553651818178395 23 27 30
-107.291726833522389 -20.533014588362747 -11.885714061133939 20 24 27
-107.303049440693954 -20.186689172686471 -12.549015575679078 21 25 29
-107.314649476131720 -19.761904170067410 -12.991274223594786 22 27 30
-107.326794774403169 -19.011157098832406 -12.549756231597570 16 21 25
-107.338605052685892 -18.876454102368609 -13.764940534686133 10 19 21
-107.351028077335314 -18.373683824005319 -13.985890439162660 6 16 18
-107.364059329117424 -17.620693205582491 -13.543971704001052 7 17 19
-107.377689460677487 -16.696598104391519 -12.660092191521187 8 18 20
-107.391169407483332 -16.106496531496649 -12.659717643106035 9 19 21
-107.405032600196478 -15.473231708153005 -12.548745167262268 12 21 22
-107.419964847897958 -14.452447780472298 -11.443520223706003 18 24 24
-107.433918562591728 -14.117006734132406 -12.105450987149794 16 22 22
-107.447820755062892 -13.914919010685379 -13.098610380666173 8 14 12
-107.461816085920631 -13.761153106057117 -14.202086701262203 3 9 7
-107.477438001147817 -13.039607237295970 -13.869463809904261 3 9 7
-107.492963141925600 -12.493197831326189 -13.978519987200514 3 9 5
-107.508684484846654 -11.991410016569077 -14.197881874530111 3 9 5
-107.525521304042769 -11.220657989629814 -13.754325396062427 2 8 4
-107.542769019735672 -10.447031758857136 -13.310601931743065 2 8 4
-107.558331603466911 -10.307326746220003 -14.413183748111749 4 10 6
-107.574244359298120 -10.126915671541610 -15.405158166373127 10 19 17
-107.590699735423001 -9.858884586374305 -16.176057143889494 13 22 21
-107.607574467227494 -9.547859333511145 -16.836339178732203 15 24 23
-107.625081161806079 -9.146350426745146 -17.275532508613708 10 19 18
-107.644244236567573 -8.418071419322574 -16.941284846251307 8 17 16
-107.663231881216063 -7.828993200853519 -16.938264900165876 10 16 17
-107.681966412461932 -7.381678901557598 -17.266483450189867 14 19 21
-107.695485508486570 -8.129694034883235 -20.356365043226702 11 20 20
-107.713252035388621 -7.979940577433545 -21.347137049506784 13 25 23
-107.737274521134012 -6.625955441139705 -19.575839865132366 18 30 26
-107.759754353934881 -5.699740878996458 -18.798607387509975 7 15 11
-107.780688599488400 -5.160127085423012 -18.905005916970168 21 27 23
-107.799560344363414 -5.063234073862970 -20.005563956556472 15 22 16
-107.819486763758746 -4.822834771695781 -20.774517971046549 15 22 16
-107.839093488959463 -4.685276405583861 -21.764284102566819 16 23 16
-107.858926457258320 -4.552129702738258 -22.753896588698211 17 24 17
-107.876765132380072 -4.775990231455994 -24.516800477513442 17 23 19
-107.899930028325542 -4.197730343428569 -24.511670790216044 17 23 19
-107.924556327332198 -3.465772053110787 -24.174847412808219 15 24 19
-107.948994770754368 -2.833699727732499 -24.058803498293543 15 26 20
-107.970623552046234 -2.664003679739455 -24.937074209494540 17 26 21
-107.987600069313189 -3.171880167958433 -27.251761457326154 18 29 25
-108.013094713708682 -2.544468574921028 -27.135164284626825 20 31 27
-107.377852077597993 -172.760465711185901 -14.601054924566881 47 40 27
-107.365010458358142 -172.319183113306281 -14.168305114973265 35 29 16
-107.352277156922483 -171.843699600670988 -13.846714418630512 30 25 14
-107.338989139845324 -170.854824259486605 -15.304415855073984 26 22 11
-107.326611316094002 -170.317557236468531 -15.205008837976237 18 16 4
-107.315987236115078 -171.258086088726458 -9.879183549281663 17 13 2
-107.302580027353997 -169.429203764782443 -14.338778513327838 16 14 2
-107.290634505629484 -168.765830101338452 -14.683898303104598 12 12 0
-107.278929780850504 -168.134984902180776 -14.917709179703678 13 14 0
-107.267782190156652 -168.506870309306123 -11.482588713031504 15 12 0
-107.256322849170090 -167.929761501683515 -11.494011293351548 9 3 0
-107.245045540461518 -167.531654107124410 -10.838350929063694 19 7 3
-107.233885666895475 -167.130475273427493 -10.182666000072174 59 46 43
-107.222917680785429 -166.521519422352696 -10.305040220440844 50 40 33
-107.212120112583733 -165.942305346615512 -10.316167881511319 7 3 1
-107.201348560171112 -165.564159822080086 -9.549201202668399 3 4 0
-107.190625769191129 -165.239213663306856 -8.559945818885524 7 9 0
-107.179921243042244 -164.965814660673487 -7.348433326655822 8 9 0
-107.170026030830329 -164.101339614992469 -8.470654487385019 7 8 0
-107.160995502694988 -162.828652819878414 -11.259547188627806 8 8 0
-107.151411729197548 -162.143590542956701 -11.714619262862527 8 9 0
-107.142566494606072 -161.163420614428190 -13.391823448048740 9 10 0
-107.132817835382113 -160.780609948088028 -12.624415441258748 7 8 0
-107.093037109860347 -159.803190378110287 -6.999704343694447 14 11 6
-107.024249319668016 -155.454150389218171 -5.525354651226792 146 156 155
-107.017532483241212 -154.610919234132268 -6.756695498757438 115 121 119
-107.010906434264825 -153.796768421852732 -7.876834690385351 111 115 114
-107.003559348554020 -153.169515513328093 -8.108523910138871 93 97 96
-106.996928946109961 -152.431526469515205 -8.895304558346169 115 119 118
-106.990581177442266 -151.675363072057536 -9.792995958196173 131 133 132
-106.985516613467382 -150.727091354173012 -11.689780909052899 84 87 86
-106.979143522968982 -150.047061719318606 -12.254124084953759 72 75 74
-106.972908775474195 -149.369868717893922 -12.818371879142916 67 71 68
-106.965736744554746 -148.863704005406817 -12.494436507050608 91 96 92
-106.959470053226482 -148.231492144698763 -12.836518799741327 78 84 79
-106.953180675611904 -147.621493020625906 -13.067524413696191 71 78 72
-106.948005306653442 -146.871239416612809 -14.075452993991718 69 74 70
-106.942099968236789 -146.245584592008214 -14.417294921821480 62 67 63
-106.936454639689359 -145.601994152274528 -14.870055967038155 58 63 59
-106.930160328573862 -145.057607067079942 -14.767811908724724 57 62 58
-106.924259403673631 -144.474527549606421 -14.887495706278145 52 57 53
-106.918292206736041 -143.910914943761469 -14.896151940525868 48 53 47
-106.912732025893789 -143.310240940351321 -15.126712721092872 46 51 45
-106.906937619077382 -142.747325419707096 -15.135279117690743 47 52 46
-106.901224034352552 -142.184482210486067 -15.143806104939245 43 48 42
-106.895419951431236 -141.639460597341497 -15.041334054653078 43 48 42
-106.889860071807433 -141.076482673756402 -15.049788896590684 40 45 39
-106.884900577515666 -140.461950496317428 -15.391063844838385 38 44 40
-106.880385825621545 -139.815248022069085 -15.954174944714538 34 40 36
-106.874888457642726 -139.271301591049536 -15.851545095661407 33 39 35
-106.869639058718079 -138.710480126872994 -15.859829207176801 32 38 34
-106.864458496795677 -138.149715841458260 -15.868079798736545 31 37 33
-106.860095830102125 -137.525627854211081 -16.320026474378295 30 35 29
-106.855058030791255 -136.966061378529474 -16.328196439136747 30 34 28
-106.850084275232305 -136.406546350705213 -16.336335236005141 26 31 25
-106.844588294675447 -135.892164776216276 -16.011682627452842 21 26 20
-106.839731056592782 -135.331930691361180 -16.019773084375231 23 28 22
-106.834534282769241 -134.800709939411604 -15.806009555380598 20 25 20
-106.829588468804729 -134.254233828802853 -15.703141884040434 22 24 19
-106.823878242171730 -133.763013205721052 -15.156635592927728 22 24 19
-106.817994634647533 -133.282779833082799 -14.499240264430227 21 23 18
-106.812555994524260 -132.772531394256987 -14.063658795048838 17 19 14
-106.807785476534292 -132.220776531832087 -13.960761599559589 16 18 13
-106.803701600956146 -131.629962754961014 -14.190514624483427 15 18 11
-106.799031408428149 -131.078009312006373 -14.087571477726215 17 20 13
-106.794188968977551 -130.537853074697210 -13.873730413821789 20 23 16
-106.789605599263311 -129.984607495784616 -13.770759031932528 23 26 19
-106.785729393432476 -129.395562280398138 -14.000394503669355 23 26 19
-106.781460052008896 -128.830617117301500 -14.008252206340160 22 25 18
-106.776784061553784 -128.288138796686951 -13.794355416176757 19 24 19
-106.772598506213029 -127.722707843920858 -13.802178036349801 18 23 17
-106.768455190000921 -127.157304277667180 -13.809980167565413 18 23 17
-106.764121460081768 -126.602329710130348 -13.706907156202419 18 23 17
-106.759123372850922 -126.077228826131062 -13.271267811506817 19 24 18
-106.755325987749657 -125.500682491001811 -13.389878033502839 21 25 19
-106.752519890922429 -124.886355458511872 -13.951838461965735 24 26 21
-106.749291302055809 -124.293399786386217 -14.292063253182789 24 26 21
-106.745145418704126 -123.738269338020487 -14.188901981225456 23 25 20
-106.740301746817934 -123.208929278010459 -13.753232400726489 23 25 20
-106.736211840097937 -122.651935531294470 -13.650063529606456 23 25 20
-106.731411400742715 -122.119099331376830 -13.214409254337227 21 23 18
-106.727374208243646 -121.560239114872630 -13.111234377425745 22 24 19
-106.722864308831717 -121.016219973328504 -12.786415105399982 22 24 19
-106.719130607464749 -120.448350152452974 -12.794046664675449 21 23 18
-106.714919082210784 -119.894776281697375 -12.580041888023402 21 23 18
-106.710985236837971 -119.333261675529428 -12.476844893167225 20 22 17
-106.707848345871781 -118.751428080289486 -12.706052446377953 20 22 17
-106.704486914434185 -118.177019997746314 -12.824432099527598 20 22 17
-106.700634171799280 -117.615274241723000 -12.721198684741154 20 22 17
-106.696804186374337 -117.052997153927620 -12.617959852248276 19 21 16
-106.692996324401818 -116.490188147096575 -12.514715911281513 21 23 18
-106.690805369347018 -115.895421454592949 -13.076180713623188 28 30 26
-106.688387824966213 -115.308348863875054 -13.526815831346426 40 42 39
-106.686545634852749 -114.714072505072764 -14.198967623405053 36 38 36
-106.682579199144058 -114.158444439363663 -13.984866741615207 34 36 34
-106.679718668732249 -113.585136452758420 -14.213854326511438 31 33 30
-106.676338250730382 -113.020681257532516 -14.221281727778830 29 31 28
-106.674358017450942 -112.438199447640017 -14.782519267077362 30 31 28
-106.671582654575545 -111.868448113938129 -15.011429497701073 29 30 27
-106.668276159145094 -111.305917580550798 -15.018801723152507 29 30 27
-106.665270189391549 -110.740601960342829 -15.136917731368442 30 31 27
-106.661722688247409 -110.180875768441965 -15.033517501711060 28 29 25
-106.658758648705330 -109.616115514142834 -15.151607733997253 25 30 24
-106.655816589329064 -109.051904083099387 -15.269681801734009 29 34 28
-106.653182973934889 -108.486536414069505 -15.498479097585943 34 39 33
-106.650285397624003 -107.923693201404078 -15.616517801017579 36 41 35
-106.646249273876791 -107.366042446211480 -15.291612193385021 32 37 31
-106.642513093277074 -106.805875669220370 -15.077447877575651 25 30 24
-106.639667115871774 -106.242772272318135 -15.195464574474784 24 25 23
-106.636841455688483 -105.680215492369967 -15.313465925081658 22 24 21
-106.634035914014248 -105.118204985504050 -15.431452027999484 31 33 30
-106.631547744973574 -104.556937871861194 -15.660137533737867 31 34 31
-106.628783426974806 -103.996290627584358 -15.778089882644025 26 29 26
-106.625137612124078 -103.433965917760901 -15.563904548856783 25 27 24
-106.621200703438390 -102.869543161061358 -15.239021184692319 24 26 22
-106.618484886393929 -102.308628674756690 -15.356953081764601 23 25 20
-106.616093328084659 -101.749814574177563 -15.585567119164494 21 23 18
-106.613417917009230 -101.190260086808948 -15.703465687007423 18 20 15
-106.609839036754209 -100.624950646303887 -15.489279055271282 19 21 16
-106.606580145603630 -100.060925448356741 -15.385785007411101 21 22 17
-106.603956109542096 -99.501642322584686 -15.503656204362244 24 25 20
-106.601663614720337 -98.945816578594460 -15.732192089473727 23 24 19
-106.599080360555504 -98.387890192736009 -15.850029810899770 24 25 20
-106.596831652992805 -97.833963973252892 -16.078525195576589 26 27 22
-106.594605711803169 -97.281122873795212 -16.306998519213010 25 28 20
-106.591767759050569 -96.721363322240762 -16.314118072345366 23 26 16
-106.588947406200774 -96.161601283641033 -16.321229231344944 22 23 14
-106.586465085530676 -95.606381469961292 -16.438990806426006 22 21 12
-106.585611285543706 -95.075785932858551 -17.110014257347757 23 22 13
-106.584146219761777 -94.538270522165973 -17.559683595624705 22 21 12
-106.581413601652571 -93.981483915856757 -17.566722155005863 23 20 13
-106.577723308427366 -93.407796899312828 -17.241816172530974 20 16 9
-106.574698154572758 -92.844282172025231 -17.138205051018673 16 17 9
-106.573987258678571 -92.323447231170391 -17.809059666391761 19 22 13
-106.575947725367158 -91.857445531400231 -19.364942964329401 23 19 12
-106.580610661318900 -91.452798640306113 -21.805772933730907 77 63 56
-106.582694394573707 -91.004176384359496 -23.361418366019791 93 68 60
-106.583834776570200 -90.541368881806832 -24.585084455425090 104 70 62
-106.582013339953718 -90.016724431620645 -24.813074023184527 123 84 76
-106.580554486208698 -89.500965266081124 -25.151657556763070 125 86 78
-106.578114329733907 -88.962595052729142 -25.158366634316479 129 89 81
-106.577049975322822 -88.457614263448093 -25.607509378444945 142 97 92
-106.574321534160831 -87.911691659522319 -25.503575226034258 154 109 104
-106.572636623193205 -87.391894936855934 -25.731449580296584 154 109 104
-106.570297454557803 -86.854845065390094 -25.738096754671460 152 107 102
-106.569698523189018 -86.364967572749109 -26.297720261112744 152 107 102
-106.568104668457138 -85.848670871743408 -26.525515026902781 152 108 103
-106.566541968964700 -85.333449055322674 -26.753283823806100 152 107 102
-106.563971783721158 -84.788545174737777 -26.649263476075333 156 110 105
-106.561774886286258 -84.253607914212296 -26.655820842229843 160 110 109
-106.560304030666174 -83.740247759222541 -26.883526538323082 149 98 97
-106.558867062413015 -83.227959801438089 -27.111204986151677 133 79 79
-106.557113895864930 -82.705403899798483 -27.228281510344516 118 68 67
-106.553634673455065 -82.125318678357672 -26.792481527331802 118 68 67
-106.550884880937417 -81.566807380330317 -26.577828286168369 114 66 64
-106.546748218969071 -80.958570269081733 -25.920914831690055 84 38 35
-106.543343166619707 -80.371905129274793 -25.485147096379876 89 44 41
-106.539965067603589 -79.783044671107007 -25.049389064202131 112 66 65
-106.537328848356395 -79.217929147246139 -24.834749470589600 117 72 73
-106.532936591213399 -78.585490919634097 -24.067348521294605 113 75 74
-106.524264091538484 -77.787048658827359 -21.973397369216656 103 80 78
-106.513078323496458 -76.881743588276834 -19.105736354251434 17 7 5
-106.508376929828174 -76.215322295317421 -18.227974214653273 16 17 16
-106.506595270128685 -75.659165132868509 -18.234551359608929 15 21 17
-106.504857066648327 -75.102979531655023 -18.241108007992807 19 25 22
-106.501711000395304 -74.487267115328621 -17.805515372831167 16 22 20
-106.500059949618191 -73.929932953082087 -17.812042150376243 15 21 19
-106.498091252364389 -73.357148229684753 -17.708021044374135 15 21 21
-106.496534778948728 -72.799476208315426 -17.714506054187382 14 20 20
-106.495760249597708 -72.273694027577307 -17.942006496331601 13 18 21
-106.493204825862975 -71.667791407498342 -17.616889207573394 15 20 23
-106.492167723611189 -71.126244711567011 -17.733818650847184 14 19 22
-106.491553636324156 -70.601981570132196 -17.961226701823307 12 17 20
-106.491734604312413 -70.112867685070114 -18.409610361968589 13 18 21
-106.490129021806425 -69.539273900652447 -18.305423871187315 14 20 20
-106.486359218678587 -68.859521199751995 -17.538212173667347 16 22 22
-106.484493586006522 -68.265248737234046 -17.323504061095406 17 23 23
-106.481944014851535 -67.633560917895082 -16.887790507572021 14 20 20
-106.481310565440936 -67.091704707128898 -17.004530030701829 14 20 20
-106.479253239838457 -66.475605765212194 -16.679279409367410 15 21 21
-106.478748382716702 -65.933645322752582 -16.795958487296190 14 20 20
-106.477938046315856 -65.372945891828408 -16.802117710366474 14 20 20
-106.476449348854203 -64.773187592481406 -16.587285741756261 15 21 21
-106.475402669235422 -64.192054212502583 -16.482909482594152 13 19 19
-106.474426818445380 -63.610314974708658 -16.378505575561974 14 20 20
-106.474645935833436 -63.088922211359481 -16.605485478033955 14 20 20
-106.473817640899298 -62.506781977565268 -16.501015108439418 14 20 20
-106.473814430747240 -61.965755477952492 -16.617444586634520 14 20 20
-106.473514944418497 -61.404068506196175 -16.623369586035238 13 19 19
-106.472920473272197 -60.820901137765695 -16.518797928754879 14 20 20
-106.473157136515468 -60.280475704003806 -16.635106465267086 14 20 20
-106.473102340268227 -59.718565045883892 -16.640916708287648 15 21 19
-106.473882409924130 -59.201027221801617 -16.867588572290998 17 23 21
-106.472500335117914 -58.549504960514533 -16.431520658391150 16 25 23
-106.472331908644193 -57.964030957918666 -16.326768926144013 17 27 26
-106.470756259991120 -57.285746174783661 -15.780210212470223 18 28 27
-106.471147096948215 -56.721229151498704 -15.785834094719320 18 28 27
-106.471632790486879 -56.156618892248481 -15.791413557629539 18 28 27
-106.472589156371768 -55.615775635066676 -15.907382091731307 17 27 26
-106.471775986580141 -54.954698821013018 -15.471140365433968 20 29 28
-106.471812893702591 -54.340153996664029 -15.255730757949976 19 28 27
-106.472327207833402 -53.749093781482507 -15.150709906630226 18 27 26
-106.472203107394535 -53.107468079402125 -14.824797196770021 18 23 24
-106.471817730580071 -52.438862918271624 -14.388428308837092 17 23 23
-106.473773363251865 -51.920967310212610 -14.614541470373354 16 21 22
-106.475838334089374 -51.404046124052897 -14.840592294691845 19 24 25
-106.475795633422734 -50.731805551643113 -14.404096892778966 20 25 26
-106.476243995519340 -50.083573999346086 -14.077978316138740 20 26 26
-106.478656936105864 -49.566549063739160 -14.303863740867172 20 26 26
-106.481554713354029 -49.077354109729100 -14.640089638337912 20 26 26
-106.482371168257373 -48.426808971719495 -14.313818782260626 21 27 27
-106.482222201398983 -47.692232814667157 -13.656298099376187 18 24 24
-106.482577872654716 -46.981917224778840 -13.109145158062830 12 18 18
-106.483438345432106 -46.296678440317088 -12.672351478196560 9 15 15
-106.484803456256671 -45.637333014251681 -12.345908732793049 12 18 18
-106.486311760466776 -44.976186185604817 -12.019416026906441 18 23 26
-106.489764525945162 -44.457161516213375 -12.244824587235314 18 23 26
-106.492278124992140 -43.851887329928374 -12.138993596409705 11 16 19
-106.497792852880295 -43.480566166349249 -12.916189759206702 11 22 24
-106.501655953585328 -42.964868141328353 -13.141367773747959 21 32 36
-106.507076017667870 -42.569619112599845 -13.807996640000880 19 30 34
-106.509105795629026 -41.875908297456348 -13.370730775410522 23 33 37
-106.510951768370447 -41.149381412337171 -12.823031749980430 21 30 35
-106.508439609046945 -40.020732271853447 -10.840391382408910 22 32 33
-106.504766665509521 -38.758069596317206 -8.416250258983581 21 29 31
-106.504790186985019 -37.795668305570999 -7.095838867299193 11 19 21
-106.507771824357192 -37.078703098370454 -6.658357005568746 15 20 23
-106.511622812552545 -36.422930474206773 -6.441547133227573 15 20 23
-106.517349289680226 -35.926237851208903 -6.776496967645329 14 18 21
-106.522567223149665 -35.366253644550198 -6.890623809830629 10 20 21
-106.525623671550761 -34.578162689997960 -6.232120521967460 11 21 22
-106.528561008048399 -33.753617598873610 -5.463190572650831 12 22 23
-106.532049142543997 -32.958149223272507 -4.804556707140705 12 22 21
-106.538042792020363 -32.393326956377500 -4.918362250031691 15 25 24
-106.542930603504274 -31.693857981008183 -4.590647268556864 16 26 27
-106.546428156395336 -30.822414902568571 -3.711073173260417 21 31 32
-106.551125905410231 -30.049139539707475 -3.162491073401952 21 31 33
-106.559836802664634 -29.687570727933679 -3.938057813873399 20 29 34
-106.570271961061607 -29.503776242938073 -5.265264177875224 17 26 32
-106.579915668797099 -29.220976909499914 -6.261291621039959 15 23 30
-106.589102535773733 -28.872073394486609 -7.036500288965698 16 25 27
-106.599061590422210 -28.598076856394414 -8.032286259653546 15 23 26
-106.608280384338570 -28.220916996015138 -8.696911625677870 17 25 28
-106.616496677289177 -27.701874812716763 -8.920041511071474 22 30 33
-106.624921426028450 -27.183618802032385 -9.143063579460573 22 30 33
-106.632407267248993 -26.519034113884619 -8.924605512892867 20 30 31
-106.640989289079130 -25.964166893226810 -9.037070315030064 16 26 27
-106.652872887829773 -25.820166346143935 -10.363174131137811 14 24 25
-106.664343587079600 -25.607261886755570 -11.468466969694219 14 24 25
-106.676511540968363 -25.475336526879843 -12.794310455310608 12 22 23
-106.684545272346398 -24.739062763827000 -12.354610441790072 15 25 26
-106.691283309012647 -23.769525100940246 -11.252778077158212 22 29 33
-106.699908469843450 -23.026378433312136 -10.812865872074184 22 29 33
-106.710850125159226 -22.592629846199873 -11.255531753461611 21 29 32
-106.725240216744581 -22.671366550907912 -13.132438150164830 16 24 27
-106.736800802287348 -22.284469151957289 -13.685184559557882 11 19 22
-106.746903841913692 -21.621080754258152 -13.465462120225254 10 14 17
-106.756593318154898 -20.835801277414319 -12.914615559547542 11 15 18
-106.767061486748730 -20.128095449471950 -12.584315740420578 8 12 15
-106.778059092576058 -19.458952383680256 -12.364224579373285 8 12 15
-106.789357700259259 -18.788243065195672 -12.144005542295673 8 12 15
-106.803074135857585 -18.528344128044846 -13.026989996207334 7 15 18
-106.817189697771667 -18.313987959352811 -14.020173599783647 8 16 19
-106.829893125409100 -17.769812427514680 -14.130556680585642 7 16 19
-106.842684536371351 -17.183637278797320 -14.130471108701414 7 16 19
-106.855025753652228 -16.427522884191358 -13.688914638277424 11 20 23
-106.867900734157359 -15.711300364832660 -13.357551075165162 14 21 23
-106.878860498260195 -14.434845094445057 -11.591704998191858 14 20 20
-106.894193418664912 -14.142616035932084 -12.363390036572980 16 22 22
-106.910229943769764 -13.984270529586563 -13.465936996978911 18 24 22
-106.925528048288982 -13.568396151149638 -13.906334779790939 11 17 15
-106.940509199862376 -12.978010297472043 -13.905244986405592 4 10 8
-106.955680700911429 -12.342722796830397 -13.793667440771969 4 10 6
-106.971857876286975 -11.929400065975809 -14.233618413709110 3 9 5
-106.987570439268325 -11.248330582608043 -14.011394397928257 3 9 5
-107.003889056565896 -10.655906178975917 -14.009685749343703 2 8 4
-107.021095390750205 -10.290236870400806 -14.559512740540356 3 9 5
-107.038872586364164 -10.064062978171282 -15.440207391950281 9 16 16
-107.056965319926320 -9.887855671862631 -16.431095644837910 12 20 20
-107.074851506313053 -9.484502609301089 -16.870126409961216 14 23 22
-107.092958612249021 -9.036169154232084 -17.198655608785259 12 21 20
-107.110597057284323 -8.026109277550070 -16.202884526576781 9 18 17
-107.129391665794330 -7.529253391986673 -16.420725407358162 12 18 18
-107.148954132404242 -7.460088356721950 -17.631526474965284 12 18 18
-107.169260943346572 -8.112887794346653 -20.497423181598919 7 13 11
-107.189007926686401 -8.011192161708795 -21.597611945895125 13 19 17
-107.208802125962180 -7.527874063166355 -21.814835274637886 27 33 29
-107.228791179602709 -6.121209621844679 -19.935151039987005 29 35 31
-107.249491532380404 -5.584346785645918 -20.041633145963203 25 31 27
-107.270578504748002 -5.047300962554004 -20.147932178028810 15 21 17
-107.291988804593515 -4.658514038482204 -20.585127082772260 16 22 18
-107.313563309062260 -4.520124657425206 -21.573960389489940 16 22 18
-107.335095804389468 -4.686531733011781 -23.224829679714986 16 22 18
-107.356942993240565 -4.659411811255607 -24.434104952558272 17 23 19
-107.379305673046872 -4.384637765327959 -25.091388420003994 18 24 20
-107.403383195864222 -3.195683769875940 -23.761801697327712 15 24 19
-107.426641667723700 -2.869747041582213 -24.308324379196762 15 26 20
-107.449095876883533 -3.112564780595255 -26.068825076260026 17 26 21
-107.471954790210162 -3.208419924494550 -27.498068269294947 16 27 23
-107.497498208331436 -2.268926316261289 -26.719506870848505 19 30 26
-106.866588490701872 -173.690989728684997 -13.616615586780597 60 52 35
-106.851963538575433 -173.379008544162446 -12.739952413442154 33 25 11
-106.839987401742917 -172.639722679445413 -13.307586021645278 32 24 13
-106.829287428877905 -171.742114385050627 -14.430533234286116 33 26 16
-106.815803187149683 -171.330297660565918 -13.886928661130526 36 31 20
-106.800115039490947 -171.264941040321816 -12.121364406992910 21 17 6
-106.784657537954573 -171.159570677598708 -10.466960579013943 15 11 0
-106.768774929008174 -171.108526029773174 -8.590483149247518 19 17 5
-106.767410891990167 -169.101998716317127 -13.711298599853365 14 13 0
-106.754244593310418 -168.743898077685571 -12.945271227335894 11 12 0
-106.743118968539719 -168.139437040557965 -13.067674594121570 9 10 0
-106.729472895187712 -167.866512517934126 -11.968423328850463 10 9 0
-106.718422117563748 -167.290390185073051 -11.979640299577994 11 10 0
-106.706263263315591 -166.862083062592546 -11.435571409545616 8 6 0
-106.695540428054585 -166.285038657381421 -11.446640985124731 7 3 0
-106.683653373078172 -165.853047948169092 -10.902479984261078 9 7 0
-106.671069681474307 -165.504597325903688 -10.025215677128870 5 6 0
-106.658575545097790 -165.151958193741820 -9.147951641519285 5 7 0
-106.648426155215645 -164.569989736687347 -9.158797568534027 6 8 0
-106.641880645844779 -163.653811161848239 -10.501666223146003 8 8 0
-106.634149955445764 -162.882383485371577 -11.289317445983556 8 8 0
-106.623088638983859 -162.442810665098278 -10.744839461123064 8 9 0
-106.619045704114114 -161.378664258459480 -12.753187309420099 8 9 0
-106.603424029596923 -161.368594823268921 -10.432727731387359 6 7 0
-106.580037044931672 -162.009570001564555 -5.337809398837067 9 10 0
-106.576685666837378 -159.609699996538353 -10.574483345445032 18 15 8
-106.483927057487705 -154.588651322427012 -7.123058605113727 156 162 160
-106.479958414468328 -153.774897902126725 -8.241922412285334 126 130 129
-106.472542493121296 -153.193370856057868 -8.251456113657355 125 129 128
-106.468541209088670 -152.410446443774021 -9.259159312790672 123 127 126
-106.466192814718880 -151.544084098893364 -10.710366183412674 130 132 131
-106.464039742187779 -150.684933894544344 -12.161405374550981 85 87 86
-106.459063803764309 -150.005561024235362 -12.725073397280738 78 82 81
-106.454223383462207 -149.329021869440965 -13.288647419748457 85 90 86
-106.447599847014715 -148.760439295452073 -13.297668802946788 107 112 108
-106.443006446936877 -148.088191821163093 -13.861080475362570 87 93 88
-106.438151148219248 -147.439246843317790 -14.313518689967339 78 85 78
-106.434984289825337 -146.711748854907285 -15.209393285790014 68 73 69
-106.430375956247985 -146.068439394192268 -15.661655343909331 54 59 55
-106.424686117107598 -145.486380677582332 -15.781227651142672 50 55 51
-106.417484890325653 -144.982503749055326 -15.457282696941348 43 48 44
-106.411969087851901 -144.400607472903602 -15.576770073548659 36 41 37
-106.406136262340226 -143.838177139001914 -15.585349855247813 29 34 29
-106.401205414836554 -143.238680648635466 -15.815597444169526 23 28 22
-106.395541177176241 -142.676943101632986 -15.824089442814852 17 22 16
-106.388294838035876 -142.187377867776036 -15.389159867827885 12 17 11
-106.381939974057403 -141.660194658709088 -15.175908804736594 8 13 7
-106.376911656605017 -141.079545816686732 -15.295150129714528 9 14 8
-106.373231805914060 -140.447881197778969 -15.746848138597016 9 15 10
-106.369644629706372 -139.818457407214765 -16.198478746352492 13 19 14
-106.364435141099335 -139.257925559947466 -16.206740783736393 17 23 18
-106.358863531903552 -138.713842124602650 -16.104147861681355 20 25 21
-106.352920811169483 -138.185388215572772 -15.890712710627724 22 27 23
-106.349211977106464 -137.576666503980618 -16.231329537265054 24 29 24
-106.344267454878420 -137.016352652009743 -16.239462571706383 26 31 25
-106.339385308527127 -136.456088674762896 -16.247565252356509 24 29 23
-106.333235800276967 -135.940962006879602 -15.923232958833154 24 29 23
-106.329357115045937 -135.350460915838823 -16.152884602765937 21 26 20
-106.323756226686029 -134.819034796830920 -15.939316514726670 20 25 19
-106.319102069793587 -134.258136803154855 -15.947316652250748 24 26 21
-106.312695776866050 -133.753044805965203 -15.512145026809947 22 24 19
-106.306325668539742 -133.245816037379512 -15.076978085641372 20 22 17
-106.299078252867403 -132.763243022058447 -14.420259281404668 16 18 13
-106.292773066617812 -132.251192812997914 -13.985110911245982 16 18 13
-106.288803537473328 -131.672738343550776 -14.103823127747404 15 17 11
-106.283961966934740 -131.120024111453944 -14.000969798827811 15 18 11
-106.278234509350369 -130.591416603418111 -13.676574362772499 14 17 10
-106.272074374183163 -130.073245833446464 -13.241419602681418 14 17 10
-106.267818417293100 -129.505871163725317 -13.249295910369398 14 17 10
-106.264077462750180 -128.927033468005959 -13.367902722305416 13 16 9
-106.260383509909161 -128.348768220818840 -13.486481156288022 12 16 10
-106.255785751952658 -127.792971868276098 -13.383542914078987 12 16 10
-106.251701514557169 -127.225980998654137 -13.391333121102178 12 16 10
-106.246699484584511 -126.679825207750497 -13.177630161175500 11 15 10
-106.241728286797851 -126.132605891955919 -12.963923398632716 12 16 11
-106.238234533439211 -125.554738706393039 -13.082401960420924 13 16 11
-106.235265458299182 -124.967848256731557 -13.311581283858544 15 18 13
-106.232825608127584 -124.372749215151686 -13.651450807966000 18 21 16
-106.228966946849695 -123.806438174403752 -13.659126102327576 19 22 17
-106.225141734966726 -123.240146528500588 -13.666785194972476 20 23 18
-106.221349039096552 -122.673873426568974 -13.674428541185847 20 23 18
-106.216107179330507 -122.132307813630931 -13.349934181082091 21 23 18
-106.212371440069205 -121.565253848021030 -13.357558317271156 22 24 19
-106.207671290339647 -121.013588575769731 -13.143767650730183 22 25 20
-106.203492078175330 -120.453437025020079 -13.040674007891823 21 23 18
-106.199838319184437 -119.885613970256173 -13.048266841621512 20 22 17
-106.195207255794315 -119.331546588052305 -12.834467850537010 19 22 16
-106.191604297569398 -118.763207379937739 -12.842041694380100 20 22 17
-106.187521525708192 -118.201208141226004 -12.738920934011730 20 22 17
-106.182953127868089 -117.644732879085410 -12.525116749460722 19 21 16
-106.178911835251498 -117.081398392319414 -12.421989889942836 16 18 13
-106.174891174994556 -116.517531326247109 -12.318858642081182 18 20 15
-106.174478482042929 -115.916450599587861 -12.990396608374056 18 20 15
-106.172565719085370 -115.333545929825121 -13.329888452969954 25 27 22
-106.171200754666273 -114.747584661384764 -13.780008580648968 33 35 30
-106.167282871478420 -114.185930217543529 -13.676805388957632 35 37 34
-106.165459100244362 -113.607128508328046 -14.016212426384044 31 33 30
-106.163144667732837 -113.033846466570083 -14.244938492853265 29 31 28
-106.162423506014818 -112.450830288678617 -14.805579197150820 31 31 29
-106.159641966051794 -111.883889641381060 -14.923604566144462 33 33 31
-106.156882486465250 -111.317499024563659 -15.041613719789552 31 31 29
-106.153090453462269 -110.757246598980743 -14.938335890122886 29 29 27
-106.149841999616655 -110.193933890423224 -14.945688400001018 28 28 26
-106.146611247161360 -109.630626546903315 -14.953032386369728 27 29 24
-106.144461371669479 -109.063366038393355 -15.181617746658105 28 30 25
-106.142868002425232 -108.495489740755218 -15.520802099812528 28 30 25
-106.140230889360737 -107.932119342912699 -15.638721625101766 34 36 31
-106.135467811405988 -107.373951917123293 -15.314169108220341 31 33 28
-106.131249681080192 -106.813265578367520 -15.100240703618141 25 27 22
-106.127580877311104 -106.250875186957146 -14.996925928664666 21 22 17
-106.125006649356351 -105.687246874656282 -15.114818024776042 22 23 18
-106.121366265900150 -105.124318671440633 -15.011495189609349 29 30 25
-106.120457759280313 -104.561822958656734 -15.461155406689358 33 35 30
-106.119031096240306 -104.001036607503067 -15.800187027786222 27 29 24
-106.114894354363216 -103.438191545835252 -15.586241908048521 25 27 24
-106.111315175549649 -102.875270928249748 -15.482889714707909 23 25 22
-106.107748175170158 -102.311808026086041 -15.379537277253803 23 25 22
-106.105846960462515 -101.752462449617596 -15.607922206703705 22 24 19
-106.102308659700753 -101.188729242957322 -15.504558821830784 21 23 18
-106.098228491891504 -100.622356134199848 -15.290622953213983 20 22 17
-106.095268778188583 -100.059633024517851 -15.297831261760166 19 20 15
-106.092881229970402 -99.499549743870716 -15.415597560133818 22 23 18
-106.091070186410505 -98.942921137681722 -15.643911384875764 22 21 16
-106.089280210165072 -98.387378453339878 -15.872203953147647 21 20 15
-106.087511400915801 -97.832921383355242 -16.100475220427114 21 21 15
-106.085763882091683 -97.279549616121969 -16.328725130873806 27 28 18
-106.084037800740688 -96.727262835169284 -16.556953617397909 25 23 11
-106.081768019730418 -96.171790247516086 -16.674616116163719 28 21 9
-106.079517303968302 -95.616858553297561 -16.792263926492353 26 12 2
-106.080126076122326 -95.086536986002898 -17.462584867806214 35 15 7
-106.080767940558573 -94.559472865682068 -18.132856447347649 68 44 38
-106.080301596423723 -94.024951131760218 -18.582017185193052 119 88 88
-106.075858879445093 -93.453195617047726 -18.257451277744138 92 72 72
-106.074292914022081 -92.909309505021938 -18.485516693051750 13 14 9
-106.073899793432844 -92.378850700527082 -18.934600579230334 15 14 10
-106.085056083426821 -91.979446431217383 -21.593987955216647 27 26 21
-106.092829757946035 -91.552783856003884 -23.590120836764669 30 24 13
-106.093725715532571 -91.052044818906552 -24.259999881707728 83 65 55
-106.094076601923547 -90.547300898174072 -24.819322026201093 94 62 56
-106.093878918613399 -90.037736457658099 -25.268097339670391 105 66 61
-106.091964407641854 -89.506929811626136 -25.385335979539207 123 81 75
-106.089489570971992 -88.968584255596070 -25.392061394168849 128 85 79
-106.087621031486776 -88.438577065784429 -25.509269812231736 146 97 93
-106.086949185501297 -87.926341293714302 -25.847440575936758 150 103 99
-106.086307197392955 -87.415726913610399 -26.185580365933731 152 104 100
-106.085107032935312 -86.897571584557255 -26.413205923438227 149 104 100
-106.082166161193356 -86.352192235034380 -26.309367805098304 153 108 105
-106.080429191789847 -85.825669176344363 -26.426477416573192 155 110 106
-106.079311763809159 -85.309655328650479 -26.654041349887279 153 108 103
-106.078224767307475 -84.794716480884517 -26.881579659371852 157 111 107
-106.074791305228644 -84.238768915459218 -26.667227093595500 157 108 104
-106.073167139254011 -83.714098342282924 -26.784263671732589 154 103 102
-106.072169893427201 -83.201021551828703 -27.011739877710625 154 103 102
-106.068814994745608 -82.643672193814950 -26.797364156829616 126 77 77
-106.063090186875471 -82.038787569127066 -26.141175957078701 113 64 64
-106.059782609064243 -81.478143886966507 -25.926811508188905 109 62 62
-106.055300475742868 -80.892091907381058 -25.491552733157590 111 67 66
-106.052648382553002 -80.341117564770158 -25.387634056222794 121 75 76
-106.049424696819230 -79.776884802487771 -25.173266417855388 121 75 76
-106.047439356056060 -79.237479072067302 -25.179768572228681 119 74 76
-106.041254664437290 -78.605377598797432 -24.413221651061320 106 72 71
-106.024792083116395 -77.739758185686640 -21.769394310913839 65 49 46
-106.007107896949847 -76.833497752751782 -18.904851950929640 19 18 16
-106.000962778749383 -76.180117142472398 -18.138505134821571 11 14 13
-105.997280431464119 -75.580211079626906 -17.813865236851143 11 17 15
-105.994853846815303 -75.007843826958251 -17.710058885373400 12 18 16
-105.991247718334947 -74.405162588186045 -17.385411090867933 14 20 18
-105.991348619561322 -73.891676579084034 -17.723225044273448 12 18 16
-105.990275751777062 -73.348961976437607 -17.840183619505837 14 20 18
-105.988025336550564 -72.775385564958555 -17.736305435659347 14 20 20
-105.986434976092525 -72.217190362502535 -17.742812042283276 13 19 19
-105.981207136311639 -71.561575024848224 -17.086908291415398 15 20 23
-105.981557609432443 -71.051184884750270 -17.424570983147163 12 17 20
-105.981348356846837 -70.525614252101093 -17.651798821253692 11 16 19
-105.982428101748980 -70.035186787681340 -18.099766030936337 13 18 21
-105.977395564419780 -69.373703182007631 -17.443829253075677 14 20 20
-105.973029161007233 -68.726502829368670 -16.898285659254384 15 21 21
-105.972424638731923 -68.183717745204163 -17.015020905102347 17 23 23
-105.972499136289258 -67.659566707974875 -17.242098385504306 16 22 22
-105.971397087061248 -67.099640965392638 -17.248389199028395 15 21 21
-105.967876715477558 -66.464945245141891 -16.813171034937653 15 21 21
-105.966277281463434 -65.884877344199722 -16.709048244072619 14 20 20
-105.966604677555821 -65.361885590784155 -16.935992805591582 14 20 20
-105.965757506347558 -64.800933886288547 -16.942172247086063 12 18 18
-105.964978329085113 -64.239925012510767 -16.948319748982072 9 15 15
-105.963024598614140 -63.638773602442612 -16.733724590557983 12 18 18
-105.962385602076992 -63.077099450120009 -16.739811878521806 13 19 18
-105.960574217928112 -62.474188842101370 -16.525166730413360 12 18 18
-105.961950946646922 -61.974417420940206 -16.862229161176373 12 18 18
-105.962159052426941 -61.433950078245218 -16.978551790870824 12 18 18
-105.961198932070459 -60.851149679405410 -16.874151281516959 13 19 19
-105.960318228716858 -60.267731639859463 -16.769719137027153 10 16 16
-105.959518823848029 -59.683693436596400 -16.665254483277550 11 17 15
