ply
format ascii 1.0
element vertex 688
property double x
property double y
property double z
property uchar red
property uchar green
property uchar blue
end_header
-113.742302838705299 -119.309847858956786 -17.316885148064642 57 59 56
-113.744454831257144 -118.774380362168543 -17.099649708303531 51 53 50
-113.733789435712623 -118.211592090635946 -17.332262829214500 48 50 47
-113.736035039755762 -117.675085448563493 -17.114993302481253 41 43 40
-113.741533266920385 -117.143533766849274 -16.785257843179124 35 37 34
-113.750277472919080 -116.616119902749730 -16.343068041173211 31 33 30
-113.739812522573544 -116.053694431439538 -16.575581535303172 25 27 24
-113.742223337106836 -115.513193472210546 -16.358274087950775 24 29 23
-113.735064536695106 -114.956827830754122 -16.478284669491501 19 24 18
-113.734358475026895 -114.410344558625340 -16.373388788902560 18 23 17
-113.714499529156427 -113.837007439972552 -16.943085312120701 20 25 19
-113.720283394781390 -113.299334182394489 -16.613276216813887 19 24 18
-113.706928283219199 -112.736981469513566 -16.958030490144580 21 26 20
-113.706403047068164 -112.190563180268541 -16.853047434346564 26 28 23
-113.683575505833318 -111.620515960766227 -17.534989143747424 26 28 23
-113.695902852543213 -111.087052538076151 -16.980288565732337 27 29 24
-113.698690637042461 -110.542614067351948 -16.762841308024264 25 27 22
-113.691954544582700 -109.989647643076623 -16.882614677679641 28 30 25
-113.669340443566341 -109.426176382655214 -17.564386588361259 31 33 30
-113.662703786640080 -108.875678753568494 -17.684086975849141 34 36 33
-113.668837162394979 -108.332406462671301 -17.354168309756801 37 39 36
-113.671821859646755 -107.786114979763568 -17.136645923648132 37 39 36
-113.658950707844639 -107.233123063667804 -17.481072316904715 36 38 35
-113.662011773145352 -106.686030752757944 -17.263521639908163 36 38 35
-113.649232845854598 -106.134956063232821 -17.607884178298434 35 37 34
-113.633330391568606 -105.585210489380884 -18.064586204961813 36 38 35
-113.611137163811321 -105.037572805625445 -18.745993788360153 37 39 36
-113.620702653797238 -104.490846408134544 -18.303609880517882 36 38 35
-113.636632283359802 -103.940932921837074 -17.636496426581800 37 39 36
-113.643082090913182 -103.390097547917918 -17.306504231214575 37 39 36
-113.636900276542377 -102.841838467072435 -17.425963981081424 37 39 36
-113.637088859914527 -102.291477975490153 -17.320680015539352 35 37 34
-113.646801608853025 -101.735788456864526 -16.878317921427453 33 35 32
-113.647058783874158 -101.183525250081487 -16.773020727479064 32 34 31
-113.644192840833313 -100.632856713450167 -16.780060092685801 30 32 29
-113.631891401220059 -100.089420174660106 -17.124115579285217 27 32 26
-113.625951721532672 -99.542247112522276 -17.243448313813388 29 34 28
-113.620054378379422 -98.995615177354139 -17.362755224596953 31 36 30
-113.607890904939396 -98.455977518063790 -17.706705604876959 32 37 31
-113.605234038512123 -97.907470731512646 -17.713622696568905 32 37 31
-113.593162191387449 -97.370271501886492 -18.057504143152187 33 36 32
-113.584288556591190 -96.830655586245442 -18.289021567162848 33 35 32
-113.572311174775692 -96.296435852602656 -18.632827152417121 33 35 32
-113.576121162028315 -95.740907458564990 -18.415005030567386 34 36 33
-113.579967046858769 -95.184283440620618 -18.197177013246744 34 36 33
-113.580703787899935 -94.631693604615648 -18.091653758716774 32 34 31
-113.572046785032626 -94.094758160294703 -18.323039955317370 29 34 28
-113.576008789706947 -93.536202407724232 -18.105176270976358 26 31 25
-113.567440444155935 -93.000333862352093 -18.336509072093833 31 36 30
-113.565200957210294 -92.453104594987124 -18.343213340725669 35 40 34
-113.556724899114045 -91.918843781610931 -18.574485442648040 32 37 31
-113.563990220824294 -91.351845309092667 -18.244269482997083 31 36 33
-113.565017809379668 -90.797269625516051 -18.138627529339942 40 46 44
-113.572361128428227 -90.227521957553350 -17.808402554879478 28 34 32
-113.576607812459258 -89.663704796407075 -17.590456839231592 7 13 13
-113.587165562978782 -89.083081691977611 -17.147947153183992 8 14 14
-113.569558567111415 -88.573367617118123 -17.715911447288477 7 13 13
-113.536344047938627 -88.108328324599583 -18.845176891669212 6 14 16
-113.528250155895535 -87.579377294629865 -19.076211510393705 6 16 17
-113.526469691017027 -87.033616656107128 -19.082681067107558 6 18 18
-113.543518450990433 -86.432569868334795 -18.415558565778241 9 20 20
-113.519925885293205 -85.951513131327516 -19.207809121438771 9 19 20
-113.527679441087301 -85.376692513862494 -18.877440109543045 8 17 19
-113.529223660549931 -84.820268998763197 -18.771570022088866 6 16 18
-113.537071759015348 -84.242677301232234 -18.441184305422468 8 18 20
-113.532463186255953 -83.705711560788345 -18.559775173868957 9 19 22
-113.534160293285581 -83.147575358163564 -18.453849575079914 14 24 26
-113.523411105479695 -82.633328575120913 -18.796862004915795 12 22 25
-113.500224462350346 -82.166236148515139 -19.588774626949146 15 25 26
-113.498966971737701 -81.621302991644512 -19.594985476882499 12 22 24
-113.507134811331298 -81.040540780396938 -19.264479432846798 12 22 23
-113.518479157865187 -80.445907169831443 -18.821737659140069 12 22 24
-113.504903620639567 -79.948874441712746 -19.276783896855989 9 19 20
-113.510119594388030 -79.377489681813941 -19.058452373425297 10 17 20
-113.499790442896739 -78.870084574058737 -19.401193434527386 14 17 22
-113.502007185684093 -78.311100101994086 -19.295027975436454 14 17 22
-113.482446528639713 -77.846491898427743 -19.974321481879429 16 21 25
-113.503508365354818 -77.205213176173970 -19.194834380984446 15 21 24
-113.499676781298746 -76.672963017923806 -19.313005000842196 16 22 25
-113.511506411103738 -76.069298074298970 -18.870124033330114 14 24 25
-113.501571275394809 -75.565995325864534 -19.212634370987104 12 22 23
-113.497943103795166 -75.034423678060961 -19.330700694774066 9 19 20
-113.485031066686574 -74.548948355533511 -19.785310550126610 9 19 20
-113.487781212070104 -73.988238109667293 -19.678907677318648 12 22 23
-113.518663208591732 -73.285222896513631 -18.562781475586092 14 24 25
-113.518440213404958 -72.736880607863100 -18.568532518359717 15 26 28
-113.515175043994802 -72.204772309774782 -18.686430707154386 18 29 31
-113.502634102519892 -71.722839884896416 -19.140826562802488 18 29 31
-113.524464211615211 -71.057837097848690 -18.361216126751088 15 26 28
-113.552609486216852 -70.354738942931462 -17.357258902086073 18 28 30
-113.593308053767217 -69.577144883853677 -15.904627509186639 26 36 38
-113.659035160633678 -68.651164909633749 -13.554678880272519 33 43 45
-113.709264473744170 -67.803292647275697 -11.765634765455417 34 44 46
-113.778296924807108 -66.837424723041181 -9.303656572994441 31 42 43
-113.859903877345261 -65.785590449789666 -6.393112137263813 32 43 44
-113.922906265874190 -64.831959393526475 -4.155610515661436 22 32 33
-113.967303123507278 -63.981438442465851 -2.591101661677101 2 7 9
-113.996211393614303 -63.219645038651286 -1.587383602260502 0 5 5
-113.994028914066249 -62.648487998149108 -1.705165784258384 3 7 6
-113.985707205499921 -62.117460772370578 -2.047189645873658 2 6 5
-114.002453645760738 -61.427101860818915 -1.491989992735625 2 4 1
-114.006825967612556 -60.815448653173050 -1.385335457762807 0 7 0
-114.017551826715305 -60.161839608415775 -1.054355515014464 0 7 0
-114.025269064493443 -59.527420225312397 -0.835476242488113 1 8 1
-114.042471910702886 -58.828197259168448 -0.280149488475558 0 7 0
-114.031678323633315 -58.319416599843720 -0.733985778130119 0 5 0
-114.030369970058203 -57.747465994019826 -0.851357949825314 2 7 2
-114.026052227112885 -57.197972347794931 -1.080797527233841 5 9 5
-114.043739818924394 -56.493385830719760 -0.525294082310950 6 9 6
-114.045920062204615 -55.898793021378097 -0.530371503883316 10 13 10
-114.051354166013468 -55.281235450764292 -0.423269792635779 2 4 2
-114.028746272401960 -54.871054838778328 -1.325178605906160 23 26 23
-114.021905379431047 -54.348173286690866 -1.666410202905041 154 159 155
-113.974464853811966 -54.134434686447570 -3.465047865261653 175 180 176
-113.967855925247576 -53.618131712952959 -3.806100774669318 171 176 172
-113.898558749973603 -53.030781328335706 -6.505911436449310 173 178 174
-114.008417717695636 -51.607815320801777 -2.698800499512231 49 54 50
-114.206433474146948 -49.465125184417616 4.247124638733339 87 92 88
-114.197467921930766 -48.958602833454229 3.794186120589131 119 124 120
-114.154066580253698 -48.735515198301925 2.108243440592815 133 137 136
-114.189384689955531 -47.874085289728789 3.224861221624423 123 127 126
-114.209160997822181 -47.137653954685483 3.781036106439728 28 32 33
-114.194480663241052 -46.688761452293818 3.104239099141893 25 28 27
-114.201990795786330 -46.056229268703561 3.212179834206893 43 47 48
-114.193905430261850 -45.557737836531082 2.759745060640455 24 28 29
-114.208051416747509 -44.870656689844076 3.092016635445418 49 53 56
-114.238163061341041 -44.044219462752707 3.984786088823824 16 20 23
-114.268482325933604 -43.213190229367697 4.877607599070473 15 19 22
-114.251591576055048 -42.798363097064211 4.089244903717884 24 27 32
-114.222189050943740 -42.500494949203791 2.852664995880758 20 23 28
-114.202410785015971 -42.122659509322247 1.952442811900426 19 22 27
-114.208125572282896 -41.517984001766294 1.948952517778110 23 26 31
-114.201338008291529 -41.029707359880611 1.497243753984520 23 26 31
-114.210588280547867 -40.396263702419475 1.606007583664109 11 15 18
-114.239098538339519 -39.583811026752443 2.387296004178154 4 8 11
-114.258302348631773 -38.857208709600265 2.832439298214609 11 15 18
-114.239527289465826 -38.491238994890871 1.932819184780442 15 19 22
-114.230461953308861 -38.037841123540282 1.369520882376605 8 12 15
-114.227946538339651 -37.525336782293969 1.030465397071509 11 16 19
-114.235195658514769 -36.920981139453168 1.027712415081425 9 14 17
-114.236260314021649 -36.379086585144265 0.800925979913643 8 14 14
-114.266321629547193 -35.553299176796536 1.582819160028748 4 10 10
-114.267816454516748 -35.010590102698664 1.356230132196089 3 9 7
-114.279136704025660 -34.372138931986768 1.465932687048593 6 12 10
-114.255365238939589 -34.089983052214293 0.343067278214960 10 14 15
-114.270319866543872 -33.420151150122670 0.565044374378772 10 14 15
-114.269423553897752 -32.914017772661978 0.226829041605953 8 12 13
-114.307410286190418 -32.009673348332676 1.233422856948152 5 9 10
-114.323116677370379 -31.335053376923724 1.455710308226912 5 9 10
-114.322921421490562 -30.828268205443113 1.117823649364823 2 8 5
-114.329414372390602 -30.254564779529783 1.004165552332182 2 8 4
-114.332903718667637 -29.715493791408321 0.778568145302927 2 8 5
-114.378812391213970 -28.726287282159319 2.009796031478174 4 10 6
-114.366578709474084 -28.359960816757649 1.224160503289028 4 10 6
-114.387084032927277 -27.644760109285059 1.559184914336100 3 9 5
-114.368761080653314 -27.353768245817442 0.549693987057367 2 9 3
-114.383262047912268 -26.709438023077205 0.660857670343006 2 9 3
-114.404582498887933 -25.992022521152890 0.996249237610897 4 11 4
-114.416380274267112 -25.381619833691964 0.995610071410880 4 11 4
-114.428454693928629 -24.770826891233774 0.995099233796537 4 11 4
-114.404653656170780 -24.565691170552192 -0.237846400233195 5 10 6
-114.417230033394048 -23.957166722644558 -0.238093752316558 5 10 6
-114.436691095013771 -23.273283236292723 -0.014105433582245 5 10 6
-114.486209759945126 -22.248083288359105 1.218478962030019 5 10 6
-114.499741438635596 -21.634655303063813 1.218638148320423 5 10 6
-114.506940803293119 -21.097412268202071 0.994834417408725 3 9 5
-114.494479143928146 -20.792401311124344 0.098862091914157 3 9 5
-114.488882761978530 -20.413673038533481 -0.572866947917078 3 9 5
-114.503540791401434 -19.802919180251024 -0.572141393164372 4 10 6
-114.518516203802562 -19.191691057569233 -0.571268885324514 5 11 7
-114.530462707899915 -18.619696316865554 -0.682300432845580 5 12 7
-114.556153477075895 -17.887776850132397 -0.344967416926778 4 11 4
-114.582219311501589 -17.153664260805677 -0.007477545990753 4 10 6
-114.615412022500266 -16.336222033838549 0.554281814288402 4 10 6
-114.625359227017071 -15.801344483862419 0.331816989670784 4 10 6
-114.639010661427093 -15.225933907603903 0.221565914056015 3 9 7
-114.642809118847168 -14.774771333718661 -0.224696499633779 3 9 5
-114.670729916380921 -14.033468812696375 0.113606769716029 4 10 6
-114.681998001356135 -13.499779242431607 -0.108213921745914 2 8 4
-114.673071880691495 -13.220200190776078 -1.002233074266599 2 8 4
-114.712396161242339 -12.348972790605298 -0.327235145017625 4 10 6
-114.755640049889521 -11.430912879467297 0.460014725667861 5 11 7
-114.816629286568244 -10.292706637089600 1.807782257848515 6 13 7
-114.795264833473851 -10.188542284896560 0.466182741668860 8 15 8
-114.749809560094576 -10.396338238751973 -1.659742770656408 6 13 6
-114.742623419326804 -10.130698856018736 -2.552786034743718 4 11 3
-114.833272265634605 -8.629939325663440 -0.307690310741606 4 11 4
-114.900256097412054 -7.428842146309680 1.153156532099018 3 10 3
-114.862758274791716 -7.564312544970990 -0.747988876490922 1 8 0
-114.839396716228009 -7.528381652120125 -2.200700324727478 2 9 1
-114.886710084014084 -6.591274011082479 -1.411699697023579 3 11 0
-114.984116771434614 -5.009864679710436 0.946657671006506 4 12 2
-115.075322095918580 -3.507591701744137 3.081145148663580 8 13 6
-115.135367723328912 -2.409954385763872 4.207161087903245 44 48 41
-115.156826982738892 -1.817790020881173 4.100472793842755 68 71 62
-115.157240566024740 -1.506417906739708 3.321453346634939 24 25 16
-115.161555966087263 -1.151157091286493 2.654707631668856 34 36 23
-115.184231611875475 -0.561481118737717 2.548626866954663 21 21 13
-115.156724240120809 -0.639384920029566 0.873386063749678 27 29 18
-115.046670890545556 -0.802594632005055 -6.715987256493150 73 77 62
-114.842385310250748 -2.269479461245232 -18.106223657315184 85 87 73
-114.868931625493460 -1.726283260380757 -18.209974267390521 85 87 73
-114.854215548111668 -1.749260709828094 -19.547084488983131 85 87 73
-114.870162223747428 -1.363945467387197 -19.986857437057751 85 88 78
-114.155864747225650 -172.665699077820648 -13.909206730234729 25 22 17
-114.085284270530863 -171.570979229093410 -15.727982848426478 29 26 19
-114.025314589513840 -170.583300566832463 -17.208004314870180 47 42 36
-114.029635844794356 -170.217252574981387 -16.544551647499986 52 47 40
-113.906718081190476 -168.630624939937263 -20.167171357037205 50 43 36
-113.978516163395923 -168.904373787171096 -17.247674558276856 42 35 28
-113.940028576139497 -168.124960889779715 -18.050121971035480 37 30 26
-114.021745122481462 -168.473229933344044 -14.792536484451858 36 28 25
-114.096619957288866 -168.743844358152273 -11.760741157057112 36 28 25
-114.078505433048164 -168.141483904806137 -11.886466367029129 39 36 31
-114.113561559696421 -168.025990986402036 -10.208001189023634 36 33 28
-113.947255008218107 -166.066412449494948 -15.407241305829615 25 21 18
-113.874041922066894 -164.967615524655457 -17.449036592595036 18 14 11
-113.860112780041860 -163.530110508253159 -16.583626128305241 74 70 69
-113.729443762402923 -161.938132085675221 -20.653444629229739 66 62 61
-113.704732702034875 -158.143682702169741 -18.265429021229068 179 172 167
-113.783466487355014 -158.325941557775167 -15.121838188475721 190 183 175
-113.839600679342325 -158.311270192919665 -12.767098219839653 202 197 186
-113.860440990546891 -158.002712881336748 -11.651715572603308 212 205 191
-113.839771136781394 -157.358528857908084 -12.000811524319232 221 206 191
-113.809722861393880 -156.640782176873898 -12.687727952943419 233 208 192
-113.799026151693795 -156.075676150119506 -12.698662142416993 234 204 183
-113.782126510432221 -155.461581705301199 -12.934785825325463 223 189 167
-113.778114959378513 -154.946002530330361 -12.720294283210819 217 180 160
-113.752033988149705 -154.261249581624526 -13.294114261142340 201 167 144
-113.741992629445917 -153.698214427050459 -13.304713616417928 191 162 139
-113.706801925899029 -152.947451768195805 -14.216147784933298 183 162 144
-113.693940211581378 -152.363723228531569 -14.339168280995892 93 87 72
-113.668620864695242 -151.688947569714401 -14.912521199195538 54 55 48
-113.662381573888311 -151.153046993781373 -14.810163463451971 54 54 51
-113.649985517144387 -150.571966761371954 -14.932933930170492 63 62 60
-113.644015339369346 -150.035809312774546 -14.830450095794305 92 93 95
-113.619361420693025 -149.368195922251658 -15.403410950593695 118 118 118
-113.604276483262311 -148.768160995383880 -15.638521763728562 58 60 59
-113.579960015296209 -148.105473879309869 -16.211270474647222 47 49 48
-113.565180857301627 -147.508713686959538 -16.446201295460526 47 49 46
-113.534953693304288 -146.809444258508648 -17.243871993059940 49 51 48
-113.532933553872851 -146.298380192600035 -17.028381290165470 50 52 49
-113.518578441195928 -145.705545779170080 -17.263068839137759 52 53 48
-113.510570356260558 -145.153772086390148 -17.272579563328492 56 57 53
-113.477862377695587 -144.444898009201694 -18.182394824508492 60 60 58
-113.479411713493960 -143.953669606061652 -17.854133433537271 65 65 63
-113.453200659559286 -143.288964121850341 -18.538668168886829 67 67 67
-113.439507995021131 -142.702968736839324 -18.772968407385036 64 64 64
-113.419764433301964 -142.081051138268265 -19.232250909584792 64 66 63
-113.403239697192262 -141.479702607194469 -19.578922923980912 68 70 67
-113.368361981964966 -140.772018183046896 -20.600622818966997 61 63 60
-113.361336448691048 -140.228990337111526 -20.609573468415732 61 63 60
-113.366701988608753 -139.755914041975018 -20.168440684787697 59 61 58
-113.372138244770639 -139.280740424233500 -19.727295659546030 55 57 54
-113.343918547319419 -138.617354303840500 -20.523636627114740 50 52 49
-113.349529432935981 -138.140983143603876 -20.082420386647016 46 48 45
-113.333791753542187 -137.547894319860831 -20.428630854491246 43 45 42
-113.327333320982916 -137.004822638501508 -20.437310656121952 43 45 42
-113.302647361698334 -136.366860414805046 -21.120840509603369 42 44 41
-113.305534891044431 -135.872239561432309 -20.791973851620327 38 40 39
-113.296303555852262 -135.314924798985317 -20.912985696475147 36 38 37
-113.305424405627534 -134.848280804229859 -20.359131289663736 33 35 34
-113.302436143197468 -134.320030309521087 -20.255139526959255 33 35 34
-113.293448756313722 -133.762371941621012 -20.376038204682999 32 34 33
-113.269374810078816 -133.134365975452539 -21.059172788458909 30 35 31
-113.260573030411535 -132.579286273587286 -21.179956128821658 29 34 30
-113.254883035343084 -132.038457305949237 -21.188245227211780 28 33 29
-113.258346751491544 -131.537806452826914 -20.859164993254126 31 36 32
-113.252798567433203 -130.996273420383659 -20.867393497035835 34 39 35
-113.247323526879740 -130.454794638740907 -20.875586450784795 36 41 37
-113.229849460233908 -129.863144609150993 -21.333471675027965 40 40 38
-113.242617581609679 -129.396560108178392 -20.667012928664860 39 39 37
-113.252410596998402 -128.914744547604840 -20.112993128676493 37 37 35
-113.256225944585466 -128.406775368919625 -19.783820006645357 37 37 35
-113.248064018574041 -127.851353173971219 -19.904300768665706 36 36 34
-113.245982255929079 -127.318908428946315 -19.799918513096713 34 36 33
-113.246962155836130 -126.796883984099580 -19.583105422352418 34 36 33
-113.250995193026540 -126.284461501044987 -19.253873998460222 32 34 31
-113.249081522452414 -125.749691987200791 -19.149435258234035 30 32 29
-113.247224343979255 -125.214417242580225 -19.044974692974591 30 32 29
-113.245422653089946 -124.678635981017280 -18.940492796478537 28 30 27
-113.240685469204777 -124.132786797088400 -18.948377748872758 27 29 26
-113.227043503974045 -123.559109296944186 -19.293385823739641 23 28 24
-113.225414008739108 -123.023162098947566 -19.188823257499820 22 27 23
-113.220852993864924 -122.477959919125965 -19.196617271304746 22 27 23
-113.213366323418754 -121.924318142640502 -19.316756666635627 21 27 23
-113.208916945798563 -121.379450450693241 -19.324493830509169 24 28 24
-113.213450108377728 -120.858393287389617 -18.995112029446801 28 30 27
-113.218022655005299 -120.335731640907326 -18.665727902942052 32 34 31
-113.216689747633069 -119.796698982665959 -18.561055210277686 44 46 43
-113.224313402308638 -119.278480383003611 -18.119306824707678 57 59 56
-113.229002474095694 -118.751271666646815 -17.789913758240488 61 63 60
-113.227796852122651 -118.209321703685490 -17.685210201960444 57 59 56
-113.232563358494914 -117.679439742914624 -17.355807608100775 49 51 48
-113.237365684599723 -117.147947742834788 -17.026404451147300 43 45 42
-113.245163079375118 -116.620595165185350 -16.584666969533032 38 40 37
-113.232286877915385 -116.052738768084879 -16.929248786098753 31 33 30
-113.234247633739244 -115.512565425841558 -16.712153272964059 27 32 26
-113.224430454570040 -114.951585728718882 -16.944341993503599 25 30 24
-113.229425678804773 -114.415023012228573 -16.614898750177247 20 25 19
-113.213803013080238 -113.846113634929850 -17.071664189607844 20 25 19
-113.215928388462729 -113.304105689903011 -16.854508807528674 21 26 20
-113.203357435612617 -112.741793815020472 -17.198887521653319 21 26 20
-113.199673718347213 -112.191851039646480 -17.206310636620827 25 27 22
-113.184260909459681 -111.628712707967964 -17.662916276988199 29 31 26
-113.195372868010466 -111.095035845392061 -17.108799333546472 29 31 26
-113.194751312017615 -110.547617940823301 -17.003872646373338 28 30 25
-113.179479515073083 -109.987235367228735 -17.460382460708217 26 28 23
-113.155454503653417 -109.422395552415068 -18.253702318228932 28 30 27
-113.149097666556941 -108.873027825877628 -18.373257210214803 35 37 34
-113.151580817073324 -108.329224713579194 -18.155949148296457 38 40 37
-113.159957901880375 -107.787139419462534 -17.714085996209690 37 39 36
-113.147857072319795 -107.234999319758188 -18.058135101772393 36 38 35
-113.147514541230422 -106.687916792625359 -17.953071477833419 36 38 35
-113.129652003503111 -106.136799507162024 -18.521584206333699 36 38 35
-113.117692080461268 -105.589028807596748 -18.865520926270165 34 36 33
-113.102856767047669 -105.042855431673857 -19.321675665970247 35 37 34
-113.111440887005571 -104.496998210585062 -18.879752295316194 35 37 34
-113.122969928428162 -103.948464254984302 -18.325588752380298 35 37 34
-113.134521351422990 -103.397213910594616 -17.771442463331312 35 37 34
-113.137345441049646 -102.846392509723344 -17.554043540081238 36 38 35
-113.143116336641768 -102.293164315792950 -17.224400764367630 33 35 32
-113.146002335194183 -101.739897899263468 -17.006997391874108 31 33 30
-113.146007906147602 -101.187408330615185 -16.901822894505642 32 34 31
-113.137315714438827 -100.640783312289557 -17.133325664980191 29 31 28
-113.122847907913425 -100.100061166813305 -17.589248478391227 27 32 26
-113.111336969257565 -99.558832273226486 -17.932903067641149 27 32 26
-113.105685410345018 -99.013328152831136 -18.052080786922431 29 34 28
-113.097168997432263 -98.471588576216305 -18.283449177117689 29 34 28
-113.091599903137109 -97.927436819032891 -18.402573525054805 29 34 28
-113.080266021952085 -97.391359914579056 -18.746090378605260 30 33 29
-113.077682536371128 -96.844789971836960 -18.752952428245550 32 34 31
-113.069337105563505 -96.306837358829426 -18.984200040069027 31 33 30
-113.078429081156017 -95.742464068199382 -18.542224308225599 34 36 33
-113.073061550591390 -95.200185581782449 -18.661232946247850 33 35 32
-113.076425304420084 -94.643060329997525 -18.443640738197587 30 32 29
-113.062451955973202 -94.117234965774898 -18.899173664505753 28 33 27
-113.065892930824887 -93.559547247351986 -18.681550303934387 28 33 27
-113.060690586687187 -93.018591303151126 -18.800466303744798 32 37 31
-113.064206902381898 -92.459522215074642 -18.582821119504189 31 36 30
-113.059087617109427 -91.918815076227943 -18.701694823159670 31 36 30
-113.059791535991209 -91.365120654375389 -18.596198640695320 15 19 15
-113.060535431198247 -90.810868705410257 -18.490689072600617 6 11 9
-113.075757762086141 -90.219542417753360 -17.824340270694449 27 32 30
-113.076578218272317 -89.662812896934327 -17.718819578981510 54 60 58
-113.074554983381574 -89.113370409991006 -17.725443175152492 8 14 13
-113.058153346514771 -88.604506874766770 -18.292822074610967 4 10 10
-113.038922740513968 -88.106736810997006 -18.972299037452188 7 15 17
-113.025514308243814 -87.594885797564743 -19.427417864785014 7 17 18
-113.017922821887126 -87.067320854665923 -19.658197866660657 7 19 19
-113.010381586100010 -86.540823529499832 -19.888942839310488 9 20 20
-112.997131126931748 -86.034351696525519 -20.343930722246085 10 20 21
-113.006968837649225 -85.452022275196128 -19.901783064748741 9 18 20
-113.005335261625916 -84.907586915195409 -19.908168708580206 7 17 19
-113.015261518998045 -84.321944498475887 -19.466012792992615 10 20 22
-113.005094390500091 -83.808073832928045 -19.808742896084368 13 23 25
-113.006487241930813 -83.252449736485389 -19.702936993760005 17 27 29
-113.002180035937499 -82.718477585560890 -19.821352874857837 13 23 25
-112.995052517661804 -82.196404953163920 -20.051854380882844 9 19 20
-112.999477476294501 -81.628765687082549 -19.833862722122745 8 18 19
-112.995334529063882 -81.095791941348466 -19.952189745305390 10 20 21
-112.999866787658334 -80.526728083576742 -19.734161418649308 12 22 23
-112.995836874916776 -79.993960364925570 -19.852432245779539 6 16 17
-113.006223939455552 -79.397976503680837 -19.410162331306566 8 16 18
-112.996567816453478 -78.890899963705920 -19.752578035773126 13 18 21
-112.989845159129857 -78.372129697340654 -19.982851864793872 12 17 20
-112.971704598534330 -77.908657259097609 -20.661454310960323 13 21 23
-112.982328428063241 -77.310069863367289 -20.219097928416005 9 17 19
-112.990142624680161 -76.723368741759529 -19.888822198155907 10 18 20
-113.009494662100707 -76.077474706642903 -19.110200567116607 12 21 18
-113.000221114584718 -75.574235434375737 -19.452393749857748 14 23 20
-112.999621242363546 -75.027813046282702 -19.458305326811853 10 20 17
-112.987617082656854 -74.542127014390871 -19.912483025664557 9 18 16
-112.992891076378811 -73.965759756658869 -19.694175033030689 12 21 19
-113.006837627939163 -73.341028488287336 -19.139639298750041 14 23 23
-113.015119388673412 -72.745546365748353 -18.809230274672672 15 25 26
-113.017738977114547 -72.180946382334184 -18.702929898881109 16 26 27
-113.014698604853692 -71.648861810964959 -18.820720301259058 16 26 27
-113.034672355523256 -70.982614804289824 -18.042010748093162 12 22 23
-113.037520223321295 -70.415113484831892 -17.935631029149164 11 23 23
-113.049049182725042 -69.794875303965938 -17.493064497983056 13 25 25
-113.069261451699660 -69.119444166876733 -16.714335375345655 16 28 28
-113.098160010291338 -68.386363338593654 -15.599467524000346 21 33 33
-113.132881042004016 -67.611369918292880 -14.260527878995475 24 36 36
-113.245122925614936 -66.331142140953062 -9.896513262353835 25 37 37
-113.308715455583808 -65.348142879974404 -7.437313850952961 31 43 43
-113.372412048808471 -64.353060856222115 -4.978189029994212 33 45 45
-113.424742858837021 -63.423034516215566 -2.967267449605856 30 40 41
-113.448494218889167 -62.678686425706317 -2.076695749829952 7 15 15
-113.458004922092400 -62.029042325531087 -1.746256320332321 1 3 4
-113.470490186058512 -61.357565481299240 -1.303759721643644 0 0 2
-113.471601908811436 -60.765322567317099 -1.309324131120206 0 6 1
-113.490045290549929 -60.049078946563988 -0.642720226390594 0 6 2
-113.499989229759194 -59.392231345780466 -0.312147687523208 1 7 3
-113.507175066607701 -58.754840444358976 -0.093553222710938 0 5 1
-113.494365507713596 -58.266545122478917 -0.659001965427336 0 5 1
-113.496031181535614 -57.672156767024653 -0.664323450718115 1 6 2
-113.492063992416277 -57.121692346654214 -0.893605317043836 3 5 4
-113.493962331839896 -56.527627488155467 -0.898812165991615 2 4 3
-113.487351935242742 -56.001138025787839 -1.239970632348331 0 2 1
-113.489489893334493 -55.407658183369470 -1.245056826682259 124 126 125
-113.480238788633500 -54.906499534492760 -1.698076740876331 182 184 183
-113.456708141780425 -54.524326576620552 -2.710997584201408 108 113 109
-113.315180116591605 -55.116935618795651 -8.315548329785628 138 143 139
-113.605579999377937 -48.120900859649815 1.950381691133458 124 129 125
-113.641243754114228 -47.230401082571269 3.177724481725306 121 126 122
-113.653936245522203 -46.544884578295409 3.509316815117643 121 125 124
-113.655207564477422 -45.964239319258716 3.393089251485236 115 119 118
-113.659972238124993 -44.224511164502310 3.044884104403565 127 131 132
-113.717097030080424 -43.117665975435763 5.056279024073802 113 117 119
-113.736668819000727 -42.365331943760445 5.612192373281033 73 77 79
-113.680767468677345 -42.346398623673792 3.257217885395193 58 62 64
-113.648246335549715 -42.110038871925411 1.798061413152197 113 117 120
-113.662486203663974 -41.418679094465077 2.130333858510596 81 85 88
-113.665251460839698 -40.842040140941826 2.014862228717305 49 53 56
-113.697402570189723 -39.971512164270983 3.019012391730286 24 28 31
-113.712250712157058 -39.273986089058177 3.351512360414546 10 14 17
-113.718528781438465 -38.664494647591724 3.348241965650118 17 21 24
-113.698639411710047 -38.327003977093391 2.337523034050605 13 17 20
-113.684758006551206 -37.933185990886862 1.550816256591617 13 17 20
-113.694515461759551 -37.296581556132793 1.659790185388431 12 15 20
-113.686851246763325 -36.845630858842100 1.097187364537234 11 14 19
-113.699952387957168 -36.177717548876117 1.318297508188039 11 14 19
-113.707385501217729 -35.571693779445596 1.315615376994344 9 13 16
-113.735671166026307 -34.742067100897877 2.096619572356019 5 9 12
-113.728795856266174 -34.294471118674146 1.534428692833046 7 12 14
-113.728014947439817 -33.784443357799248 1.196228482007172 11 16 16
-113.739272349293287 -33.144849856327177 1.305889212172360 11 16 17
-113.756690043827405 -32.438386191868638 1.639526446900931 9 14 15
-113.774360612141066 -31.729960553470626 1.973264459995477 6 11 12
-113.789316832687391 -31.053130766681456 2.195170285474603 6 10 11
-113.783695439874975 -30.611778258625932 1.633643542737417 6 12 10
-113.799132470823992 -29.934036328410841 1.855769997114635 5 11 7
-113.793938457260523 -29.495642187904828 1.294478163108550 5 11 7
-113.818837698357470 -28.712934062649911 1.852627491372175 3 9 4
-113.820083616516968 -28.206734260927796 1.515436310735595 3 10 3
-113.836548427660915 -27.525695658973842 1.738020517336793 3 9 6
-113.826260053001903 -27.162776107256306 0.953350686461249 3 9 7
-113.837222939397918 -26.552872756606025 0.952317252158082 3 9 7
-113.866532479208985 -25.726198908785374 1.622982775860947 4 10 8
-113.893155373868964 -24.932147744891818 2.181839934486021 4 10 8
-113.886839892891985 -24.537787582220457 1.509605973247545 4 10 8
-113.850440176718038 -24.515413495205550 -0.281779992647301 4 10 6
-113.862707179937900 -23.906650802994129 -0.282177800561755 3 9 5
-113.881340209303858 -23.222555565044971 -0.058587789284957 3 9 5
-113.933801327420014 -22.121766769380045 1.396343961703707 4 10 6
-113.950075810767089 -21.469534450506991 1.508274748761636 4 10 6
-113.966661113296539 -20.816305005374783 1.620343966729479 3 10 3
-113.949842188798016 -20.586467867448196 0.501343172574138 4 11 4
-113.948561354251055 -20.167473210908678 -0.057876921369740 4 11 4
-113.941368314740672 -19.829108111862908 -0.840813203203652 5 12 5
-113.962161961333408 -19.139391455572344 -0.616247424134485 6 13 6
-113.970932641517493 -18.606890845590307 -0.839250626922620 5 12 6
-113.976898775739301 -18.115012911748185 -1.174036250193836 5 11 7
-114.001786185991861 -17.382720901475711 -0.837091393208141 5 11 7
-114.070638341699663 -16.080540544488365 1.067044289151397 3 9 5
-114.102628659012453 -15.258230399126887 1.628178320483187 4 10 6
-114.091237871366630 -15.008155954940554 0.622424900552915 5 11 8
-114.083192759173258 -14.721226555618824 -0.271248441356022 8 14 10
-114.119394993202562 -13.854765320049546 0.402304972065082 9 15 12
-114.146593755510764 -13.110232661266993 0.740229572807266 9 15 12
-114.148918569584382 -12.701387841944369 0.182838886177620 8 14 12
-114.164204262560503 -12.124678507767724 0.073356265491356 7 13 11
-114.192556939958266 -11.376691734960257 0.411797340326245 6 12 8
-114.265953505306129 -10.023042586541511 2.317577258554707 5 12 6
-114.247365433431298 -9.917151825374317 0.977288182839061 4 11 4
-114.209721320036110 -10.079450272043150 -1.034509941101220 5 12 5
-114.223562653591344 -9.548154434988314 -1.255074959364350 4 11 3
-114.305459747039919 -8.088397430355968 0.875397130743067 5 12 5
-114.336395348340730 -7.329466971665532 1.214961218663205 4 11 4
-114.286722601346938 -7.688318850483880 -1.244003678824726 2 9 1
-114.318357115161660 -6.931733254876796 -0.904081096699969 4 11 3
-114.386372595717532 -5.673548383767386 0.667530536010929 3 11 0
-114.432189914739325 -4.726283001649071 1.455710900382201 5 13 2
-114.495015594040382 -3.544493654796570 2.803908357629950 3 8 2
-114.545363134472012 -2.540019106553378 3.704525966629575 59 63 56
-114.593033137229853 -1.576699318095623 4.493427392480271 68 71 62
-114.614777864684015 -0.983098266935151 4.386860876820037 26 27 18
-114.600344317250219 -0.907437666621085 3.048870485588424 32 34 22
-114.609491802743605 -0.506129012089504 2.494821315109903 22 22 14
-114.440191543284286 -0.679763208267848 -12.106897969277298 82 84 70
-114.396574748746090 -1.133978768689091 -14.451125208666753 83 85 71
-114.373868437381660 -1.294226127545084 -16.123221597433826 84 86 73
-114.300467830607744 -2.050207803612312 -20.363192123931896 83 85 72
-114.359397508914128 -1.045547018038182 -19.458470766624515 83 87 81
-114.358591325571837 -0.920427356882888 -20.457874325783393 66 71 64
-113.643097519030817 -171.976412274177676 -12.609583601035439 63 60 57
-113.432432649707479 -168.579153752064315 -18.620855541810386 50 45 41
-113.406156924750874 -167.498682746085393 -18.533688704490061 28 23 20
-113.352860315738909 -157.660621907603854 -10.900331777550633 206 201 192
-113.321533831988617 -156.914630720404432 -11.699009316485501 234 219 205
-113.281638876327776 -156.098095566257086 -12.835088782263625 235 213 195
-113.265438668369470 -155.483901574118192 -13.070878883367783 232 204 186
-113.266960790153334 -155.016833622934570 -12.631522930898200 229 197 177
-113.242322434427578 -154.331429137785506 -13.204659473109871 207 179 157
-113.229542268040802 -153.743974844519727 -13.327679307975302 197 174 154
-113.199460593298397 -153.016316810506765 -14.125572622192124 149 136 120
-113.189927159866201 -152.455135656872301 -14.135909903595774 52 47 40
-113.166033464923373 -151.779421756860813 -14.708590452580438 61 60 59
-113.153910392931422 -151.197250539779503 -14.831241554382558 61 59 62
-113.139042569023630 -150.593383702547243 -15.066287944930650 88 84 85
-113.130102591084494 -150.034984293169373 -15.076312685369544 124 124 126
-113.098231809843284 -149.301994438385577 -15.985975670033014 89 89 89
-113.075196323780872 -148.638222254849893 -16.558122732744266 50 52 51
-113.052330975071584 -147.977318491521572 -17.130158876238795 45 47 46
-113.041114308019942 -147.403357474120440 -17.252291845314602 47 49 47
-113.018563595094705 -146.747083170514856 -17.824129814773954 50 52 49
-113.010485694815600 -146.196026836718573 -17.833666554249447 51 53 50
-113.008243178630920 -145.685484745532392 -17.618276862683473 55 56 51
-113.006101624272972 -145.173962245531442 -17.402848963166036 60 61 57
-112.984104743537756 -144.523893630931894 -17.974358102929699 64 64 62
-112.959411502581503 -143.857288339662404 -18.658186277421436 70 70 68
-112.937716558375811 -143.213173010795458 -19.229489691623542 72 72 72
-112.916166487738280 -142.571892219321086 -19.800694621489896 71 71 71
-112.889086860143436 -141.896325268481945 -20.596615566954085 67 69 65
-112.873490126865718 -141.297820431149347 -20.942814356408121 68 70 65
-112.855187301545769 -140.683035009790245 -21.401334200169970 59 61 57
-112.853963625623763 -140.176959595435903 -21.185411121166112 57 59 54
-112.847180106810029 -139.634947199046678 -21.194235539194324 52 54 49
-112.851766579748144 -139.161792394625820 -20.753476266674426 45 47 44
-112.831083900405218 -138.534255295939886 -21.324124768784515 42 44 41
-112.824586216984201 -137.992764150310506 -21.332807078644663 40 42 39
-112.812561870599154 -137.418602461463848 -21.566187389277616 41 43 40
-112.811861340134442 -136.910013951639655 -21.350039907834287 40 42 39
-112.797223741565247 -136.321264510127634 -21.695679433341553 40 42 39
-112.796686868248301 -135.812002709944608 -21.479460589395586 39 41 38
-112.790629429648419 -135.271153035361777 -21.487925684658649 35 37 34
-112.804207005112943 -134.835443771511905 -20.709902998987502 32 34 31
-112.801082665438074 -134.307555938215103 -20.605972602114349 35 37 34
-112.798032302123929 -133.779186507767150 -20.502011772525208 35 37 34
-112.775563712785754 -133.150986193579854 -21.184380359586214 33 36 33
-112.772677189023071 -132.623556238474606 -21.080331479225578 30 33 29
-112.767081596290993 -132.081991790259565 -21.088582986532629 28 31 27
-112.769887795067433 -131.580608064854658 -20.759824850454550 27 30 27
-112.764430441048603 -131.038336829699830 -20.768017500148034 27 30 27
-112.750732856647033 -130.457628869497285 -21.113124551092767 28 30 27
-112.739889089179897 -129.891164206564184 -21.345860847463655 31 33 30
-112.751245994266299 -129.424118709983190 -20.680081967395523 34 36 33
-112.765401446988534 -128.965864929339318 -19.902014889261807 35 37 34
-112.765786928370517 -128.445143260959384 -19.685472756169759 35 37 34
-112.752439947366270 -127.866037930497995 -20.030395582977974 35 37 34
-112.750191905764979 -127.333392445074594 -19.926094941013503 34 36 33
-112.748001610241801 -126.800244517045186 -19.821771845417345 35 37 34
-112.748618057106711 -126.277243748651401 -19.605142679151356 33 35 32
-112.738294696977874 -125.711678599634169 -19.837620755286764 31 33 30
-112.741766621404253 -125.197772738636786 -19.508673034971906 30 32 29
-112.739796847139942 -124.662601853207903 -19.404265266078141 28 30 27
-112.737879703259480 -124.126922081043503 -19.299837557215994 27 29 24
-112.725061063760847 -123.553573033770149 -19.644448374944375 23 28 23
-112.728727469168277 -123.035995862202938 -19.315445406238780 21 26 21
-112.729700854903570 -122.508072110601915 -19.098696156379873 20 25 19
-112.722524017491196 -121.953670581048087 -19.218695149169434 19 26 20
-112.712674634983301 -121.391641767915289 -19.450910074753921 20 23 20
-112.711067053158416 -120.854517093831021 -19.346349145566734 20 22 19
-112.709505767354415 -120.316875594052362 -19.241771388468379 24 26 23
-112.705267033118417 -119.771331389872486 -19.249414744949235 26 28 25
-112.701077224697272 -119.225812501004739 -19.257034434904710 33 35 32
-112.707810740794969 -118.707680764692739 -18.815710994451166 46 48 45
-112.709141727909028 -118.174258585853835 -18.598847267392131 51 53 50
-112.726799749709272 -117.677550297633758 -17.708641518861214 56 58 55
-112.728195331577894 -117.140363466921542 -17.491785641345984 51 53 50
-112.732339228743456 -116.607861722104019 -17.162707868349969 45 47 44
-112.720263285120538 -116.040864380298927 -17.506898001621920 38 40 37
-112.721777567168203 -115.501560622970842 -17.290007128937020 35 40 34
-112.717917738075855 -114.951313772880795 -17.297517625192654 32 37 31
-112.714100824752194 -114.401084058959739 -17.305007414300462 28 33 27
-112.704923776626856 -113.842085492835395 -17.536869505566187 24 29 23
-112.706593414280505 -113.300672709095082 -17.319926020560246 23 28 22
-112.702901815249533 -112.750489448848199 -17.327355381568964 25 30 24
-112.699250928216372 -112.200320074657029 -17.334765123161333 30 32 28
-112.684864381079407 -111.636944881681288 -17.790882241557313 32 34 30
-112.689377160469220 -111.096987111821392 -17.461704745180953 32 34 30
-112.680466412680758 -110.541605042882182 -17.693402212856057 31 33 29
-112.674290201119632 -109.989810484899380 -17.812895674800160 26 28 23
-112.654720745323843 -109.427484975391650 -18.493199243854718 29 31 28
-112.645950998614055 -108.876212214946946 -18.724786957920344 37 39 36
-112.634541912064293 -108.324362670269693 -19.068502145168850 37 39 36
-112.641954154526701 -107.783961199375909 -18.627083237914292 36 38 35
-112.635988381660454 -107.235745140505443 -18.746439191419057 34 36 33
-112.638098929495087 -106.690651751111957 -18.529322662816838 35 37 34
-112.629530934719284 -106.142134688247296 -18.760785493669260 34 36 33
-112.623681212159966 -105.595024137918429 -18.880074549550187 33 35 32
-112.609848655926456 -105.048336933367210 -19.335754862748701 33 35 32
-112.612099362582100 -104.502447702999959 -19.118579474637869 34 36 33
-112.614379743119727 -103.955474216208771 -18.901401051439620 34 36 33
-112.624698179226456 -103.405093858732130 -18.347835663879266 35 37 34
-112.635037383243358 -102.851996606152809 -17.794288307388058 36 38 35
-112.645397566544943 -102.296181828484237 -17.240758887329861 32 34 31
-112.650448874385049 -101.740828240907845 -16.911482237674761 30 32 29
-112.642209356154737 -101.193151269588085 -17.142779278989451 30 32 29
-112.626024850179661 -100.652961748854253 -17.710376757879317 29 31 28
-112.612551064820437 -100.113084655892465 -18.165815336421616 26 31 25
-112.601783657522191 -99.572703669416526 -18.509105494884807 25 30 24
-112.604350587874151 -99.019205869205649 -18.291857145273184 26 31 25
-112.596321350626681 -98.477501567574890 -18.522992109196935 28 33 27
-112.593644349823577 -97.929895215777336 -18.529909564478004 28 33 27
-112.580387452428042 -97.397343845245558 -18.985168977220809 28 31 27
-112.583093994821525 -96.842742110606167 -18.767865201038717 30 32 29
-112.577877649163781 -96.299972985473417 -18.886806563110525 29 31 28
-112.583301698598589 -95.739418966676752 -18.557405125805161 33 35 32
-112.575510568959487 -95.201488776600954 -18.788387331039104 32 34 31
-112.578352980186978 -94.644140821020429 -18.571046823904254 29 31 28
-112.565349004928450 -94.118074609724474 -19.026118484561749 27 32 26
-112.568265075817123 -93.560165047226846 -18.808748519799650 25 30 24
-112.557993890616558 -93.030858722293402 -19.151687290257570 30 35 29
-112.563627062805679 -92.465900579896271 -18.822231143200042 29 34 28
-112.558724987037166 -91.925235594127869 -18.941000500670555 32 37 31
-112.559146692749508 -91.371590249950913 -18.835638822837922 13 17 13
-112.551687212007138 -90.838471899185635 -19.066412837697158 0 3 0
-112.560105094113652 -90.262628003954987 -18.624877662562312 0 3 0
-112.563280608818303 -89.699737552393998 -18.407434851561248 7 13 9
-112.555947389188873 -89.167119245180814 -18.638143316337306 26 32 30
-112.551296387547538 -88.627456694595395 -18.756782242237108 6 12 10
-112.551959808801058 -88.071545248658282 -18.651328254641896 7 15 17
-112.547397623589546 -87.532391475708877 -18.769919453962302 8 18 19
-112.516553954969027 -87.083081498056785 -20.008747666746217 8 20 20
-112.504198474191924 -86.575308881608805 -20.463320784705019 10 20 21
-112.489264655322216 -86.079167758992696 -21.029866526880795 9 19 20
-112.508577018795421 -85.459001851138964 -20.140140158262795 10 19 21
-112.509517822664165 -84.904600712937807 -20.034537925419016 13 23 25
-112.513133159354155 -84.339339727948939 -19.816909106179168 11 21 23
-112.498400346038537 -83.846914952532032 -20.383320433758200 13 23 25
-112.486351542901204 -83.346349090980027 -20.837672655436791 16 26 28
-112.482237241896655 -82.814608219344379 -20.955973283770646 13 23 25
-112.488676932632870 -82.237861849294831 -20.626252643153833 12 22 23
-112.500413670520629 -81.636148534730324 -20.072537140797749 10 20 21
-112.499076283373995 -81.091307461865767 -20.078785265092165 11 21 22
-112.489922546258484 -80.583025812981774 -20.420973034664030 14 24 25
-112.488695701257285 -80.038937331703679 -20.427160529171687 10 20 21
-112.498013427509449 -79.443849842792588 -19.985392955658909 10 18 20
-112.489031931928409 -78.937644247072072 -20.327476955612923 12 17 20
-112.480111540747245 -78.433035624057410 -20.669515284989160 13 18 21
-112.471253061886927 -77.930022804901199 -21.011507569312556 11 19 21
-112.480798379299216 -77.331792644131099 -20.569663466069102 11 19 21
-112.493020853860713 -76.717241222973783 -20.015847738033699 12 20 22
-112.494824253922516 -76.157424334748583 -19.909888589163586 11 20 17
-112.491452592326340 -75.626313760085083 -20.027827453386607 13 22 19
-112.498620742194205 -75.036024618682433 -19.697897722967014 10 19 16
-112.503234724440219 -74.459246643401428 -19.479909705282950 9 18 15
-112.507914919167689 -73.881330888732023 -19.261901723509453 12 21 18
-112.520516076891965 -73.255065222642330 -18.708025415354911 13 22 19
-112.514862350370109 -72.738088145298036 -18.937769413348661 13 21 23
-112.517132984040529 -72.173302435288619 -18.831637888100403 16 24 26
-112.511624450275946 -71.657579311475729 -19.061299518803139 16 26 27
-112.529744829634097 -70.991448530997246 -18.283475415745187 15 25 26
-112.532237444626915 -70.424039143538607 -18.177264702223226 13 25 25
-112.526956120034185 -69.908139583260976 -18.406819452986042 12 24 24
-112.532221797642322 -69.322689591941767 -18.188608931892105 12 24 24
-112.545419264395051 -68.682332699493500 -17.634592399614036 14 26 26
-112.563933915148937 -68.002802373340771 -16.856717606726761 14 26 26
-112.590386091062271 -67.263997055199738 -15.743079021519094 17 29 29
-112.656190328014958 -66.238634340862006 -12.950680950623791 20 33 33
-112.719475317379789 -65.218566134176228 -10.270292465032753 17 31 31
-112.782863194845604 -64.185324893023648 -7.589990354788199 23 35 35
-112.841122166672434 -63.178013342150564 -5.133592757933883 29 39 40
-112.868068167630298 -62.396531812061582 -4.020157216205831 32 39 42
-112.902977966693214 -61.549205035660549 -2.571012944198685 27 32 34
-112.927522036661713 -60.776181552364662 -1.569498300018722 15 23 20
-112.949558259420385 -60.018796140569712 -0.679881315742392 3 10 8
-112.955985300557728 -59.382458544878354 -0.461639013992453 0 3 1
-112.959901468249100 -58.766121194912856 -0.355250917836372 1 6 4
-112.953441635496731 -58.234996043772568 -0.696385072439142 2 6 4
-112.954957224226902 -57.640189922795585 -0.701782658193764 0 4 2
-112.943470400326760 -57.155334266466809 -1.266563202817622 0 2 2
-112.942587802471209 -56.583960941787872 -1.383725752191083 35 37 37
-112.926071734571778 -56.148370883000098 -2.172122924201943 183 185 185
-112.891281902183863 -55.876314656818764 -3.743591061058822 176 179 178
-112.873030610061178 -50.425169944729205 -5.693034831239686 126 131 125
-112.884333659492512 -49.762930356907994 -5.361867601131962 123 128 124
-112.853174769438297 -47.349927121109488 -7.507930975313968 116 120 119
-112.923702270796369 -46.081362371256994 -4.715776711642917 118 122 122
-113.076731725678059 -43.938181692630074 1.543468775211352 118 122 122
-113.131930787709777 -42.801495174160969 3.664494145412903 120 124 125
-113.049207501310960 -43.126505182027927 -0.030078102342259 123 127 128
-112.982463368368471 -43.297923861654134 -3.053433661032273 124 128 129
-113.070159712734210 -41.809867578377045 0.409828091190064 124 128 129
-113.144863057301293 -40.450242066669972 3.313901614692384 114 118 119
-113.158538968511806 -39.752623778430618 3.645839843005660 49 53 54
-113.172416801977292 -39.053130563668461 3.977855370673012 5 9 10
-113.167793450969072 -38.561513578875413 3.527147575124644 4 8 9
-113.152639197043797 -38.192830365108499 2.629231711097589 12 16 17
-113.142989967628111 -37.767285424345310 1.955081895446341 16 20 22
-113.149589218294139 -37.160052097729064 1.951988396665939 17 20 25
-113.134914935258195 -36.801115452442687 1.054402475392749 16 19 24
-113.131142742648805 -36.320963615592269 0.604219887632269 16 19 24
-113.141003537141046 -35.684660014155000 0.713246350216764 14 17 22
-113.164549926526561 -34.888056740827793 1.381464334039890 7 10 15
-113.172164831197506 -34.280903645444148 1.378857546514467 10 13 18
