ply
format ascii 1.0
element vertex 680
property double x
property double y
property double z
property uchar red
property uchar green
property uchar blue
end_header
161.208897743149578 -2.663453408050324 -5.936746592169868 154 152 140
158.711584183437367 -2.720371353882467 -8.178079892803140 149 147 135
156.618840450322608 -2.637102700680216 -10.060106598216493 144 142 130
155.578065302125395 -2.156320314260306 -11.008317773391497 146 144 132
154.456483685086482 -1.714319931959091 -12.028331093123683 146 144 132
152.282977957010132 -1.698322076067074 -13.981887969786243 146 144 132
149.866701352515463 -1.794261611982620 -16.150728518274150 147 145 133
148.340681258353356 -1.546129624867155 -17.529558696669341 145 143 131
146.248177775481537 -1.539281742692627 -19.410913699588718 146 144 131
143.103467178930146 -1.979249775155131 -22.225462629283697 144 142 129
139.473007392748571 -2.641734238491792 -25.470493647785673 143 141 126
137.380433485302035 -2.685554948223657 -27.351293402559719 142 140 125
136.097397468712160 -2.402148358005769 -28.514152775234436 143 141 126
136.028803797491094 -1.611309330758582 -28.600337186353073 143 141 126
133.855449529357998 -1.722082002346337 -30.552661608209888 141 139 124
130.710516247381975 -2.266683622081901 -33.366026959883811 139 137 122
128.213232906450173 -2.550648646308636 -35.605037607441488 142 141 123
126.525647980818633 -2.496396528320632 -37.126297791210675 143 142 124
125.971806338558750 -1.952604571303833 -37.642951566198349 142 141 123
124.527326939366191 -1.808795226973877 -38.948857803278912 141 140 122
122.273045443341346 -2.037729417111824 -40.972109505758453 139 138 120
120.666680518677438 -1.988975312346535 -42.421309580859173 142 136 120
119.708345193790748 -1.655920708683749 -43.296580163725395 144 137 121
117.616110276663619 -1.849145363252993 -45.176004200447949 144 138 122
115.604872622339514 -2.018912385235352 -46.983559626335989 143 140 123
113.674644564720253 -2.164395309594645 -48.719260849105581 143 140 123
112.068491221688689 -2.170846977736795 -50.167993883380461 145 141 125
110.138291557069223 -2.340950048428830 -51.903455261729448 145 144 126
107.559866643897223 -2.832125280657845 -54.212374025413482 145 143 128
106.358922650711619 -2.680946152910030 -55.302285972079858 146 144 129
104.833915663817479 -2.693971138953559 -56.678912597600686 144 142 127
103.714181257692985 -2.520314024140458 -57.697047424646257 145 143 130
102.675601841978050 -2.314351676391057 -58.643480169998696 146 143 128
102.285591176949680 -1.795875518840407 -59.016531764845894 146 143 128
100.923041235342168 -1.761983886891200 -60.249642450452569 145 142 127
99.236284464096101 -1.898937671882485 -61.769330642028109 143 140 125
97.063095126732023 -2.291555416473118 -63.718832793276306 142 139 124
95.052006766292692 -2.616671224677525 -65.524860557749918 144 141 124
93.932842535811190 -2.500926583614715 -66.542672032683726 145 142 125
92.327212177787231 -2.641961621947998 -67.990269926955335 144 141 124
91.694811645834164 -2.291375271687838 -68.578211520943057 141 138 121
89.927082252507205 -2.534643402362079 -70.168927225618660 142 139 122
87.915996215711431 -2.916922395995407 -71.974367692331441 142 139 122
86.067094876927484 -3.227262292841849 -73.636419498071888 138 135 118
85.191704008805033 -3.034268458234550 -74.439069823967486 141 138 121
83.910768463544585 -3.063163056373263 -75.599719381907988 142 139 122
83.197898747535902 -2.795758569515165 -76.259167446282305 139 136 119
82.566345389529872 -2.489044589125303 -76.847062725039791 138 135 118
81.123387623309085 -2.627187060875575 -78.150794634434988 139 136 119
79.112292444677422 -3.085477425135948 -79.955448304502141 140 137 120
77.669331194718893 -3.244667509099766 -81.258961893643260 140 137 120
77.119396773994652 -2.919126652478409 -81.775238301804478 141 138 121
76.488469992442205 -2.642161037929496 -82.363127117715692 140 137 120
75.289334248950908 -2.687590166170584 -83.451880337291271 136 133 115
73.115776162146645 -3.290218623878681 -85.399044334300754 136 133 114
72.079098751940677 -3.262620572382603 -86.344550999265238 136 133 114
73.641707672046167 -1.758774632453894 -85.001258778706671 137 134 115
73.011673084534507 -1.502462047949864 -85.589361825175359 135 132 113
70.188274686687109 -2.516566488674602 -88.108279995210779 133 130 113
69.883377244690024 -2.086902889821419 -88.410276387009674 138 135 118
70.147570119008805 -1.326530063151312 -88.211915597228455 135 132 115
69.030557737380420 -1.375692438925272 -89.229059038511167 141 138 121
66.288011567522332 -2.392990690681462 -91.675764876856562 144 141 124
64.601918856367504 -2.800685829543323 -93.192983875739429 143 140 121
62.021451213189778 -3.754382619925145 -95.496164437641681 142 139 120
61.961306548593427 -3.209816239362421 -95.583855816499664 138 135 116
61.657528207682418 -2.812669238508531 -95.886052872744074 139 136 117
61.679345137870911 -2.219222923172817 -95.902598658409630 139 136 117
60.806758999553608 -2.172348812910420 -96.705086673703278 141 138 119
59.608886504277805 -2.331199870681608 -97.793276717996122 143 140 121
58.248322315659806 -2.598560121263419 -99.024236444063547 144 141 122
58.189747267625862 -2.065090730232841 -99.112564495216986 141 138 119
214.083454362049565 -3.354472013453191 40.168481650588689 155 157 154
208.506275859997118 -3.002583358682745 35.183699502792678 167 167 162
202.432718961944829 -3.926375217758336 29.784360989053283 158 156 151
199.360119232068769 -3.901640651111388 27.041389935537524 165 163 158
197.666452140738244 -3.438299837308540 25.518828483536225 166 165 157
195.323903607879686 -3.204484458128859 23.422181230221042 168 165 157
192.089048809970905 -3.289399443858215 20.536243353173063 167 164 155
191.206728038602677 -2.588962180335797 19.731684899105090 164 161 151
187.403988501900130 -2.905928700399508 16.343797563122365 165 162 153
183.357779960185098 -3.333464227330539 12.740946452167179 163 160 151
180.041653899026898 -3.530278032826800 9.784181414727698 160 157 148
178.185896975899226 -3.228732963563841 8.119110857697592 159 156 146
176.330190227395491 -2.939536046437320 6.454143403032475 161 157 145
174.799096330471571 -2.544825218956879 5.076231704848226 158 154 142
173.268077505923230 -2.160271921810683 3.698388648859293 159 155 144
171.331400203928695 -1.935929296058994 1.961965922321042 157 153 144
167.609466387688371 -2.390732053322057 -1.352300890799029 156 152 143
164.536660024491766 -2.625981661080828 -4.092496943930541 156 154 142
162.194212967060338 -2.604286310457244 -6.187009284728390 155 153 141
160.419893346192111 -2.380471688591077 -7.779380164551810 149 147 135
158.320974229469130 -2.293955679548981 -9.658486014279475 146 144 132
156.871416431128182 -1.968192915626734 -10.963835700568183 143 141 129
155.584281502765862 -1.588167910878268 -12.125728709778571 144 142 130
153.566676431230519 -1.506433176300392 -13.932826819022324 146 144 132
150.980857838549468 -1.665433679605979 -16.241627713127684 147 145 133
148.882105974396239 -1.645200537331535 -18.120131293066095 144 142 130
146.783374783193409 -1.638932207476751 -19.998501016043576 143 141 128
143.710391168505851 -2.046182125831950 -22.736841787066879 144 142 129
140.556136506963924 -2.507549263249725 -25.546604597047434 142 140 125
138.863343454924291 -2.380806807978694 -27.066119410452615 141 139 124
137.414208234209127 -2.162926030935120 -28.370560772942866 142 140 125
135.477917100737727 -2.160979801393676 -30.104879003350447 142 140 125
133.785282195579441 -2.067891804016265 -31.624123051439938 141 139 124
132.498769601975994 -1.811300857952086 -32.785043214691797 140 138 123
128.044822236370635 -2.936695360946977 -36.739944481497076 141 140 122
126.027313615902088 -3.027198340778384 -38.545315803281397 142 141 123
124.822091694049448 -2.773429488475608 -39.634237211108456 142 141 123
125.485316794990368 -1.698557951529731 -39.075714939388291 141 140 122
124.199167383200503 -1.490590424564412 -40.236308342295814 138 137 119
121.450752964317957 -1.949784374809349 -42.685951678365598 140 135 119
119.595970655978661 -2.021774123095580 -44.347643506244964 142 135 119
117.497452561704321 -2.217513075744663 -46.224035811624077 143 136 120
115.073893295614653 -2.576907422571485 -48.386680487050768 143 140 123
114.031737341990265 -2.311602825827963 -49.332013068506569 142 139 122
112.502094049273595 -2.280934345353065 -50.706871460014327 146 141 125
110.972505169697300 -2.260366280010262 -52.081651913934991 146 145 127
108.548904907637365 -2.673702116331392 -54.243721730180795 144 142 127
106.612938242399821 -2.870397465944039 -55.976150467516078 145 143 128
105.083412988646856 -2.884554762159033 -57.350603914221495 144 142 127
103.716525948548963 -2.830095371830888 -58.581851461046057 144 142 129
103.081421807114523 -2.427907981547703 -59.169030812952201 145 142 127
102.283878231102946 -2.109543128988599 -59.899354638503780 145 142 127
100.673350762095652 -2.198182113266693 -61.345149110572720 145 142 127
98.412293666451788 -2.621214997867207 -63.363161434050397 143 140 125
97.289729817794097 -2.488902915672826 -64.379517080295926 143 140 125
95.923269245939196 -2.486978690681344 -65.610427877217916 145 142 125
93.906156424866495 -2.824454857450178 -67.413446328994695 144 141 124
92.946493457007080 -2.634820732076216 -68.286605472982274 143 140 123
92.149661118582813 -2.367665032687255 -69.016742430618791 140 137 120
90.702105175855124 -2.442692176500861 -70.318924265911221 141 138 121
88.929124256803235 -2.696926187231789 -71.907014781368531 143 140 123
87.237499157733509 -2.920236543415325 -73.423485070031376 140 137 120
85.952771967907708 -2.939884291325425 -74.582415900683145 140 137 120
84.749496512777213 -2.924699004349634 -75.669812631026161 139 136 119
84.034673282866947 -2.656162699126088 -76.328337791421035 137 134 117
82.994402936999009 -2.567388480160804 -77.272755325304445 137 134 117
82.035649807353764 -2.441255428945495 -78.145696084318502 137 136 118
80.914179188251950 -2.410049552236496 -79.161533990871874 138 137 119
78.734242065302212 -2.966686996835664 -81.106119687456641 138 137 119
78.508631416421835 -2.459396705797107 -81.335986774928728 138 137 119
76.491524194411497 -2.948053843018943 -83.137451723602027 138 137 119
75.614647349474055 -2.813173092741675 -83.938792976112325 137 134 115
73.678912210929056 -3.279081731124147 -85.668561327401250 137 134 115
73.942763239268785 -2.514146013715628 -85.470083967801912 138 135 116
72.984816422162453 -2.442124772696453 -86.342853463924968 135 132 113
73.412273778077520 -1.583531217954897 -86.001891107970522 136 133 114
70.498789401676646 -2.644948289970896 -88.588084326893636 136 133 114
70.926724639275221 -1.791015674277163 -88.247302610511440 138 135 118
71.355095018307154 -0.933591238206374 -87.906765007360718 133 130 113
70.234926354138679 -0.980193034577715 -88.922424851225173 143 140 123
65.771891984489670 -3.004089733068556 -92.863730191976714 143 140 123
63.836012646791275 -3.560245039997322 -94.592500604589532 143 140 123
62.715549143591190 -3.643197510954718 -95.607645222717366 140 137 118
62.818632408466357 -2.999880637446772 -95.552723002126982 141 138 119
63.656275765017611 -1.912581769226453 -94.856051976957872 142 139 120
62.699581790371482 -1.907305712765690 -95.728733786904940 142 139 120
60.355833532062377 -2.754112483052675 -97.813683709034564 141 138 119
58.419858550160953 -3.366554685547140 -99.541828976496276 142 139 120
58.116112449639630 -2.985314852856173 -99.843877715959621 142 139 120
58.873851499670721 -1.947522520552091 -99.219330033716659 143 140 121
219.373422165994725 -2.002136095069485 43.499379813495295 151 153 150
212.224326799107700 -3.188751502861326 37.176115087461170 167 169 166
205.979681673084713 -3.085633945716070 31.626336331204499 156 155 150
200.782641973896432 -3.747035623751774 27.024421814156341 166 165 159
198.758575505936847 -3.389870782537641 25.217579674362355 165 165 157
194.700420531425380 -3.728161380515854 21.619525053021420 167 164 155
194.140990012483201 -2.908765984864260 21.102708052836391 167 165 153
192.198398152568586 -2.566034587540459 19.367896195434440 163 161 149
189.523491557674049 -2.489089838025982 16.988427108283446 164 162 150
183.919029849799472 -3.451329824307447 12.030224138897609 165 163 151
180.592972524079784 -3.648986766642867 9.078218863213891 161 159 147
178.650357915634970 -3.377223101264983 7.344148395146846 157 155 143
176.707787209260914 -3.118352539360874 5.610189639670608 159 157 145
174.683871902712156 -2.901836581078431 3.804722954383777 159 157 145
171.683294773146798 -3.055600882723274 1.139992799194061 158 156 144
170.717548069687041 -2.479096861746327 0.265761847282192 155 153 141
168.693747215672943 -2.302606084539862 -1.539347592409115 155 153 141
166.262975566919380 -2.292330391921708 -3.702347088113754 157 155 143
163.913610495677773 -2.267386134684032 -5.793583317445695 157 155 143
162.296926636848411 -1.978116905005516 -7.240322592817108 148 146 134
158.889253203639612 -2.389852163636010 -10.261938271701808 147 145 133
158.249612238996178 -1.748156014596350 -10.849412606908402 145 143 131
155.656071234917903 -1.876786875409888 -13.154831735858124 143 141 129
153.958158939969309 -1.668476701759696 -14.672737138504345 145 143 131
151.201762970411124 -1.893549520957017 -17.120972054503625 147 144 132
149.178199226318497 -1.842244024695713 -18.924906331784257 144 141 129
146.421754836660625 -2.101552094571578 -21.372765683140187 141 138 126
144.723960660050921 -1.946362957284989 -22.890180791681900 145 142 128
142.293242529007330 -2.104529385609629 -25.051472030706577 143 141 126
140.432629992728209 -2.041940015810727 -26.711759987993105 143 140 125
138.979307503120395 -1.821068647912249 -28.014228959051820 143 141 126
136.548605727990775 -2.022497148500675 -30.175082704446879 141 139 124
134.688092397746317 -1.997402492340961 -31.835032169637088 140 138 123
132.746148539543640 -2.019565182405811 -33.566397990688358 140 138 123
130.152481980613828 -2.336342957660150 -35.869820363920212 140 139 121
126.906980458979831 -2.954338986391956 -38.745177613859369 140 139 121
126.187148035435854 -2.485152928303614 -39.403371781893981 142 141 123
127.260082260782397 -1.227583338739203 -38.488439129156973 140 139 121
124.503497379446074 -1.669546592183554 -40.934351108213036 138 137 119
121.746828609030118 -2.129881525227281 -43.380033846093596 142 136 120
120.538514950387409 -1.908028363466792 -44.467147653402094 143 136 120
118.352276014286105 -2.139843568107513 -46.412062142668589 143 137 121
115.513953603975295 -2.685566885902445 -48.928661998489531 139 136 119
113.735183524105452 -2.760130153774212 -50.515832440470234 142 139 122
113.586797424587516 -2.086927972983849 -50.673492417161356 145 142 125
112.215797094852448 -1.988218519659044 -51.903227668450427 146 145 127
110.437226177231523 -2.091147790375106 -53.490201403451209 144 142 127
107.598719147577910 -2.710315682940386 -56.005956936107879 143 141 126
105.004698533719136 -3.231193509351638 -58.307109026317704 144 142 127
103.796863298820270 -3.100250330220935 -59.393515927784904 144 142 129
102.670672293821937 -2.937551836083657 -60.408449137472871 145 142 127
101.544584593130693 -2.782178388408400 -61.423356367204235 145 142 127
100.173905103635391 -2.754705269527644 -62.652511835987781 145 142 127
98.721719075400756 -2.776689127903737 -63.953024655427981 144 141 126
97.922205213259829 -2.482226518869044 -64.682159865048732 144 141 126
96.633339335235817 -2.439014177074116 -65.839757811934220 144 141 124
94.120683926500490 -3.023803652171774 -68.068317977751690 143 140 123
92.750266257627842 -3.043204146225163 -69.297116206978444 141 138 121
92.848788111537203 -2.318065341932931 -69.240854057254609 138 135 118
91.641831171194042 -2.266129145312968 -70.326867873266025 142 139 122
90.598195426790895 -2.137214686688062 -71.270088595677350 144 141 124
87.758898169403992 -2.954443524470650 -73.783427345288686 141 138 121
86.225521941905427 -3.103043174065614 -75.154654616672843 139 136 119
84.937086322595249 -3.131965964852023 -76.311715874695011 138 135 118
83.812008677597120 -3.082232392060845 -77.326018907306718 137 134 117
83.585241398137626 -2.557782010576737 -77.555509304105726 137 134 117
82.787087134287717 -2.343161794036587 -78.284473083033305 137 136 118
82.642465441889158 -1.778541609429710 -78.442816250153442 138 137 119
81.517962662438634 -1.750415687922722 -79.457171878063207 136 135 117
78.678083404171105 -2.673390828595242 -81.969143700630156 136 135 117
76.409818056816874 -3.298902942308366 -83.981623400775305 137 136 118
75.612102130325297 -3.120474687574488 -84.710424336748503 138 135 116
74.896251344074301 -2.901295189640877 -85.367949863299970 139 136 117
74.670910500609608 -2.410157177670072 -85.597779761235415 139 136 117
72.484264953142755 -3.032583777923021 -87.538478969697053 135 132 113
71.850553513426362 -2.783553999856852 -88.124748057088993 134 131 112
70.481269274633902 -2.960694893573434 -89.352464814205319 134 131 112
71.074258424134669 -2.013940975762122 -88.869882009970837 135 132 115
71.258874245570382 -1.299991466325601 -88.743832857252755 133 130 113
68.908693928812710 -2.065144181152683 -90.826546210880082 143 140 123
65.985757915213469 -3.182496248537238 -93.407642031958375 142 139 122
63.226046320190605 -4.222976713966000 -95.845897363571993 141 138 122
63.329357778266882 -3.580251016140348 -95.791078224558561 140 137 118
64.087611903331506 -2.544969495548770 -95.166751107399875 142 139 120
63.782603481102086 -2.143392031055184 -95.468405301945808 144 141 122
62.168392138799646 -2.535101855966781 -96.909317761245262 145 142 123
60.144841934468801 -3.186375960676774 -98.706026511123014 142 139 120
58.366697730935059 -3.701074508926280 -100.288965836651613 141 138 119
57.898443374440021 -3.422162437070538 -100.732978849137879 141 138 119
216.948375126463645 -2.002984615742883 40.003449572431037 164 166 163
210.593622479346834 -2.962657256746773 34.406426825337718 170 171 166
204.728264713293925 -3.805919112172886 29.239234279475795 160 159 154
202.861450692791180 -3.378336703926367 27.578156034283495 168 167 161
199.688930855639455 -3.395211834119348 24.772555842182896 165 165 157
196.434762998876579 -3.460453496785862 21.895654758893812 167 164 155
194.404783431101663 -3.134054448598575 20.091958113546127 167 165 153
193.109408749663146 -2.570681676061905 18.932119683284043 163 161 149
190.344946467540552 -2.521593070519986 16.484921582294845 163 161 149
186.029614827358813 -3.029896573458068 12.679072769759244 163 161 149
182.938562482339279 -3.137278402902148 9.946289324512406 161 159 147
180.418881148250534 -3.062783670630873 7.714303993758762 159 157 145
178.144100814695719 -2.917434800580492 5.697006181327282 158 156 144
174.154974835962093 -3.405882575577286 2.178332853193865 158 156 144
172.288362228065409 -3.147739446261820 0.518902376518184 157 155 143
171.074941735186115 -2.661858655914327 -0.568486107813385 155 153 141
169.453392108856292 -2.335355204444101 -2.013280887240853 155 153 141
168.158510430954777 -1.897318502078386 -3.172065021571456 157 155 143
165.393970261212019 -2.022726470036246 -5.617429680499555 156 154 142
162.466088424180953 -2.228691797525456 -8.205540798156022 152 150 138
160.028122587153803 -2.265836715288527 -10.364610494685365 148 146 134
157.018505304416522 -2.540701894840452 -13.023769319412509 149 147 135
155.805516220658546 -2.133204746834483 -14.110557346181849 143 141 129
153.939260879739777 -1.991243000788847 -15.768962824812661 144 142 130
151.582998177445916 -2.056444031561918 -17.855971340357684 146 142 130
149.063373254425301 -2.202750992229311 -20.085710835226280 144 140 128
147.687289975516933 -1.903459816414861 -21.315079109486931 140 136 124
145.902859823920039 -1.779676244406804 -22.901583476218235 146 140 126
143.138181713938110 -2.070508980347729 -25.345179344769576 144 141 126
141.435491592013136 -1.939709288583417 -26.860001197039338 145 142 127
139.406055939578039 -1.956606096727325 -28.660424332914999 143 140 125
138.275384524775689 -1.608574336132069 -29.675121858325440 140 137 122
135.919197443207025 -1.787952044839709 -31.760991272662750 143 140 125
134.543547397024724 -1.563606087410350 -32.989795355192456 140 137 122
131.942217163683068 -1.876566047794735 -35.289590751540942 138 135 118
129.504277568010139 -2.135800507733296 -37.446386922618416 141 138 123
128.619116606342260 -1.731564761039577 -38.246537688370864 145 142 127
127.080240731011884 -1.621395085144269 -39.617797589745379 142 139 124
124.315372926880300 -2.066151130419172 -42.059718299318291 139 135 123
122.531322390793704 -2.090116621589287 -43.644883417478525 140 138 123
121.401279815261006 -1.830856606906510 -44.658968005264256 139 137 122
119.699081786411440 -1.838982049752068 -46.172595246974026 142 140 125
115.625946021312970 -2.943642704025413 -49.755594477467241 140 138 123
114.087190947789750 -2.906787228751975 -51.126157510115291 141 139 124
114.183862816188665 -2.120476065574693 -51.069640011484807 146 143 128
113.708390651032403 -1.600984551558387 -51.512676454103001 147 143 130
111.188619364982230 -2.047677115520247 -53.739253909484432 146 143 128
108.259832019121617 -2.705151384736107 -56.322284226464859 144 142 127
106.475977088147332 -2.834948883733809 -57.906453539418322 143 141 126
104.773929800479195 -2.937145851672408 -59.419184569727321 145 142 127
102.662882838494170 -3.248750528920146 -61.288390443629766 145 142 127
101.778941372605658 -2.975578181743729 -62.087775510571106 145 142 127
100.813324032713552 -2.748256918159810 -62.958474036034119 145 142 127
99.356898009058526 -2.769982030025047 -64.256961119606501 145 142 127
98.718815682747390 -2.393735625553021 -64.842448694477440 145 142 127
97.589898526807985 -2.267641449465453 -65.855700936265521 142 139 122
96.215554505798082 -2.272782366213542 -67.082767593080803 143 140 123
92.713176955639099 -3.368160453681592 -70.162898952885627 143 140 123
92.975903329218042 -2.561199678078571 -69.964316147339304 139 136 119
92.174737848292935 -2.299941969733024 -70.692319433471511 134 131 114
91.046243200232595 -2.213450898435482 -71.705366146928242 141 138 121
88.525910096476039 -2.860223915223422 -73.929615302032005 140 137 120
86.087303787703817 -3.480825028319869 -76.082372791352100 140 137 120
84.467483368153552 -3.685053157665950 -77.522531730597677 138 135 118
84.321887009394416 -3.116162210613382 -77.680452581775143 136 133 116
83.930840692733085 -2.679316058298857 -78.052168465779715 136 133 116
83.130440851112482 -2.465240277085520 -78.780052363852718 138 135 118
82.739823746250323 -2.034283916627085 -79.151912954724452 139 136 119
80.710765683626548 -2.498896532285113 -80.947908164551734 137 134 117
78.681610072030367 -2.976990003172469 -82.743717942069907 138 135 118
76.734301990943337 -3.423341628496259 -84.468151147475453 138 135 118
76.426097127099766 -2.972385904729238 -84.768784450537879 138 135 116
75.462400811386999 -2.889433460370547 -85.638915926602607 138 135 116
74.088932133553442 -3.043025310321465 -86.864873264562249 137 134 115
74.027277292031798 -2.463851535797664 -86.952198411246997 134 131 112
71.588051317073038 -3.237242020590247 -89.103086716629832 135 132 113
70.378684448705968 -3.323096676181025 -90.186529280873145 135 132 113
71.055725164602791 -2.330987275678905 -89.633764439745391 135 132 113
72.635546072922793 -0.811243181605365 -88.298870023037978 135 132 115
69.786198135704538 -1.860024412354510 -90.805017076766120 138 135 118
65.951956462443803 -3.504781166034106 -94.164166286700492 141 138 122
64.496718820228864 -3.773547066226747 -95.460678972943498 140 137 121
64.436584745064522 -3.225129344338909 -95.548415061540481 139 136 117
64.869248776919790 -2.383068008306747 -95.209773387076581 142 139 120
63.414370144721602 -2.669125560750153 -96.506279830817789 145 142 123
62.616254067111328 -2.568831066297438 -97.234085065821802 146 143 124
60.586639685340671 -3.220184483451018 -99.027891917595781 143 140 121
59.131680574703054 -3.534686154130494 -100.324067071129321 141 138 119
58.990804835524216 -3.053150277139467 -100.483347060913474 141 138 119
220.212084261697839 -2.374193514323157 41.549972126639403 147 149 146
215.147925725704624 -2.890216023227766 37.104709025618092 174 176 173
213.193886871874440 -2.444783384264527 35.374316215395396 171 171 167
208.948044225438508 -2.753114114497026 31.644024571153551 161 160 156
203.965407451423687 -3.330209347855771 27.271249275788563 165 164 159
200.537904445701542 -3.427305832524534 24.255881261462889 164 164 156
196.455466257559607 -3.765346378647771 20.669441072377538 166 163 156
195.074405951189362 -3.221316624376243 19.439934573860711 166 164 152
193.365968565455290 -2.797658443493146 17.924847653349246 164 162 150
191.084513215992075 -2.581932712134082 15.910018721260514 162 160 148
186.920026777985953 -3.033779216915606 12.253142710655510 159 157 145
183.656046277752807 -3.198198563361883 9.381956848089487 159 157 145
181.374548479608734 -3.037263068631513 7.367712206734097 161 159 147
179.584357428467968 -2.716269883172831 5.781933856976991 157 155 144
176.484071440856752 -2.878464609460964 3.054131971378496 157 155 143
174.939605567611181 -2.496224357938886 1.682745746734355 156 154 142
172.658195970932724 -2.394213658905570 -0.330934547376501 154 152 140
170.622485819484325 -2.216424942032026 -2.130359980341979 154 152 140
168.832505225781119 -1.960394798832038 -3.715570314987275 155 153 141
165.404549503412511 -2.332740808397706 -6.727888469587782 154 152 140
163.286988258732578 -2.230162371481478 -8.598241327839901 152 150 138
159.285549316676509 -2.863230212532697 -12.109535529534355 151 149 137
157.086038820841054 -2.826541982842936 -14.050864790849261 147 145 133
156.033370674498087 -2.357420250191767 -14.993266367510046 148 146 134
154.735062203403800 -1.991739194440184 -16.149666342704364 145 143 131
152.699534542543802 -1.926801906610054 -17.948017442090986 144 140 128
149.926680259813480 -2.170009709610271 -20.388192084984553 142 138 126
148.792422096791313 -1.771132866982669 -21.401697096312660 139 135 123
147.412469310922177 -1.479523177483273 -22.629135142309337 144 138 124
143.246626751901488 -2.338346472213178 -26.281173172722816 144 141 126
141.456983708637040 -2.243342218338975 -27.864887469969631 145 142 127
140.077131033732769 -1.989502491770497 -29.091984623506278 143 140 125
138.369551025267299 -1.882259855251512 -30.604224686212575 140 137 122
137.153771802840026 -1.578209325627012 -31.688613092196107 143 140 125
134.954543825990527 -1.701412695868703 -33.628431665064795 140 137 122
133.329082133030596 -1.592584848121757 -35.069114280885884 138 135 118
131.047899222289544 -1.778381861878343 -37.079940471402267 141 138 123
129.668444518962588 -1.585759126074016 -38.306597875938650 145 142 127
127.469252654058295 -1.762607674661961 -40.245881527868391 143 140 125
125.188056982193316 -1.990293330931917 -42.256270432666355 140 136 124
122.742846651269090 -2.306243517287789 -44.409004505458029 140 138 123
122.019531449644660 -1.864006148167819 -45.065255128003486 139 137 122
120.148340472321379 -1.946455504611443 -46.718989438883966 142 140 125
117.457081269556141 -2.415481879455466 -49.085015539426308 142 140 125
115.257807556162874 -2.676127928123624 -51.023397465554865 138 136 121
114.862926039993795 -2.115746216578344 -51.394550216831050 144 141 128
113.648004699317426 -1.940280985645479 -52.478025437428585 147 143 131
110.874593370632113 -2.504829712957105 -54.914625867884894 146 143 128
108.839387301888536 -2.738492830850608 -56.710057171857642 145 142 127
108.280928588851467 -2.282006251377926 -57.223603477901918 143 140 124
105.671436790539616 -2.813081249863312 -59.517249241885423 144 141 124
104.046490615490541 -2.885760225389575 -60.956310138794890 145 142 127
102.175388512595276 -3.088852697970004 -62.608845126696764 144 141 126
102.109770570565715 -2.419913181933854 -62.695198343554694 143 140 125
100.813307029639319 -2.358201616734730 -63.849352016349997 142 139 124
99.352757870158626 -2.386424876796769 -65.145799717172565 141 138 123
97.974345334648774 -2.383154334917493 -66.371006593965973 141 138 121
97.416942677997866 -1.975752742537452 -66.884552857335279 140 137 120
95.217700158521311 -2.403556888116342 -68.821229064262099 145 142 125
92.854154941207895 -2.929658271745081 -70.900009370715793 140 137 120
92.707632830336308 -2.333435805957054 -71.057768682308307 134 131 114
91.658023172960455 -2.204517886973524 -71.998131540849528 140 137 120
89.540819058295426 -2.637538943599053 -73.863142054227552 140 137 120
86.355721837716899 -3.643412333572484 -76.652545013290364 140 137 120
84.895410698202326 -3.761973694593823 -77.948176686593712 138 135 118
84.420981499329741 -3.367507021772870 -78.390425137209462 136 133 116
84.768395806880719 -2.537569165971564 -78.121734378698108 138 135 118
83.637117700209075 -2.498788201230636 -79.132958391001836 137 134 117
81.601958454809079 -2.955595148552936 -80.926115163567488 138 135 118
79.402326323919993 -3.515227188662985 -82.861248010986998 139 136 119
78.846480398353336 -3.190408346871330 -83.374688943433114 140 137 120
77.879814526760896 -3.095115476591471 -84.243526820347114 138 135 118
77.570976981244101 -2.641849181072953 -84.543881234541487 137 134 118
76.029057922002977 -2.877221916490251 -85.910128445538987 136 133 116
76.460697477537238 -2.016733359950226 -85.571186345752466 133 130 113
72.862941720010326 -3.424681095596056 -88.713330546591862 132 129 112
71.649972351694430 -3.504098554895411 -89.795115948503138 132 129 110
71.012881192296447 -3.262849534918627 -90.379688098332394 134 131 113
70.951872055057095 -2.694973895833858 -90.467205850348762 135 132 115
72.043117826233541 -1.461998097829907 -89.560780222118666 136 133 116
69.185039403592569 -2.514604597559564 -92.062711266130890 135 132 115
67.231910550960862 -3.057685581773497 -93.783364150497675 138 135 119
66.430998059415998 -2.936789437417448 -94.510043653792508 139 136 119
66.535776105372818 -2.285857296045168 -94.456010598440059 140 138 117
65.323618497589123 -2.416448106744512 -95.537657590794282 142 139 119
63.864471464850098 -2.702527489130153 -96.832121821641067 145 142 122
62.322941484428853 -3.047678811927303 -98.197425160464377 145 143 123
62.511046948744394 -2.357494320870267 -98.072800815665829 143 140 120
61.546287978080642 -2.366418740599700 -98.941478186527434 142 139 120
60.911189397955667 -2.180034731527620 -99.526438826331855 141 138 119
219.395598063560470 -2.944404985971929 39.507550330024714 144 146 143
218.174698589302523 -2.248263916889841 38.421575450074158 161 163 160
215.476156930953493 -2.031452855028227 36.051973582049754 164 164 162
208.754746968566224 -3.128884683842439 30.188340922628214 162 161 157
205.317151064146486 -3.201640930474456 27.177550770146269 163 162 158
200.647926917066798 -3.702171577029731 23.097487370271324 163 162 157
198.441796326834435 -3.415326438103047 21.156750148689326 165 162 155
196.564137797465378 -3.032822001227916 19.501323889571296 165 163 151
195.014986882764674 -2.551380262623245 18.131157841959151 164 162 150
192.973212506681534 -2.248673804879486 16.333347672212426 163 161 149
189.535441716055630 -2.441666363469112 13.323878837452583 160 158 146
184.619391591739856 -3.172928582769584 9.031694520265148 158 156 144
181.838439132858753 -3.184969285267992 6.593014497990026 159 157 145
179.960889961279065 -2.894295911539549 4.938481185745388 157 154 145
179.068983985919232 -2.262425915609213 4.139214057742208 155 152 143
175.795262145620086 -2.498639367126068 1.273427431662924 155 153 141
174.410683875336701 -2.066295357454269 0.046753552498814 154 152 139
172.204767092086684 -1.945819874806242 -1.892373427161687 154 152 139
169.259552860137660 -2.114863301154609 -4.472572842176277 153 151 139
165.903543320194331 -2.457498066804192 -7.408756751677032 153 151 139
164.354833963557894 -2.138050252198057 -8.777466554315112 151 149 137
161.080891977172570 -2.487653406080690 -11.641980686092779 150 148 136
158.546319163277730 -2.574037939094232 -13.865185972854533 147 145 133
156.833381275382408 -2.357881867794640 -15.375983945104394 146 144 132
154.545317925300395 -2.378345917226080 -17.385220412282166 145 143 131
152.750296157639241 -2.219033467355713 -18.967023502781359 141 137 125
151.941451339037030 -1.678520316537537 -19.694227536646707 140 136 124
150.721847748464427 -1.308301042285009 -20.777467486147145 139 135 123
147.694267062748224 -1.678531116898326 -23.427051041690504 143 137 123
145.159745503831118 -1.867336988184165 -25.649226574370971 144 141 126
142.132025021492211 -2.275928568781462 -28.298348377436952 144 141 126
139.844004837847933 -2.397441872152109 -30.306565344556986 145 142 127
138.542413147662501 -2.121269468686502 -31.460473281468751 141 138 123
137.487541637810239 -1.749547621241552 -32.400818190631327 140 137 122
135.857305578933676 -1.629256962314511 -33.839334758636994 139 136 120
133.733822739851320 -1.730953277351630 -35.704752043783770 138 135 118
131.692561192257131 -1.811115238672184 -37.498866491947751 142 139 124
129.157941708208739 -2.119323055812907 -39.719766113370014 144 141 126
127.281124802346241 -2.155867715126109 -41.371281519429488 144 141 126
124.910903912622118 -2.422665849554526 -43.449537345690885 140 136 124
122.458396740964858 -2.741685811536199 -45.598749036144767 140 138 123
121.650794095084393 -2.339366906312739 -46.325124818389611 139 137 122
120.103064184905122 -2.276547674796548 -47.691661577930631 142 140 125
117.897318481168085 -2.523256375191207 -49.627090790190181 141 139 124
116.185126446416234 -2.558259850634602 -51.135660264640961 137 135 120
115.213398367685926 -2.262636281855938 -52.004138503529134 145 141 128
112.925384084116033 -2.585370305860359 -54.010287027262422 147 143 131
111.871545974848772 -2.345157769987379 -54.949772620313979 146 143 128
110.324099627888728 -2.344592727264530 -56.315804221888101 144 141 126
108.858994871737991 -2.315034848215501 -57.610667311170573 143 140 124
106.077140293630933 -2.924893798697901 -60.042762119155583 144 141 124
104.200514585090517 -3.117084638798970 -61.692766849029766 145 142 127
102.900070609909406 -3.042137866529091 -62.845152532356565 143 140 125
103.081461088490272 -2.252010503910856 -62.718344523583511 142 139 124
101.781290778921559 -2.188917445449609 -63.870739111370227 143 140 125
99.493197970222624 -2.623335845547981 -65.875700445562416 143 140 125
97.781396932222151 -2.785612920735593 -67.383146880419901 140 137 120
97.222460399018388 -2.380698754213912 -67.895933738180076 139 136 119
95.510762595041498 -2.561496738962730 -69.403238914814352 142 139 122
93.387255065525508 -2.962871397884433 -71.265559648403297 140 137 120
92.169728403031201 -2.914582881471560 -72.346479398162728 141 138 121
91.693672324983197 -2.492273481233958 -72.788236154537771 140 137 120
89.899686761397405 -2.756173312550129 -74.366178624900954 140 137 120
87.776104567914658 -3.203819018477614 -76.227987348372693 140 137 120
86.641225160166442 -3.146229243378000 -77.237682119119341 138 135 118
85.836068743930596 -2.921730739208642 -77.963397774523884 136 133 116
85.525564640850092 -2.439287021824220 -78.263255251152998 138 135 118
84.143798832958410 -2.532001787300451 -79.485869908945517 137 134 119
80.948548615963716 -3.610391282277929 -82.269669264626714 138 135 119
79.731552480546540 -3.637905821203543 -83.350062537792553 139 136 120
79.668925447061753 -3.043862405870006 -83.437075651857242 139 136 120
78.617102027608055 -2.992668559094287 -84.375579401288121 138 135 119
76.740697636009031 -3.403429456522431 -86.023440157028261 138 135 120
76.101369005835522 -3.139487362530708 -86.607175499718750 133 130 114
74.802337321558653 -3.248148759062556 -87.758346847054924 135 132 115
73.668337571461038 -3.272490138063458 -88.767619084478554 135 132 115
72.286896038365441 -3.444085657889169 -89.989576914991204 135 132 113
71.730625716462242 -3.155289082709669 -90.502444022398379 136 133 115
70.596887568024329 -3.200363488541834 -91.511627993698767 136 133 116
70.701256074675712 -2.540124524014801 -91.457494815952487 138 135 118
69.815450508116399 -2.452130883035552 -92.254081966073926 134 131 114
67.443760899858901 -3.235085257284732 -94.326322106952233 134 131 114
68.044236364032059 -2.292860664122329 -93.847274107382077 139 136 117
68.810385231493470 -1.248632296017073 -93.226815902321050 140 138 117
67.594970854997129 -1.372928558048412 -94.306969660637975 142 140 119
63.984199325708531 -2.932439348192416 -97.441327046222227 144 142 121
62.685931373149614 -3.130248889076847 -98.591946113560425 144 142 121
62.627018337523708 -2.589592055162397 -98.680186456568578 143 141 120
63.560079827734882 -1.447780640606317 -97.918865379580097 144 141 122
61.518514844353248 -2.112130541883372 -99.706821325166686 141 138 119
220.133175232209709 -3.027167777387138 38.822971204972930 138 140 137
217.591332970021540 -2.746204716826669 36.599462304036933 158 160 157
212.990896239268466 -3.136557114133812 32.596216004826971 163 163 161
209.213800310241993 -3.292707313280035 29.305264376573092 158 157 153
205.107228624521383 -3.580681672696425 25.729854213595814 159 158 154
202.565256732422085 -3.382706570595970 23.507261563910930 162 161 156
200.517424982056923 -3.037801872220544 21.711914853568402 164 161 155
202.258133158037083 -1.439130395198771 23.190746683541107 164 161 151
195.351183153010169 -2.749994352470275 17.196354938816711 164 162 150
193.797624067001607 -2.280397663727120 15.828419672296974 164 162 150
191.420463966983192 -2.104633587410504 13.748928025295299 161 159 147
187.066411413179651 -2.631863787665917 9.961797987115688 158 156 144
182.465093618547428 -3.274572257715216 5.961570813675024 158 156 144
180.417318722954207 -3.042856503492446 4.167362014867905 157 154 145
178.616723800757768 -2.736190808511467 2.586708321419366 155 152 143
177.887184821061624 -2.054770202379393 1.930973099756130 153 151 139
176.498689245671699 -1.618085264769852 0.706128562575600 153 151 138
173.215280020813282 -1.886918516293906 -2.154687879947829 154 152 139
169.849403082536043 -2.207941036709233 -5.086373725605455 154 152 140
167.472229607676525 -2.181200592199340 -7.164324999023705 153 151 139
165.589474726383742 -1.983456430218891 -8.815411350525181 149 147 135
162.800295315462790 -2.143181007026119 -11.248635442835763 148 146 134
160.423128402918820 -2.163003709750307 -13.326110557777497 146 144 132
157.798715821282542 -2.294212805440014 -15.616734290775554 146 144 132
154.679764301074584 -2.635873597178473 -18.333759315192168 145 143 131
152.879491067307981 -2.478508972115003 -19.913030072367803 142 138 126
151.573825968472391 -2.136428440234394 -21.065667730018987 141 137 125
150.103397769081852 -1.868868046982065 -22.360433981743711 139 135 123
148.220875526951772 -1.777362976139663 -24.010538054688112 141 135 121
145.596434999300413 -2.000317929749077 -26.300204032203681 141 138 123
142.807062473873088 -2.308226344976116 -28.731810408506362 140 137 122
140.677213199718040 -2.361525310855392 -30.594680191164286 142 139 124
139.289447600120724 -2.119220163567003 -31.817873097432027 140 137 122
138.396516951556521 -1.677896903367863 -32.614688632013269 138 135 120
135.854475881818587 -1.941217398187554 -34.832499840038849 139 136 121
134.054594297052006 -1.904253714592657 -36.410718613378833 140 137 120
131.594968145674301 -2.163032231774766 -38.557144703790300 142 139 124
129.877594950261056 -2.116018988127235 -40.064079768031490 146 143 128
127.087987693736224 -2.548853591625614 -42.494287921768290 145 142 127
124.710725785819420 -2.818443209685859 -44.569146614917571 143 139 127
123.075857710890972 -2.774247217351294 -46.004663961691307 140 138 123
122.431022627750366 -2.298179614682100 -46.587948550580393 139 137 122
120.631304574760833 -2.346287190947721 -48.165369875748183 140 138 123
118.089019335570413 -2.743024911302141 -50.381690943419159 139 137 122
117.609544077482951 -2.213832571382340 -50.822912175574743 137 135 120
115.314798885346150 -2.523181857474804 -52.825978431552556 144 141 128
113.845273531044327 -2.465009137489551 -54.119021268764669 146 142 130
112.045675932068505 -2.570530619098902 -55.695909228549766 145 142 127
110.741327160500617 -2.454924621601190 -56.846845396500385 145 142 127
108.198874415723097 -2.934134235922209 -59.062237405437685 144 141 124
106.729492235206337 -2.918295824646415 -60.354912968191371 145 142 125
104.847371249812994 -3.110238024961302 -62.002291335829597 145 142 127
103.543193650513501 -3.035023938517866 -63.152893617775050 142 139 124
103.725386843555810 -2.244576066612997 -63.026472924011955 140 137 122
101.182804846224073 -2.788439948885631 -65.241137580110887 139 136 121
99.383362733788118 -2.982239580693334 -66.817191232776452 143 140 125
97.336132571226216 -3.310926462665116 -68.605892124142230 139 136 119
96.610441807559639 -2.991971844345494 -69.259737274663507 139 136 119
94.976245293189834 -3.135103990617692 -70.693647631070348 140 137 120
94.168202869484134 -2.870131151233896 -71.418399253058567 140 137 120
93.029830094508497 -2.778851771227866 -72.426769592925410 141 138 121
91.808924689366862 -2.737311214522331 -73.506003503644564 140 137 120
90.836011931928326 -2.575485140304294 -74.372537751473828 140 137 120
88.706192185986950 -3.021778379541426 -76.231376372848985 140 137 120
87.402806977044222 -3.049337311060286 -77.381299837322445 138 135 118
86.347465366648038 -2.954646892223355 -78.318568228332822 136 133 116
85.292230899215895 -2.866692079169582 -79.255818543195915 138 135 118
83.823711597049154 -3.006064832001504 -80.547309237511058 137 134 119
82.272525184530380 -3.199382938812887 -81.909555867884961 138 135 120
81.382902801943828 -3.045356328923222 -82.704996776823037 139 136 121
81.568576562595709 -2.312403177303636 -82.579649352635215 139 136 121
79.769498976755273 -2.663615175683248 -84.154257069008366 139 136 121
77.391300425999901 -3.345331718315385 -86.224425445964812 138 135 120
75.592028108620170 -3.722140178504690 -87.798676526197113 140 137 121
75.282029397252870 -3.281074148142950 -88.098349859170582 136 133 116
76.213566241727449 -2.145974280455746 -87.336230311564265 137 134 117
74.083513218919137 -2.730441686816190 -89.193535037970918 137 134 115
72.532695097288169 -3.000390162406267 -90.555169062561561 137 134 117
71.230192749703079 -3.138778554419981 -91.704374061569467 136 133 116
70.341677165463338 -3.048023563997642 -92.499693172478771 135 132 115
68.790879000278409 -3.345234165040125 -93.861056121412219 131 128 111
67.405666943872347 -3.556415425472597 -95.080802670583154 135 132 115
68.422328325368852 -2.373894751780081 -94.249035650963521 136 133 116
68.859783145976976 -1.524384960355843 -93.912762544110649 140 138 117
66.895210888034001 -2.090572671920062 -95.627703093448815 142 140 119
63.687627180853966 -3.408179545450266 -98.403139765051009 144 142 121
64.291467079058549 -2.469744016099142 -97.925662296452003 142 140 119
65.393132771840826 -1.227722800306981 -97.024314632030922 140 138 117
63.262716275233757 -1.930936251012008 -98.880223161130829 141 138 119
60.883357053358367 -2.799466620485769 -100.947913308435005 142 139 120
219.961343336683939 -3.391666302869901 37.356902572346570 130 130 128
215.429892067067385 -3.736111969112804 33.431040208867302 157 157 155
212.963113406668640 -3.455817288517653 31.282486903022971 162 162 160
208.844453159512113 -3.720803633681516 27.712623239221585 158 159 154
206.708034422444825 -3.371408376308727 25.848751131166495 155 155 150
205.975862160342217 -2.576988337623756 25.193112502855115 162 161 157
204.417791513909435 -2.060015778814496 23.826847887747846 160 159 154
198.646858862578824 -2.958104422941183 18.836764820184612 161 158 151
197.997497515558734 -2.169362571224203 18.252427067301227 161 158 149
193.465475021856946 -2.705154882410947 14.328807602607071 161 158 149
190.998705879760450 -2.561612355554632 12.181657401856285 161 158 149
187.870988252001041 -2.663354935344421 9.466356454564504 159 156 147
183.916995519947022 -3.074768202009768 6.040941431673701 158 155 145
179.219249614451371 -3.774868727283107 1.976577016277417 155 155 147
178.404912509947223 -3.121280430576514 1.250836533880886 155 155 145
178.830212188395194 -2.026911855646460 1.590404164613773 153 152 142
177.850936631555328 -1.439676388447287 0.722534905618943 152 152 140
173.648817770182177 -2.039705836815502 -2.914812561161341 154 154 142
170.686203388706303 -2.209072222628247 -5.486684479901015 154 152 140
168.715313588063367 -2.027941912523693 -7.206295258283603 152 150 138
167.323024995170726 -1.641966719236228 -8.428803248019477 148 146 134
164.938963428911109 -1.641545646574845 -10.503188363606199 147 145 133
162.224262782280420 -1.783337871635508 -12.861368543245902 146 144 132
158.269573663559868 -2.421807985396109 -16.284113206951730 147 145 133
155.141399653664081 -2.764319779093013 -18.996717464123066 145 143 131
153.170547238231080 -2.672752297966475 -20.715424212270790 143 139 127
151.530429945505205 -2.463060967483448 -22.150133877896280 143 139 127
149.559655091675438 -2.396131384294338 -23.868624120988670 141 137 125
148.829181113637901 -1.842606920653857 -24.522595543406055 140 135 121
146.775839648189731 -1.830859313766628 -26.311877071632182 139 136 121
144.391740191141423 -1.967913125019984 -28.384828962353851 138 135 120
141.759523688347997 -2.222946107579705 -30.670444744748664 140 137 122
140.036990222170061 -2.116873919085997 -32.175519076531884 139 136 121
138.149089943473484 -2.091358466853779 -33.822371050922612 137 134 119
136.509357161937544 -1.973311272192640 -35.256321326255346 141 138 123
133.546194102685945 -2.429496280167566 -37.824978391264608 142 139 122
132.237384849016678 -2.195178469175338 -38.975002640199165 143 140 125
130.266844786803347 -2.255510065763614 -40.692295243542048 144 141 126
128.130848363459791 -2.400805662833132 -42.551277283558903 146 143 128
125.332928597570429 -2.850681192884548 -44.977333350490994 143 139 127
124.272533812556361 -2.550286643404791 -45.914301736038595 142 140 125
123.460511904679919 -2.146043281520219 -46.638583167891682 140 138 123
121.324562248153441 -2.341412530692499 -48.497072147737612 140 138 123
119.354110890551098 -2.475888846676448 -50.213643978218471 142 140 125
117.797490085238323 -2.434687862580922 -51.575704836522334 138 136 121
116.323694454148267 -2.365600198917072 -52.866817140954737 142 139 126
114.684403989754060 -2.382581848216986 -54.299589099568408 145 141 129
112.300085619611949 -2.757073601945397 -56.369992194995859 145 142 127
109.584525085176210 -3.302478216187706 -58.723606422177795 144 141 126
108.193593043997524 -3.240236342038655 -59.943431031920255 144 141 125
107.465160679359968 -2.872004563653738 -60.596471844497785 143 140 123
106.322846370674924 -2.706566504262745 -61.603719920689485 142 139 124
104.269647472041129 -2.987657836167399 -63.390055314084236 144 141 126
102.796173083888291 -3.000739099020740 -64.680475493997960 142 139 124
101.571240113116929 -2.901906973854953 -65.758372362020225 135 132 117
98.855311092412251 -3.544690617470417 -68.110807935365756 144 141 126
96.304902832839119 -4.123294903141368 -70.321370934010304 140 137 120
95.908510658625815 -3.644338488101868 -70.690962840174734 141 138 121
95.180908675344568 -3.334072012450845 -71.343804238366488 141 138 121
94.867815738545715 -2.818919380265496 -71.642759915110105 141 138 121
93.477597111992111 -2.853557647556567 -72.861928583999571 141 138 121
92.336077507556453 -2.769857949025546 -73.868715469970027 140 137 120
91.857779705683967 -2.351700421859793 -74.309357056036106 140 137 120
90.302021755633106 -2.495358308246855 -75.669927856120637 140 137 120
88.000114786827595 -3.038643296638211 -77.667159924985640 139 136 119
86.361390642009724 -3.248593345560559 -79.098216488267099 136 133 116
85.054350469871039 -3.293842228698896 -80.246209339317062 138 135 118
84.742552177780425 -2.818026869129694 -80.545379451343081 138 135 120
83.933369467663184 -2.610308608643125 -81.268996214077788 138 135 120
83.704994580325092 -2.094817658302887 -81.497625312852563 139 136 121
