ply
format ascii 1.0
element vertex 678
property double x
property double y
property double z
property uchar red
property uchar green
property uchar blue
end_header
-96.054334587068510 -113.080824735967425 -20.965076058063460 138 98 76
-96.046096365745868 -112.524260510493605 -20.863887305152105 136 98 75
-96.037848551555086 -111.967150579040705 -20.762708758661802 135 97 74
-96.035022281652644 -111.406374064590807 -20.769833190868667 135 97 74
-96.032188365494363 -110.845595436329447 -20.776961302776613 136 98 75
-96.023912149721255 -110.287392398295054 -20.675807595401125 136 98 75
-96.015624836362107 -109.728644112970571 -20.574664809577030 136 95 73
-96.023637292222233 -109.163248169824456 -20.798369352472207 138 97 75
-96.026207908070063 -108.600699958452950 -20.913789054922034 140 99 77
-96.034211955757470 -108.037202978431793 -21.137478073276839 134 96 73
-96.020447172812226 -107.479667946777752 -20.928084316577525 135 97 74
-96.017552418849860 -106.919150323300698 -20.935238846429058 134 97 74
-96.003759687082621 -106.359983249378132 -20.725875259781333 133 96 77
-96.006287670134384 -105.798516788712206 -20.841304222611228 132 95 76
-96.008808281676608 -105.237593309680150 -20.956731122763273 130 94 76
-96.000424783966309 -104.676934189629165 -20.855654020384804 130 94 78
-95.997477728060957 -104.116142788350459 -20.862836389439053 131 95 79
-95.994520138700395 -103.555351608071561 -20.870023795387283 134 95 82
-95.997004558955879 -102.995515388657282 -20.985456817617376 134 97 84
-95.988573119062821 -102.433770792337668 -20.884413823967407 134 99 89
-95.963761622693994 -101.866989918752736 -20.458682179359698 130 101 91
-95.966212605582143 -101.306884657852066 -20.574133967290919 131 105 95
-95.974114259508468 -100.749365447424523 -20.797810438284671 126 100 92
-95.965631531307039 -100.185995530853987 -20.696808711023408 128 109 102
-95.902521880921427 -99.596236840387689 -19.513623099791204 162 151 144
-95.904923193212952 -99.034779752230804 -19.629112565002629 180 176 170
-95.885459884128935 -98.461355838140335 -19.311749631003494 157 157 155
-95.937032599247274 -97.930501589019016 -20.401130619536644 182 184 183
-95.764466868502168 -97.254552571160787 -17.054017923893014 205 204 208
-95.389454366638134 -96.415863616843595 -9.703651491485147 198 199 203
-95.331503548453625 -95.784690631555776 -8.629283095672776 155 156 160
-95.300871607987688 -95.170520022734010 -8.095964853001220 108 107 112
-95.319474372200290 -94.596460328754006 -8.536409978861741 103 104 109
-95.294281532551906 -93.984338327250541 -8.111327486578972 1 5 10
-95.323830476884936 -93.423062914122994 -8.768122172206063 6 9 16
-95.402689260147511 -92.915211408483856 -10.398507245075876 96 101 107
-95.448709286970185 -92.380444542963076 -11.379726010262232 63 68 72
-95.439940124143916 -91.789405513191497 -11.279146124425608 39 44 48
-95.447607564423137 -91.216992455202245 -11.503087952280282 57 61 64
-95.488177631812661 -90.685630557949608 -12.376020025409190 34 37 46
-95.490367304333603 -90.110098126683894 -12.491755622938882 29 31 43
-95.443170746647922 -89.470283408506333 -11.634049149305184 29 31 43
-95.412409471121194 -88.848551630471079 -11.100870610996509 26 28 40
-95.420058239583526 -88.278334587788052 -11.324798766695693 22 25 34
-95.471641695437171 -87.773355590290308 -12.413908269934211 17 20 27
-95.440854035967789 -87.149464308833814 -11.880764582466838 15 18 23
-95.382573586644767 -86.480052654759760 -10.806947490888490 16 19 24
-95.302273942311587 -85.769879073521224 -9.300648350038983 14 17 22
-95.320889854181445 -85.215993200119769 -9.740879526835613 10 12 17
-95.334017095894140 -84.654908286172059 -10.072951683042248 6 9 14
-95.363655538067860 -84.124402353466976 -10.729386827489861 44 49 53
-95.338287135178476 -83.497960981271007 -10.304535720535796 151 156 160
-95.362443347347551 -82.961074514386141 -10.852800338149279 203 208 212
-95.370099357202193 -82.395518523820456 -11.076677051040235 202 207 211
-95.443849636372235 -81.959870957569620 -12.597903898416661 199 204 208
-95.589259562991700 -81.674917181023005 -15.524463353168727 196 201 205
-95.484644310651078 -78.603142122112104 -13.832388096378452 200 204 207
-95.481368889647513 -78.024012584026025 -13.839916317824589 202 206 209
-95.450504500776390 -77.380343689073953 -13.307012918351120 210 214 217
-95.386508120337751 -76.654880772253364 -12.125648387510608 207 211 214
-95.366669486445105 -76.031051327994078 -11.808983857057058 205 209 212
-95.346833419069540 -75.405590960181215 -11.492334886706004 205 209 212
-95.304898561815492 -74.722520945528672 -10.743415367038068 206 210 213
-95.274010631245602 -74.064177936679386 -10.210674277858601 205 209 212
-95.276294270716804 -73.490342274018161 -10.326347456229769 202 206 209
-95.300717313655753 -72.976283864733205 -10.874249442252847 200 204 208
-95.297514387767279 -72.389531848208293 -10.881821444284157 199 203 206
-95.244532152993699 -71.664599787473705 -9.916900089383432 193 197 200
-95.230284585332612 -71.044142496824620 -9.708384985658597 191 195 198
-95.204979873063849 -70.390799331409198 -9.283780323001793 189 194 197
-95.223984864767800 -69.864616368450442 -9.723540205365566 190 195 198
-95.115630665175800 -68.962492287341917 -7.678343685909340 187 192 195
-95.125079622512800 -50.313271296803038 -9.639531296055054 105 107 104
-95.101246478679386 -49.619847748491289 -9.214635207618755 115 117 114
-95.161135216567047 -49.309418370143376 -10.408627780357563 129 131 128
-95.137458199555638 -48.615570979798214 -9.983661364203698 144 146 143
-95.125013344273910 -47.971920273246688 -9.774522590537060 155 155 153
-95.134963308125407 -47.433096852246294 -9.997026711931056 153 153 153
-95.111527079453367 -46.734641614392842 -9.571992534350187 128 128 128
-95.155127511669107 -46.358455357775952 -10.441877590510842 62 62 62
-95.154185670291369 -45.767996426957488 -10.448406054593619 12 12 14
-95.164495718633304 -45.232620610937651 -10.670702424871706 1 2 4
-95.146997669354036 -44.558922733304719 -10.353431487598414 6 7 11
-95.163078759299452 -44.052295848687692 -10.683529969082173 22 23 27
-95.179259241726911 -43.547197503008775 -11.013565167524092 21 25 30
-95.184378122109379 -42.986263529717448 -11.127749172791709 8 12 17
-95.167273081634121 -42.309947541930256 -10.810317170976788 16 20 25
-95.144689758702938 -41.602650000386745 -10.384965984486882 19 22 27
-95.144539289681205 -41.011042341375543 -10.391127683183470 16 20 25
-95.161243017336986 -40.508623220076394 -10.720884984299204 20 24 28
-95.172476061059726 -39.977666057817856 -10.942694313327934 25 29 33
-95.183822150258948 -39.447665899550735 -11.164439710865395 26 30 35
-95.184120300491543 -38.857436711161824 -11.170372602357844 19 23 29
-95.206861522081311 -38.390520766362286 -11.607735019959847 14 18 27
-95.207396755296898 -37.801092692032569 -11.613546245496451 16 20 29
-95.196892878405293 -37.148690429013172 -11.403568998588156 26 30 39
-95.175354483460950 -36.431668877230415 -10.977818016253394 21 25 33
-95.181846666967331 -35.872086028170500 -11.091331130213433 15 19 28
-95.199626930851679 -35.377345634841703 -11.420494379082982 17 24 33
-95.211957498857018 -34.851570047804366 -11.641725319700186 11 18 28
-95.218842143066709 -34.293933803170624 -11.755030644427762 14 21 31
-95.225862695460393 -33.736663313495626 -11.868267186246385 13 20 30
-95.238598455953422 -33.213079960361028 -12.089281718401537 15 22 32
-95.234744876687714 -32.589599358206833 -11.986684171640576 14 21 28
-95.225462501018782 -31.931498783983720 -11.776181218314093 15 23 26
-95.216331303601791 -31.272098512716489 -11.565619320264744 15 23 26
-95.218501011206158 -30.680238004515818 -11.570673657120039 14 22 25
-95.231968278324587 -30.157557128922306 -11.791328949358274 12 20 23
-95.223302328539916 -29.495866951706184 -11.580568049588635 13 21 24
-95.214799640327058 -28.832852222732853 -11.369742680319206 13 18 24
-95.212032010502284 -28.204027171851124 -11.266680632163599 10 17 23
-95.214998573741852 -27.610209366098662 -11.271373903461381 11 18 24
-95.234829555840506 -27.124358101037501 -11.599464595503719 11 18 24
-95.227000215906898 -26.458177319941289 -11.388349688490592 9 18 23
-95.241600439220917 -25.937121268581325 -11.608446253236224 8 16 21
-95.261930549050774 -25.453797743681996 -11.936272144983491 8 16 22
-95.276869355722340 -24.934684179366240 -12.156186737616480 8 16 22
-95.269752737952714 -24.266607670529549 -11.944750380441064 7 16 20
-95.251717202667948 -23.521699447213386 -11.517610693571100 9 18 20
-95.289418420074853 -23.154276995040338 -12.168509933792876 9 18 20
-95.310631223600822 -22.675043807135555 -12.495871444008060 11 15 16
-95.309827950805868 -22.042960283321978 -12.391903195281401 9 13 14
-95.298131889128030 -21.332358908239328 -12.072236473265150 8 12 13
-95.336548268138017 -20.971705274877806 -12.722723907774935 9 13 14
-95.364053883651465 -20.535282849994619 -13.157493170535702 11 15 16
-95.375126464278281 -19.981770639880096 -13.268752550077267 9 13 15
-95.397475037825416 -19.508335653571024 -13.595511028005660 9 13 16
-95.414484531742232 -18.996002729700134 -13.814365214419837 9 13 14
-95.426165973119254 -18.443933795254942 -13.925318460704062 9 13 14
-95.454642771448135 -18.014347034177920 -14.359552750013336 10 14 13
-95.455691384578998 -17.381397366051829 -14.254707481066021 11 15 14
-95.451448431375979 -16.706191341352195 -14.041969760300390 11 11 9
-95.430890782005534 -15.904691437454201 -13.505760285840921 9 9 7
-95.487807752802325 -15.686267679182475 -14.478509711861619 10 11 8
-95.506316268179447 -15.177367238922535 -14.696611439269276 8 9 6
-95.547079210996358 -14.838892351795096 -15.345747988720547 7 8 6
-95.532997156583548 -14.076228239105856 -14.916899740441949 6 10 6
-95.574192292285659 -13.740795711407191 -15.565798213764481 6 11 7
-95.610091467607660 -13.364999307310102 -16.106786857116134 6 11 7
-95.624231887553918 -12.817351773552343 -16.216518224783073 6 11 7
-95.583737940501834 -11.831528651187963 -15.248307998600410 0 2 0
-95.592932600799500 -11.237164029835833 -15.250027398261381 3 4 2
-95.574993732754834 -10.420381797710261 -14.712722416473753 35 35 33
-95.546417770943918 -9.510970773327763 -13.959741888733390 105 105 103
-95.660397150860533 -9.765766166976903 -16.008910620573886 127 127 125
-95.676096755124675 -9.216601533476442 -16.117911696077357 132 132 130
-95.462737599191954 -6.756094367048950 -11.700094939518863 118 118 116
-95.446459449030641 -5.920448181820210 -11.162189652133947 90 92 89
-95.452323765407399 -5.265719295828702 -11.055264751691112 86 88 86
-95.442161221456985 -4.470799293933290 -10.624873449113835 99 101 99
-95.416026057401950 -3.533138356096493 -9.871016042644158 121 123 121
-95.444608012179131 -3.060107664073901 -10.194788330754136 120 122 121
-95.468038159671451 -2.540964997968929 -10.410640994603682 119 120 115
-95.638141591031086 -3.304366106961382 -13.536313687686089 108 110 106
-95.607837661754118 -2.316223417864340 -12.674111353314373 115 117 112
-95.540087470076017 -0.986569360115749 -11.057326336155086 106 108 103
-95.908166032440818 -0.631522169670986 -16.982132163305238 105 108 99
-95.482379116378098 -148.783420423014462 -15.771684135549805 191 196 199
-95.450408878804737 -148.312555285834094 -15.237531014417044 163 167 170
-95.468736861475819 -147.656834253113914 -15.678948176007907 164 168 171
-95.526240152697454 -146.863540670019290 -16.879052302084801 182 186 189
-95.544725154012013 -146.214167756354101 -17.320329002116381 77 78 82
-95.535330539576421 -145.664148010409093 -17.219626098090998 95 96 100
-95.520393398062865 -145.132780179131629 -17.010523841573558 64 65 69
-95.505500106523399 -144.600363471335527 -16.801411403991665 63 64 66
-95.513029166317125 -143.992451094697174 -17.025784844916473 65 66 68
-95.520612893473967 -143.385661151920345 -17.250120579386504 61 62 64
-95.528249569010626 -142.779991703950060 -17.474419449717232 58 59 61
-95.519137215081400 -142.228827891815229 -17.373593289681196 56 57 59
-95.515666258776477 -141.659626085762397 -17.381112863412170 53 55 54
-95.506633371291827 -141.107704158264681 -17.280256490563687 52 52 50
-95.525662251282910 -140.470363673373015 -17.721149145066761 50 50 48
-95.505496164417607 -139.952181295016260 -17.403553788671047 49 51 48
-95.513398509267375 -139.350208001935755 -17.627687517333925 45 50 46
-95.487684151141138 -138.846332883289108 -17.201740278159548 43 49 45
-95.495659372099453 -138.244945056173492 -17.425833116646629 44 49 45
-95.486835003161858 -137.691527339575345 -17.324892386148576 44 49 45
-95.517339503681796 -137.030136084937425 -17.982260479621829 46 51 47
-95.508581058582465 -136.477567452053506 -17.881279471340349 40 45 41
-95.499848263886079 -135.924470432863529 -17.780291630939701 36 41 37
-95.491139848178094 -135.370843879055258 -17.679297578480401 43 48 44
-95.504935747034665 -134.759635569608463 -18.011565796691087 43 45 42
-95.524386913584252 -134.136078132329800 -18.452114554918950 43 45 42
-95.527003553022823 -133.555863081518254 -18.567694093494111 43 45 42
-95.518396051973909 -133.003096433367972 -18.466642912366922 42 44 41
-95.509806738778749 -132.449795111557535 -18.365588533897437 42 44 42
-95.501234459624584 -131.895958227505730 -18.264531519212284 44 46 45
-95.503935798251590 -131.316319707493761 -18.380064603464916 47 49 48
-95.512287750635281 -130.724869763637201 -18.603874919304644 48 50 49
-95.515030051166022 -130.146601151059087 -18.719374306377489 51 53 52
-95.523423457651376 -129.557062937925366 -18.943145112312408 52 54 53
-95.520567814713630 -128.991707144190684 -18.950330733300774 51 53 52
-95.528996863068059 -128.403806154199884 -19.174067635527393 51 53 52
-95.531806377484017 -127.827997040718955 -19.289509550848209 55 57 56
-95.551545138518321 -127.220540666950683 -19.729754988525173 37 37 35
-95.537465891813298 -126.678014425610726 -19.520357177192182 45 38 35
-95.489543398340871 -126.195527735340576 -18.661378532324505 52 37 33
-95.424680116989904 -125.738442444171199 -17.477666178186780 70 43 36
-95.382370094575450 -125.236803659748233 -16.727058573449682 83 49 37
-95.373918908778336 -124.675125934798970 -16.626024337831865 93 57 41
-95.371117135333790 -124.103803253182463 -16.633245608013794 94 60 44
-95.373967900080387 -123.523650270171444 -16.748712502949104 98 63 44
-95.359877648192963 -122.969711754914471 -16.539437428726103 104 64 44
-95.345785104295629 -122.414684820793141 -16.330174654634988 105 62 45
-95.359948594030641 -121.818498324851376 -16.662112391556605 103 60 41
-95.385427762781006 -121.208454638138193 -17.210497155291080 107 64 45
-95.416575318214839 -120.593654438315923 -17.867078028365114 119 76 57
-95.419459697952036 -120.018107476877404 -17.982481429910194 139 97 75
-95.422345938631636 -119.443101101842785 -18.097878376659423 156 113 95
-95.430891800596328 -118.861979396135936 -18.321489613076523 160 117 100
-95.450760375002517 -118.269173190922487 -18.761522146936812 160 117 100
-95.476297885909460 -117.672424932935243 -19.309742143456589 159 116 99
-95.490520411023624 -117.090071859908136 -19.641509243683856 156 113 96
-95.510410688574666 -116.503776671634796 -20.081464373665824 152 108 92
-95.518976858168713 -115.930246536708069 -20.304987751130994 150 105 86
-95.527543250645067 -115.357799981734956 -20.528499868137146 146 101 82
-95.496434911311383 -114.819714981339445 -19.994626345661345 143 98 79
-95.499321710947285 -114.252016159029452 -20.109947804696532 146 101 81
-95.502204543829308 -113.684857669480351 -20.225265599496652 147 102 81
-95.510754767033646 -113.114300680010516 -20.448766001580196 144 102 80
-95.507956507358102 -112.552162025725863 -20.455891054980128 144 102 80
-95.499475750214316 -111.993416119301727 -20.354840787512302 144 103 80
-95.502335662580009 -111.427876522981293 -20.470152883327586 142 101 79
-95.499512300938065 -110.865729932515336 -20.477290027113298 142 102 80
-95.491001216287444 -110.306161397958732 -20.376262735945431 141 101 80
-95.493837924052642 -109.741429817366878 -20.491577615450268 142 100 80
-95.508030369148997 -109.173165577508755 -20.823214082417536 142 100 80
-95.510855572144635 -108.610060337233904 -20.938517725026799 141 101 81
-95.507989122225084 -108.048990461547390 -20.945664398930688 137 100 79
-95.493741079144471 -107.490362941475112 -20.736513077755745 136 99 78
-95.507911346809863 -106.925896373136425 -21.068121062989263 136 100 79
-95.476572401540025 -106.368486944160722 -20.534556777653961 134 99 80
-95.473656963502037 -105.806325730045742 -20.541738121000463 132 98 80
-95.470730223984120 -105.244163945816965 -20.548924876804705 133 98 83
-95.473484628852233 -104.682138456920683 -20.664251274572166 134 98 86
-95.476230341073631 -104.120656286891275 -20.779576238217970 134 99 89
-95.473271854487038 -103.559037633666719 -20.786772590990779 137 101 94
-95.493089170765245 -103.001226378810060 -21.226469425959806 134 102 95
-95.484414724912824 -102.439472125110925 -21.125542784936073 129 102 95
-95.464326129118334 -101.874185015285150 -20.808395229742075 124 103 97
-95.484125597943489 -101.319636895041768 -21.248067013787619 139 121 115
-95.532438403462180 -100.777456672045830 -22.228265230917486 180 168 162
-95.478091371070022 -100.198583722778125 -21.262493330711180 189 184 178
-94.730864671116208 -95.740022248003299 -7.586779850838894 196 200 201
-94.663731092073590 -93.904732973699140 -6.529199030204069 206 210 212
-94.734748693602143 -93.375904978907016 -7.941833449237748 148 149 154
-94.857295306430032 -92.904280913258532 -10.326957701397220 72 73 78
-94.905491954235927 -92.368665470346585 -11.307143913399415 40 41 46
-94.885004597724176 -91.764577051421568 -10.990586525332390 16 18 23
-94.875952823201601 -91.171634688214766 -10.890161431929783 27 28 33
-94.947085824671674 -90.671356798309461 -12.302446763455009 37 38 48
-94.966682636413594 -90.115786241725772 -12.742226022405418 54 54 65
-94.911776403718946 -89.468785047912874 -11.777422919952869 73 74 84
-94.845369468246886 -88.801954174738341 -10.596608061298213 53 54 64
-94.836266977581104 -88.206592181157518 -10.496232136795669 3 4 12
-94.873044036714916 -87.674817739094038 -11.260124133683263 9 10 18
-94.858199023006208 -87.072265551834150 -11.051710539875813 4 5 12
-94.791690321914118 -86.391600718122575 -9.871086765450372 4 5 10
-94.713661537892250 -85.687303244885328 -8.474499652000674 75 75 80
-94.670042441504322 -85.030561953175948 -7.726114851789674 174 176 181
-94.672349667510687 -84.445014611581442 -7.841897300637925 214 215 219
-94.783821677840933 -84.043282906342071 -10.009882397654223 201 206 209
-94.803402440594027 -83.493745359014454 -10.449607233590882 195 200 203
-94.595061009040222 -48.006243996541414 -10.138555544782122 150 149 145
-94.453936053628709 -46.778876751594495 -7.558089909252345 153 152 147
-94.376949217531831 -45.832807156469009 -6.163493013393321 154 153 148
-94.486472030614991 -45.744879067034923 -8.218321576511983 155 154 151
-94.578622917350529 -45.585270417916163 -9.949621998897982 160 159 157
-94.600953786887317 -45.103254704660650 -10.387336157017700 169 168 166
-94.611725023296117 -44.567604204722947 -10.609414723964960 145 147 146
-94.657558927233666 -44.201728506315440 -11.478125163154374 142 144 143
-94.674353151986594 -43.698091544632909 -11.807851706611871 153 154 156
-94.615477026801969 -42.823190580940249 -10.736434789016727 125 129 130
-94.574182329402277 -42.029570286233238 -9.988346968637131 123 127 128
-94.562132024620411 -41.378123650353096 -9.779099690780612 115 116 118
-94.567673348912265 -40.813948742348579 -9.893114960899140 120 121 123
-94.561664213178105 -40.190659719655351 -9.791546652940440 110 111 113
-94.579081210621126 -39.686857471072791 -10.120976965458766 94 95 97
-94.614097476957852 -39.275500203026091 -10.773612920199952 67 68 70
-94.614253050470168 -38.683763347245971 -10.779629539084539 39 40 44
-94.626182714483420 -38.153604279699358 -11.001097392164354 24 25 30
-94.626572897552236 -37.562126426761637 -11.006999108594925 27 28 33
-94.621255542845759 -36.939092115331277 -10.905097233092789 23 24 28
-94.633546670889658 -36.410394407166578 -11.126377120513041 21 22 27
-94.616823063459520 -35.722866280662089 -10.808878054613018 26 27 32
-94.629367198194217 -35.194664391194664 -11.030031800788748 29 32 39
-94.612905517244556 -34.504887559009084 -10.712430577215514 15 18 25
-94.625712331705202 -33.977162083179593 -10.933453754345862 18 22 29
-94.627001036188091 -33.384257054909156 -10.938940311844448 20 23 31
-94.645903581084070 -32.891130407673096 -11.267550054225637 22 25 33
-94.641644935793551 -32.265076879315579 -11.165172774084425 21 25 31
-94.631707540690414 -31.604410955356045 -10.955009586243705 20 24 27
-94.627742380795894 -30.976590792645172 -10.852510088549849 18 22 25
-94.641393473031954 -30.451267341498049 -11.073104640839603 16 21 24
-94.655192124301735 -29.926828440335864 -11.293619496276023 14 19 22
-94.651681200629866 -29.298371026455310 -11.190909253076740 13 18 21
-94.636691918394931 -28.598659864612031 -10.872705898051066 10 15 19
-94.639321783960895 -28.003616223128613 -10.877572862504792 10 15 19
-94.653746493809351 -27.479915586850804 -11.097780614331839 10 18 21
-94.679960670294662 -27.029200605174662 -11.533314817563991 11 19 22
-94.688891260739553 -26.471417808441533 -11.645642877159929 10 18 21
-94.680553875545840 -25.804086735564582 -11.434782857788974 10 16 20
-94.718878119672695 -25.430511310313239 -12.085447379806311 11 16 20
-94.745741519885712 -24.985641286686306 -12.520610831543024 12 17 21
-94.755349345493258 -24.430379251304970 -12.632588956695599 12 17 21
-94.718695553287901 -23.573660170601524 -11.882930450681044 11 16 19
-94.734480258823808 -23.054718905075774 -12.102438594638841 10 16 18
-94.756245909629811 -22.574852963862753 -12.429542137857936 15 17 14
-94.783988699429628 -22.134883828372772 -12.864234445327043 14 16 13
-94.771331047072536 -21.425077567805168 -12.545019560482501 12 14 12
-94.799444222328034 -20.986968033408445 -12.979515535010933 14 17 14
-94.810362320693017 -20.432628972742656 -13.090857329525193 13 15 13
-94.844636188670066 -20.037106635214194 -13.632826563281895 12 15 14
-94.873303228578024 -19.604087002501501 -14.067005177944111 8 12 12
-94.907941730868785 -19.213138556191321 -14.608752890534930 9 12 13
-94.896512206030536 -18.500772072397304 -14.288976827358852 10 14 12
-94.891092791426786 -17.827138007853826 -14.076785740719203 8 12 10
-94.868576306847118 -17.028922827543166 -13.541479554999455 10 12 9
-94.863629709932340 -16.351488069650514 -13.329101396444059 7 8 3
-94.841613161481973 -15.547786547060086 -12.793612516670947 0 1 0
-94.889051395847659 -15.243314807507019 -13.550064502967047 3 4 1
-94.942437782726913 -14.984474972547080 -14.414060086292210 4 5 1
-95.030558812427728 -14.984215001128995 -15.923930352640014 2 3 0
-95.038239411202738 -14.393501248711329 -15.926336493915699 9 11 8
-95.069167724359190 -13.974281963304552 -16.359291269299291 14 16 12
-95.019837981246440 -12.951219386774323 -15.284832497154241 77 79 74
-95.028274718593664 -12.357516010168480 -15.286907678032406 131 133 128
-94.968084758809496 -11.237535302451565 -13.996924253488061 139 141 136
-94.936930082972268 -10.330865266162636 -13.245149159331447 137 137 132
-94.591459248887304 -3.470316245919495 -5.610059470338371 115 115 107
-94.517221101228884 -2.155882545183598 -3.996221598300423 114 114 106
-94.568784616803583 -1.851968015848218 -4.750694328561735 114 114 106
-94.569349622789844 -1.131783992429944 -4.536119477736122 113 113 105
-94.655545401471329 -1.113467413973171 -5.936237758378951 113 114 107
-94.861208831379628 -2.092842035496665 -9.596969970787285 115 115 105
-94.902214726104276 -1.714134042173037 -10.135545547531621 109 109 100
-94.847100413750496 -0.525801841549608 -8.843837526907862 112 112 102
-95.365494544008001 -0.608070694538186 -17.131126856143396 107 108 100
-95.684434249616075 -0.525349120669076 -22.078907395271699 108 110 97
-96.145435236625730 -1.099856569344566 -29.390856584080666 113 115 104
-94.872450712719058 -148.522570703462009 -14.403273576596575 185 189 192
-94.909329696208374 -147.803448349438781 -15.169045279395164 118 122 125
-94.928795520192452 -147.148098863259321 -15.609914277086943 163 167 170
-94.971665514784902 -146.416163310472200 -16.483810678321419 141 142 146
-94.956262560964063 -145.882913285747549 -16.274950639177774 168 169 173
-94.964252820897428 -145.271984955353759 -16.499134488263678 118 119 123
-94.972299770796667 -144.662181293114543 -16.723279640289974 66 67 69
-94.974561013729712 -144.072113975286214 -16.839130613668942 58 59 61
-94.982714405636585 -143.464281739182155 -17.063204551324020 59 60 62
-94.985075329144181 -142.875638292841131 -17.178993181233352 59 60 62
-94.981637185625843 -142.305366333034499 -17.186508073069859 55 56 58
-94.984087989023678 -141.717595855043385 -17.302244718845941 52 52 54
-94.980733356813971 -141.147649837719229 -17.309716304068985 51 51 51
-95.000819067217236 -140.509797050826535 -17.750108647907211 47 47 47
-94.979990651211821 -139.991119076281450 -17.432835248922373 47 49 48
-94.988456268606669 -139.388635480339929 -17.656704762734137 45 49 48
-94.961831988241101 -138.884264472380721 -17.231197931677883 46 50 49
-94.987937580265339 -138.234675746250019 -17.779690073621794 47 49 48
-94.984799361704589 -137.665942278218552 -17.787045645917914 42 44 43
-95.016848557879030 -137.005110605897102 -18.443669002222862 48 50 49
-95.002055958806196 -136.468199697290174 -18.234554654776787 41 43 42
-94.999009834254949 -135.900597647798207 -18.241854523355073 38 40 39
-94.978397988172532 -135.376619829639907 -17.924532072014131 43 45 44
-94.998859856954681 -134.751164327624792 -18.364616851492144 43 45 42
-95.007623089163289 -134.155880431505750 -18.588269877270108 43 45 42
-95.010546038959234 -133.575414772354662 -18.703705457657748 45 47 44
-94.984144825432381 -133.062753246778612 -18.278177250653101 43 45 42
-94.975365265210385 -132.508389271883260 -18.177224824131173 42 44 41
-94.972473990422671 -131.940581363972200 -18.184452732117478 40 42 41
-94.987221491869533 -131.334872822189197 -18.516209095039329 44 46 45
-94.996118469891343 -130.743163014482747 -18.739761347391152 42 44 43
-95.005036138764694 -130.152544048005296 -18.963292472733713 44 46 45
-95.013973363553305 -129.563015197411801 -19.186803021483115 47 49 48
-94.999412329356602 -129.020770845549634 -18.977632794004677 46 48 47
-95.014260514853476 -128.421056446756467 -19.309279289297137 57 60 58
-95.029127694665902 -127.822973568897552 -19.640899903709567 47 49 46
-95.044012817768689 -127.226521644357049 -19.972495145891571 43 41 37
-95.017723285102235 -126.704934848435144 -19.547005383437494 51 41 38
-94.950230320233587 -126.252507704391334 -18.364503112232427 61 42 36
-94.870941080595060 -125.813940920010353 -16.965783696957232 74 44 37
-94.838731537818973 -125.291133039654014 -16.432279731362485 86 52 40
-94.847742637084949 -124.699979095409262 -16.655771666720426 94 58 42
-94.839090118586029 -124.137221404601618 -16.554844864608157 99 64 45
-94.830438527914524 -123.573918327135772 -16.453923232565245 101 65 46
-94.821787022603985 -123.010069558119071 -16.353007176763271 105 65 45
-94.824924824667960 -122.429097311507491 -16.468345187121599 105 63 45
-94.828066317619061 -121.848665542756947 -16.583675868362064 105 63 45
-94.860698903710116 -121.230047001265007 -17.239585611968920 110 68 51
-94.875649880943897 -120.637106501797376 -17.571113204898097 119 77 58
-94.902408012061230 -120.031388542808216 -18.118841590531588 134 93 73
-94.899669514220761 -119.463035711373834 -18.126002019721597 151 108 89
-94.926442780598890 -118.861385765084009 -18.673681290599859 159 116 97
-94.935513351376827 -118.281609958044811 -18.897027654108200 165 122 103
-94.950490775907710 -117.696801787558783 -19.228458884593579 163 120 101
-94.947751139639138 -117.131150852237667 -19.235592046429673 157 114 95
-94.974547053770209 -116.537636336436492 -19.783176740627681 151 108 89
-94.971803230462513 -115.973336227626220 -19.790298000793058 149 106 89
-94.974963959973039 -115.404003775652725 -19.905505228485964 148 105 88
-94.930823756404607 -114.873266006998719 -19.156072706602345 147 104 85
-94.957618878959252 -114.284898657643367 -19.703604797117890 149 106 87
-94.978504803249066 -113.703458177569843 -20.143033641162532 149 107 85
-94.987560998681516 -113.132071382816690 -20.366300529469072 147 106 84
-94.972944114884342 -112.576448379554890 -20.157294733427818 147 106 84
-94.940556390804630 -112.029930501920433 -19.624120068070823 148 108 85
-94.937746429878032 -111.465059110993948 -19.631278848740209 148 109 86
-94.940848107714942 -110.897329822383071 -19.746497824385585 146 108 85
-94.949865153028455 -110.327557928733086 -19.969766818986528 145 107 86
-94.958877114117570 -109.758870304832925 -20.193027084929810 145 106 85
-94.961958107224376 -109.193307009405629 -20.308233660423184 145 106 87
-94.965030727349841 -108.628284984153808 -20.423438669956312 144 106 87
-94.962166361503947 -108.065300883944772 -20.430604050921147 140 103 85
-94.965220123274605 -107.501090359270989 -20.545809729043413 139 102 84
-94.980127118797711 -106.935515770810028 -20.877076671602822 136 101 84
-94.947570111259324 -106.377020618771311 -20.344106278974550 133 102 87
-94.914986852566955 -105.815807363497541 -19.811176423610419 131 100 88
-94.900183185823991 -105.251462639855916 -19.602349760939461 132 104 92
-94.926918764240426 -104.686967495905961 -20.149664608563967 133 107 98
-94.941779507189622 -104.124378182164506 -20.480922949263800 123 97 92
-94.944756840828958 -103.562064684802536 -20.596145663287047 127 107 104
-94.953665346478331 -103.001243941057183 -20.819374444208705 143 127 123
-94.962566815163214 -102.441510665623397 -21.042595397732327 166 154 151
-94.995237099278540 -101.888834765146370 -21.697808326002956 189 183 179
-95.039802863823297 -101.342948813393690 -22.568978374698133 181 180 175
-94.489574724861015 -93.060384788172371 -13.494457004427659 206 207 212
-94.420635066845648 -92.415277211190045 -12.314630182755735 210 211 216
-94.345681845036509 -91.758086233785463 -11.026945724980209 209 210 215
-94.234855486709193 -91.056081923001486 -9.091730829382129 204 205 210
-94.425222971715925 -90.100668669553073 -12.668837428031793 205 205 214
-94.445774611106728 -89.546442751296595 -13.108146059670077 206 206 214
-94.269080873065363 -88.747894658199428 -9.985987932278164 201 201 209
-94.223823190342088 -88.103906330775061 -9.238255753485504 207 208 213
-94.256281853018123 -87.560290513042176 -9.893476660744142 209 210 215
-94.228933080239926 -86.937093223152701 -9.469539562987848 208 209 214
-94.225500074594436 -86.345954191608712 -9.477266792135737 207 208 213
-94.374273753341328 -85.400286733395276 -12.298159212319007 197 198 202
-94.247769935223900 -45.939158208833852 -13.873460273964469 151 151 146
-94.013485134532786 -42.516657936144078 -9.808133207199319 146 147 142
-93.958176384362787 -41.662291302507853 -8.845657184370822 145 147 141
-94.018407585274247 -41.358035156234841 -9.928563494873515 144 146 142
-93.847853465690534 -39.938482450468740 -6.920719392420978 144 145 143
-94.041973963605301 -40.289319230590827 -10.371725789840042 142 143 140
-93.993154891338591 -39.456050237083296 -9.516786843659474 141 142 140
-94.035591591444174 -39.072918614041434 -10.276441232497888 145 146 144
-94.108523140903884 -38.846383829966037 -11.574189484604290 145 146 145
-94.060040939163031 -38.009161864135038 -10.719130070648731 146 147 146
-94.023829569905516 -37.229683192258548 -10.079323721602549 148 150 149
-94.054576384282782 -36.792193719457501 -10.623412274517449 138 140 138
-94.091518865715088 -36.388958641899677 -11.275043128772552 137 138 140
-94.104279886872888 -35.861054096839595 -11.496090056511491 113 114 116
-94.080714460144478 -35.140752573615487 -11.071342561627915 83 84 87
-94.057280856433422 -34.418096478714894 -10.646556239853794 68 69 73
-94.046131021497004 -33.758616985579522 -10.436960866544865 21 22 26
-94.053338920560009 -33.196992211804393 -10.550152603192743 17 18 22
-94.066755677984190 -32.669048241490053 -10.770886234773513 19 20 25
-94.092454331751227 -32.209191329411638 -11.206761164789157 21 23 26
-94.057569992615612 -31.412695534410084 -10.566495134878352 18 22 22
-94.065336919193442 -30.851677497618301 -10.679413189230729 14 18 18
-94.061108706121530 -30.222179658616533 -10.577056804440161 11 15 16
-94.093448138868695 -29.800039717238462 -11.120225453748105 12 16 17
-94.077383219448976 -29.100744223647641 -10.802532401182589 15 19 19
-94.079681379322921 -28.505285322650995 -10.807562326977148 16 15 20
-94.100335820929729 -28.016126667326255 -11.135293123442807 16 17 21
-94.115078580981205 -27.492598204605645 -11.355346948874029 18 19 23
-94.142106680542071 -27.042046342935720 -11.790490095020544 18 19 23
-94.138978016323506 -26.411780377971159 -11.687615596533874 15 19 22
-94.136020500165060 -25.780712936552863 -11.584667471401644 14 18 22
-94.157474753720990 -25.296371065685705 -11.911966058990259 14 18 21
-94.173035842197649 -24.776256758167587 -12.131593255293240 13 18 21
-94.194823198098845 -24.294406429229955 -12.458706841168862 14 19 22
-94.162290507971861 -23.474545752151670 -11.817556296901842 12 17 19
-94.178382348411020 -22.954973912390805 -12.036923999392059 11 16 16
-94.194652347289619 -22.436212569161963 -12.256198128647583 12 14 11
-94.241345786762679 -22.110938480606560 -13.013220551295888 8 10 7
-94.245876231712600 -21.517533631985287 -13.017161416168733 8 10 7
-94.220379524993504 -20.728372085412758 -12.483187764904983 9 11 8
-94.213228799391970 -20.054222444185751 -12.271830238602007 6 8 5
-94.224407158325576 -19.497562789820957 -12.383071412389029 4 6 3
-94.259933163763122 -19.100791945233262 -12.924454479386924 30 31 29
-94.313744344145164 -18.827028722590821 -13.788400456882727 35 37 34
-94.331531742804799 -18.314513431939062 -14.006884373527271 39 41 36
-94.319375207995336 -17.599003077027994 -13.687488470874229 65 67 62
-94.289372932160802 -16.758383743005972 -13.045341064367420 105 106 101
-94.301788354412253 -16.203184752492874 -13.155975395956659 137 137 129
-94.224118461780208 -15.024436771067016 -11.653241462600022 136 136 128
-94.315239842130353 -15.009569925395152 -13.161826727376109 129 129 121
-94.370418548416836 -14.749259073835114 -14.024980013153254 132 131 125
-94.497900016938885 -15.001970133281343 -16.178569732105700 133 133 127
-94.529368793067533 -14.582299011744830 -16.611270602832207 131 132 126
-94.398960672040133 -13.004182346076746 -14.140147395376658 132 133 127
-93.709619439610250 -1.020946113675406 -0.070761423926115 117 117 105
-94.131091982014766 -0.701030831009179 -6.634815433191790 117 115 102
-95.204887793573548 -0.956672973789738 -23.190752022359874 109 111 98
-95.582375230523368 -0.659370743664427 -28.667026738592426 113 115 104
-94.340604593218728 -147.970444763028269 -14.552531361898275 194 198 201
-94.348976723005322 -147.352921333242051 -14.776600412426518 126 130 133
-94.375647903976500 -146.677416284531091 -15.325088748284401 114 118 121
-94.365901703965022 -146.121260661461491 -15.224617201259093 128 130 134
-94.380533745722715 -145.487959093384319 -15.556712828581681 144 145 149
-94.407393623548103 -144.818548055088286 -16.105048163800774 138 139 141
-94.434317117596478 -144.151888992510465 -16.653324737768287 152 153 155
-94.455214479260675 -143.506324233729202 -17.093408173626216 114 115 117
-94.451810623057384 -142.935254176609789 -17.100914877745311 69 70 72
-94.442357693298490 -142.382012908899924 -17.000273032312663 61 62 64
-94.439034672007693 -141.810725318145643 -17.007743304469699 62 63 64
-94.454033171599391 -141.187690585990708 -17.339557937920802 55 55 55
-94.475174136024009 -140.549323982623775 -17.779450740823421 51 52 51
-94.465876957196841 -139.996721670199435 -17.678727807591173 51 53 52
-94.468808732524820 -139.410711847013459 -17.794216234740134 48 52 51
-94.453475720313079 -138.873774927244284 -17.585360686833269 48 51 50
-94.474778878740622 -138.240376962017791 -18.025124751992450 49 51 50
-94.471711162136970 -137.671676007994080 -18.032446261710959 44 46 45
-94.486986275216609 -137.056924252904821 -18.364043303373705 44 46 45
-94.483979203156295 -136.489066399934842 -18.371327122487884 45 47 46
-94.493213328554063 -135.891597269347244 -18.594777368294302 42 44 43
-94.496369006623397 -135.309766022822799 -18.710115668950579 46 48 47
-94.487330335880486 -134.757024854739228 -18.609270495647962 46 48 45
-94.490534635632073 -134.175755918441553 -18.724579747716433 46 48 45
-94.487649628778712 -133.608763307456513 -18.731796264883599 45 47 44
-94.478669954491707 -133.055231044970384 -18.630931011010802 43 45 42
-94.463590328457741 -132.514343216853291 -18.421994912709408 44 46 43
-94.454639967235096 -131.959464000995609 -18.321129500434722 43 45 44
-94.457940372098804 -131.378769282626592 -18.436386865433462 47 49 48
-94.467378572586497 -130.786254936759804 -18.659688480328185 42 44 43
-94.489078675007860 -130.170640232247337 -19.099079596805240 44 46 45
-94.504679823454509 -129.569024415673567 -19.430385449451848 41 43 42
-94.495805256831417 -129.015246818180600 -19.329472437789406 35 37 36
-94.505314503965849 -128.427086888828882 -19.552695242015176 47 52 48
-94.514838818723746 -127.840014017343009 -19.775899648308894 36 38 33
-94.530504995683174 -127.243290988707116 -20.107124027613708 50 48 43
-94.491024680434649 -126.742382419479625 -19.466014069116511 59 46 41
-94.402492195959269 -126.319759607075184 -17.960693586254450 65 43 38
-94.313929308886173 -125.889528686638599 -16.455465961968940 76 48 37
-94.274399362242548 -125.374489031787050 -15.814525205324145 88 56 43
-94.302335516625803 -124.753025118596497 -16.361852109681877 94 61 42
-94.305745466112569 -124.170701951020305 -16.477073831354119 98 67 49
-94.309160420713127 -123.588919130757589 -16.592287596530696 101 67 49
-94.306441348388233 -123.016239737867508 -16.599483268091177 105 67 48
-94.303723032396491 -122.443556832924315 -16.606678613975760 109 66 49
-94.301004672634733 -121.870870197222942 -16.613874019202399 116 73 56
-94.316711654422946 -121.274934636149567 -16.945070771817825 126 83 66
-94.338568146815803 -120.673148394404919 -17.384244728554478 132 89 70
-94.372721937277333 -120.059121411681502 -18.039379469983743 141 98 79
-94.357720787968915 -119.503816673031878 -17.830554229188408 145 104 84
-94.391888565983663 -118.894127894160860 -18.485637623708584 155 114 94
-94.407621978184579 -118.306864679900784 -18.816732463282790 166 125 105
-94.429508015718994 -117.715108875797682 -19.255789037391537 163 122 102
-94.414492122009307 -117.160601434818062 -19.046962643281745 155 114 94
-94.411769675292518 -116.593853046066855 -19.054098878334656 146 105 86
-94.415194194531253 -116.021797058318668 -19.169207944647724 148 105 89
-94.430924111498797 -115.440217136903044 -19.500245955341313 154 111 94
-94.409715881701686 -114.888821749660480 -19.183491034737244 159 116 99
-94.425437492279073 -114.308863500108075 -19.514516326496278 154 111 94
-94.422681173756189 -113.743180475553345 -19.521657799376271 154 111 94
-94.413755219696355 -113.181438144844705 -19.420851356287443 155 113 92
-94.392493519139592 -112.626494497756696 -19.104158539932655 155 115 93
-94.389702647889621 -112.059713154515180 -19.111327848264807 154 116 93
-94.386901197075503 -111.492928298259727 -19.118502253985412 153 116 94
-94.402585886417768 -110.917566600825580 -19.449497894116661 150 114 92
-94.424434439293677 -110.341245922031860 -19.888413519258791 149 112 93
-94.458619062951072 -109.762467213882346 -20.543170681995491 148 112 93
-94.443449939578400 -109.203287982267724 -20.334465681519134 146 111 91
-94.434434315272270 -108.641248462022631 -20.233705195490018 144 109 93
-94.425403496137449 -108.078663305256768 -20.132957595125703 140 105 92
-94.453400665203930 -107.508167478273734 -20.679730670152566 140 105 93
-94.481398809983759 -106.940387146332370 -21.226475326446888 135 105 94
-94.441454216258393 -106.382847786604302 -20.586170406357070 130 105 96
-94.401479574189182 -105.822046643197368 -19.945913436469908 124 104 93
-94.367654116414570 -105.257843318999448 -19.413608623170347 131 116 107
-94.407971925566244 -104.692494827859662 -20.176152331939392 144 134 126
-94.442113566337525 -104.130547360059666 -20.830756805129198 176 168 161
-94.451523506636889 -103.569162566491428 -21.053751507481223 183 182 179
-94.491851396250638 -103.013596020763273 -21.816189703313654 182 182 180
-93.556049427209572 -35.807373719352540 -11.537196418488918 143 143 142
-93.543989941615450 -35.151120797151592 -11.328003006221110 145 147 146
-93.475155359463841 -34.201199079814025 -10.151263521688321 142 144 143
-93.476002841982933 -33.605491039959553 -10.156990011068359 145 147 146
-93.489626359840884 -33.075682444238836 -10.377643922692272 146 148 147
-93.516025365171217 -32.613410154938677 -10.813208669611782 141 143 142
-93.542557266748446 -32.153142635453854 -11.248689203319486 123 125 123
-93.493383681355951 -31.288573449871443 -10.394242043603981 86 88 85
-93.482279375898742 -30.624220509152678 -10.184675053992493 53 55 52
-93.483960516754237 -30.027382670224178 -10.190014353671387 37 39 36
-93.523695910610556 -29.638420849524532 -10.840162166392986 21 23 20
-93.519353607681296 -29.007852546570017 -10.737871380622323 20 22 19
-93.546745324290072 -28.552662682610176 -11.172888314907027 15 15 15
-93.567969673629563 -28.063939917766234 -11.500341982627191 6 6 4
-93.595659165827414 -27.612412064046801 -11.935178767179707 12 12 10
-93.585625252359549 -26.946528567806904 -11.725115460486364 27 27 26
-93.607315528258852 -26.460941509954196 -12.052313953130067 42 42 38
-93.622854136924715 -25.940152592808200 -12.271958847793229 51 51 49
-93.625939120575083 -25.346454051699741 -12.276594239521472 54 54 54
-93.629195665402946 -24.752494313188883 -12.281150245606568 57 57 56
-93.645237231404536 -24.233122088482354 -12.500539944477367 58 58 57
-93.655145869233934 -23.676873510282444 -12.612384317074913 74 74 72
-93.627419996956831 -22.893023155484130 -12.079422420208175 95 96 92
-93.625095638543215 -22.259144975259304 -11.976200326927653 121 120 114
-93.692240629022464 -22.048248498160731 -13.054838106224906 141 141 135
-93.721758472877283 -21.609731364892788 -13.488666287730211 139 138 133
-93.688511514366894 -20.782294072716006 -12.847935436914867 142 141 136
-93.611442906207728 -19.675719337827235 -11.455029820564562 140 140 135
-93.635263855456913 -19.195785459481691 -11.781150815364470 138 138 131
-93.627837484943555 -18.517621079742845 -11.569966482362844 132 133 126
-92.558718402523454 -1.201328084804327 8.581795675534494 124 126 113
-94.543855379991427 -0.564499257001917 -21.293846805856646 109 111 100
-94.714450648571017 -0.547222541619094 -23.762166805201247 114 116 103
-94.980762737950656 -0.642732579539127 -27.624700738820138 115 117 106
-95.118441522723529 -1.102900044315148 -29.771276643634394 113 115 104
-93.777082415125960 -147.517935100200305 -14.161623040063489 194 199 202
-93.779757965348296 -146.919123964967639 -14.277365814760429 185 189 192
-93.738200785850395 -146.456934708813293 -13.636850863660811 93 97 100
-93.753628245471958 -145.819057106758862 -13.968613069220339 103 107 110
-93.807093417073318 -145.069500761354249 -14.948481038681820 105 106 108
-93.847970503821529 -144.362106810766591 -15.712219336237325 107 108 110
-93.869914480408866 -143.713589223386009 -16.151832470051659 111 112 114
-93.866574283602617 -143.139575067741873 -16.159339024818536 124 125 127
-93.888620525706770 -142.494373521957783 -16.598869101478186 132 133 135
-93.910718455684531 -141.851370832435464 -17.038351816904168 106 107 108
-93.926526888553738 -141.227825186524854 -17.369784240143531 71 73 72
-93.936039607596413 -140.622919672139375 -17.593177754139333 57 59 58
-93.926565601911051 -140.069270432877317 -17.492550190813773 60 62 61
-93.942497621204339 -139.449317246709313 -17.823886511738664 62 64 63
-93.952124827477419 -138.847184461605536 -18.047196714340458 61 63 62
-93.980828736020612 -138.198450253402626 -18.594437034585667 51 53 52
-93.971486275426741 -137.646225169359951 -18.493731880994119 56 58 57
-93.968518228867595 -137.078111887825258 -18.500999659696845 51 53 52
-93.978278628565945 -136.479838059497240 -18.724206420839948 43 45 44
-93.988069533655292 -135.882661743210321 -18.947387291065695 42 44 43
-94.004243468895140 -135.272038935407096 -19.278511837959257 48 50 49
-93.982316425056482 -134.748681974026226 -18.961812181926092 50 52 49
-93.985828724529313 -134.167704458831594 -19.076971088239901 44 46 43
-93.983005604674929 -133.601004771614100 -19.084154983667389 48 50 47
-93.980201115704602 -133.034310794885840 -19.091329907362905 48 50 47
-93.958332112522996 -132.507175246657567 -18.774641379770941 48 50 47
-93.942833401182526 -131.965500864345614 -18.565913866841100 45 47 46
-93.946434470257770 -131.384819429248211 -18.681027258380198 46 48 47
-93.956416829697147 -130.792314227436123 -18.904068455373306 45 47 46
-93.979149204112858 -130.176701623967688 -19.342965714839494 43 45 44
-94.001903834932889 -129.563263361898265 -19.781829945329832 39 41 40
-94.005574023785940 -128.986662548790690 -19.896868266312055 39 41 39
-94.009256492557810 -128.410604910935717 -20.011895121447509 45 50 44
-93.993836894686922 -127.868123694880822 -19.803138066050025 30 32 27
-93.978419831357968 -127.324554640139723 -19.594390995806492 44 42 36
-93.924762316071423 -126.842704960371378 -18.738149408647558 56 44 38
-93.845590294262223 -126.397291749416198 -17.450303275393139 64 42 37
-93.772768704905587 -125.935431489059170 -16.270447299683156 75 47 38
-93.757320535344533 -125.380715000037100 -16.061829856695454 88 55 44
-93.773764207515129 -124.778002018601555 -16.392743942549572 96 62 49
-93.790217690326671 -124.176915387948227 -16.723636594181102 99 67 55
-93.781154841182499 -123.612806718756246 -16.622919999142198 104 71 58
-93.778472510033339 -123.039584237458953 -16.630103684131967 107 69 56
-93.769405970427059 -122.474651986216756 -16.529397332141201 116 74 60
-93.766720875363447 -121.901148837923245 -16.536585228424542 127 85 71
-93.757647453711670 -121.335392206236023 -16.435890654542902 132 90 75
-93.761344168821751 -120.754128113888129 -16.550964286930508 137 95 80
-93.796984805033347 -120.137362764100686 -17.205415913837300 143 101 85
-93.787905022227775 -119.572406175539470 -17.104716147863996 148 109 93
-93.817166966761405 -118.966913759901701 -17.651244396110457 156 117 102
-93.833650684736327 -118.376918771068333 -17.982008411502250 161 122 107
-93.882106433038075 -117.757942876428331 -18.852069856801194 162 123 108
-93.866622399652996 -117.201803715604299 -18.643484215219530 146 107 92
-93.876712577019191 -116.622261524585070 -18.866340397703880 132 92 77
-93.848412339408725 -116.075637594583739 -18.442070269401540 139 93 78
-93.852089598243424 -115.501663149532646 -18.557078173603003 157 111 96
-93.823757713947060 -114.952040645497647 -18.132854050795572 161 115 100
-93.846620881787615 -114.364311887156603 -18.571401716710113 157 111 96
-93.856678238189758 -113.787190682321636 -18.794248680204134 158 112 97
-93.847516964367529 -113.222994516799744 -18.693580071837573 157 113 98
-93.844748041680873 -112.654574756154673 -18.700755745105653 158 115 99
-93.848375020880852 -112.082746715951444 -18.815765608888654 157 116 99
-93.871218486854247 -111.502060888253553 -19.254250203685729 155 116 99
-93.894060653350692 -110.923545065547060 -19.692713083196622 151 115 100
-93.910490061485746 -110.349788481990331 -20.023335930166695 146 112 98
-93.933327453308223 -109.775341693128141 -20.461759209255746 144 114 100
-93.904851669575095 -109.219430057570491 -20.037668664635817 142 114 101
-93.876351758702612 -108.661341898468990 -19.613612066406830 136 112 101
-93.886327118526808 -108.092064860685824 -19.836417512830735 131 111 101
-93.947638233518887 -107.514029507123439 -20.921625343054387 130 112 103
-93.964027369490807 -106.948137307413944 -21.252186504035564 138 124 117
