ply
format ascii 1.0
element vertex 680
property double x
property double y
property double z
property uchar red
property uchar green
property uchar blue
end_header
127.979688441980102 -1.532432406573901 -24.528762140298966 144 141 126
126.581604516709504 -1.333238510962601 -25.857433914082634 144 141 126
124.714201171664300 -1.353293286443668 -27.624481358948657 146 143 128
122.612124395080357 -1.491868882350130 -29.610618498976777 145 144 126
120.823018997788239 -1.502980711868927 -31.304356582979864 142 141 123
117.625573235399756 -2.170213470522008 -34.313055609945621 146 145 127
114.349786058570601 -2.895674519481668 -37.394535884651930 147 146 128
111.778148591905989 -3.317034663464034 -39.818279266175551 144 143 125
110.771559137253817 -3.024395705960653 -40.780908105134728 146 144 128
110.547663236218170 -2.369931890866077 -41.013110453114820 135 133 118
109.619593884670920 -2.051048531961587 -41.902714302142243 145 142 125
107.361112135355896 -2.374473789164835 -44.033842858743924 146 143 126
104.946067937254682 -2.788886396394199 -46.310853667836483 146 142 124
103.157181649256202 -2.916294570822176 -48.003499476274101 148 143 124
102.151110973719042 -2.673616704529058 -48.965862222773580 143 140 123
100.440597383118572 -2.784377413585423 -50.585313736810946 143 140 123
98.573536984840018 -2.984477599148822 -52.350671948381603 141 138 121
96.706485715183902 -3.197438737741622 -54.115902142803606 143 140 123
96.170494109200860 -2.754449599800969 -54.640057699905583 145 142 125
95.869573136606618 -2.196088930098608 -54.945281164638715 145 142 125
95.490540858670684 -1.679441340984071 -55.323565959866642 145 142 125
94.641826705484718 -1.406178249179226 -56.139804586535917 145 142 125
93.010076188643282 -1.543052992335091 -57.685808395290280 145 142 125
90.203528050025099 -2.301972255392025 -60.326273305731377 146 143 126
89.276699231505461 -2.096399140456755 -61.215304262243649 146 143 126
88.114992277375634 -2.020874936093418 -62.323208319768810 144 141 126
86.796696628905337 -2.036335561476460 -63.576982099944189 144 141 126
84.773376479058243 -2.437258122431676 -65.487236786224571 144 141 124
83.376808481522914 -2.515291013738090 -66.813780140056110 144 141 122
82.215352870232309 -2.475705413100707 -67.921434505031840 143 140 121
81.994302462874955 -1.932028449482677 -68.153857742717292 142 139 122
80.206151532479041 -2.248382509493847 -69.844910428792872 142 139 122
79.044963331580902 -2.231295383441380 -70.952461133882622 141 138 121
77.805476422412596 -2.265572592989771 -72.132884171332336 144 141 124
77.114747504638672 -2.001834539971944 -72.802886577244522 144 141 124
76.502563065769081 -1.698558874581463 -73.400012488222217 144 141 124
75.968943411805157 -1.354903335716704 -73.924280288403509 144 141 124
74.337850035303077 -1.639230668982926 -75.469080667259988 144 141 124
72.785163008871223 -1.889873254076143 -76.940878224349717 143 140 123
71.232481833199216 -2.151167983108549 -78.412568932554223 143 140 123
71.169867682218865 -1.559513769565519 -78.499563616310638 143 140 123
71.029090027486731 -1.013603793914118 -78.659553164294152 143 140 123
69.241356880982536 -1.434536304418979 -80.349729238224853 144 141 124
68.708713446796821 -1.127102258410163 -80.874091212579799 141 138 121
65.273478058032495 -2.546297307261737 -84.093868826516996 135 132 115
64.034779855314483 -2.677675134490907 -85.273669672992185 139 136 119
63.659284441899274 -2.298956415215240 -85.652226720936710 140 137 118
62.970099110266659 -2.112135218135439 -86.322175829329979 140 137 118
61.731676291069689 -2.263691398482283 -87.501900712412294 139 136 117
60.257816865136959 -2.567613584239300 -88.900001804766987 134 131 112
58.783947066417468 -2.881647573121036 -90.297993848946732 135 132 113
58.801742586144130 -2.283364730371432 -90.312665590437973 139 136 117
56.856895162617107 -2.905248010093267 -92.147328015408021 142 139 120
56.246878120276506 -2.705684193090272 -92.744423243300162 141 138 119
56.500922959796284 -1.966607075991515 -92.540988461018941 143 140 121
56.755337427917212 -1.225155489440602 -92.337754949400392 143 140 121
54.496407835522874 -2.080293433301233 -94.463196073614739 142 139 120
53.415709253348453 -2.197456298784665 -95.497011948881863 143 140 121
51.785063307396172 -2.675666234124093 -97.040030645958268 143 140 121
216.731040927426363 -2.247081159828937 57.847355703918936 125 125 123
215.640815040184975 -1.474944048475497 56.808943647331461 156 156 152
210.160752264163591 -2.132542859155893 51.677233945771462 174 173 169
204.680566422552374 -2.828107588005052 46.545973920635930 175 174 170
201.552103835434082 -2.783411073421642 43.607804218343858 172 171 166
198.502021095653731 -2.734146091915552 40.742949725144399 175 172 163
195.608722187498756 -2.653009488189148 38.024480083527919 176 173 164
192.558615387027714 -2.645395274251710 35.160065833154562 174 171 162
188.724466754220884 -2.929168487514576 31.565145055864036 172 169 160
186.693570801458009 -2.611544742002157 29.651118249631736 173 170 161
182.467321700478124 -3.079997797429901 25.691383570095525 171 168 159
179.260307853559937 -3.215711206886801 22.681790686298370 171 168 159
176.994198727524662 -3.036184232987927 20.549133900598974 169 166 157
175.198592121269826 -2.701955119072127 18.854951204864193 167 164 155
171.364234636514766 -3.125332106548911 15.261567353408793 165 162 153
169.647087331789407 -2.793987812180507 13.640738576575586 165 162 155
167.616314665731977 -2.591294909937095 11.727835831312063 165 162 153
165.585578380196665 -2.402599082097125 9.815059760649831 163 160 149
162.849055855463916 -2.495673924306324 7.245099850358827 156 154 142
161.132079003629542 -2.217316060739654 5.624734945397250 157 155 143
159.101439152686964 -2.071959626975549 3.712358854911400 156 154 141
157.541428333091233 -1.757164915764967 2.238244645225194 151 150 137
154.804961915434319 -1.915737942352534 -0.331067900783239 150 150 138
152.303795644254109 -1.999855096179388 -2.681136987265063 151 149 136
149.645751184369601 -2.164007244018788 -5.177050015445701 152 150 137
147.301467938125199 -2.219856367274536 -7.380744610505161 151 149 136
144.643412010882116 -2.419609961133785 -9.876285689172221 151 148 133
143.475864621934562 -2.025744804460721 -10.984672546042816 147 145 132
142.151508807946556 -1.704808186994236 -12.239009869619110 147 145 132
140.591873297052643 -1.491190777851366 -13.712262156904501 146 144 131
138.326186527838132 -1.585519989891149 -15.842302057363923 146 144 131
135.589746771869386 -1.895269641603637 -18.410071221285534 145 143 130
132.774814243085189 -2.257485100664564 -21.050608539751863 144 142 128
131.136847549538913 -2.131404026918782 -22.596345287198972 143 140 125
129.577407908483906 -1.982430062255814 -24.069025870495835 144 141 126
128.802767066789471 -1.500171578754331 -24.811993325117101 144 141 126
127.243487398455116 -1.369816495705896 -26.284558785313379 144 141 126
125.841231740434296 -1.180247013611411 -27.611135747525594 146 143 128
122.084532723987564 -2.056802231871081 -31.126147467921669 147 146 128
120.917785106113172 -1.788128029245255 -32.233628279151759 145 144 126
118.181307949752210 -2.242715292171778 -34.799888664561621 145 144 126
115.444777533122291 -2.716200548365252 -37.365929043903094 147 146 128
113.414679973605317 -2.881746957631551 -39.275364285600631 144 143 125
111.620099758973637 -2.951484727457867 -40.965879769499793 146 144 128
111.081658823116214 -2.443699668829296 -41.489530552547762 136 134 119
109.522735636431165 -2.422248879995180 -42.961145545734013 144 141 124
107.963865725819531 -2.411459500356642 -44.432676282770444 144 141 124
105.619855856153791 -2.788225949618301 -46.633198296996540 146 142 125
104.061046163894105 -2.801507022048427 -48.104510073031093 149 144 125
102.423757554131612 -2.863686933541136 -49.648633348540812 144 141 124
100.707975308035458 -2.975590961121980 -51.265552587096494 141 138 121
98.599536430827811 -3.293209735556453 -53.246803138613558 139 136 119
97.119409642525696 -3.312810401023869 -54.644832610532688 142 139 122
96.896075370440087 -2.713032968539645 -54.876740725468977 145 142 125
96.594394674859799 -2.154145787896653 -55.181606160971342 145 142 125
96.057243731057213 -1.716758992070990 -55.705149427112531 145 142 125
94.027603839449156 -2.046090817886275 -57.613117689997665 145 142 125
92.469339329336407 -2.146702351624224 -59.083791342993237 145 142 125
90.361113010237233 -2.543032937295609 -61.064333361366295 147 144 127
88.881460857342645 -2.625878716445696 -62.461938883510726 148 145 128
87.794762099182165 -2.512430261668578 -63.495258093321581 145 142 127
86.865334787785912 -2.323195890028578 -64.382877756855976 145 142 127
84.599943771667171 -2.851328204441399 -66.508593791325950 144 141 124
83.041866674367114 -3.016113951435016 -67.978696524553271 143 140 121
81.876836610238286 -2.979612262827604 -69.084609139287721 143 140 121
81.419381548366474 -2.566992920384365 -69.535164813409750 143 140 123
80.490415724660963 -2.414902719006069 -70.422622907469417 142 139 122
79.089830896784690 -2.528343839278454 -71.746880148746015 142 139 122
78.082432018653151 -2.433819365991192 -72.707082470376974 143 140 123
78.018758497018069 -1.820694137176551 -72.793791366789662 144 141 124
77.326209584335587 -1.560088516366778 -73.462890849677649 144 141 124
76.083279302831684 -1.614353969654454 -74.641460840570886 143 140 123
74.997722216415781 -1.587801502848150 -75.674431758174052 143 140 123
73.125636690938606 -2.017508536915376 -77.435022507481392 141 138 121
71.725512461728869 -2.189050258927066 -78.758902038900345 142 139 122
71.112174900589082 -1.915566459643356 -79.355169637492565 143 140 123
68.689300287700206 -2.697952874250249 -81.624646663737565 142 139 122
69.571251094500553 -1.564455599722783 -80.838788829378160 143 140 123
67.305746757695076 -2.276126193296826 -82.962561399910868 139 136 119
66.692908109915820 -2.025359846372755 -83.558833834795223 138 135 118
64.505981433855951 -2.715712311184872 -85.609558242175098 136 133 116
64.523096590494220 -2.101266902050921 -85.624070869712085 142 139 120
65.012883123482197 -1.201677979324794 -85.202489679419216 141 138 119
63.455910000096267 -1.538441000148703 -86.671350301509534 138 135 116
61.820169377635906 -1.933861670414592 -88.212783914302719 139 136 117
61.129428520579765 -1.761269736290854 -88.881842395713534 139 136 117
59.414937152375273 -2.224332931082896 -90.495764528112517 140 137 118
57.070210808213488 -3.089909711048177 -92.690912213104383 142 139 120
56.615981403448004 -2.792941943993908 -93.141820570765589 141 138 119
57.580155498294459 -1.609429233223898 -92.284954024659925 143 140 121
57.993283469807480 -0.766244621002198 -91.936977928338422 144 141 122
55.727387845550453 -1.618635437414745 -94.059114804350060 143 140 121
54.407073291712862 -1.883740477207858 -95.309353031749794 141 138 119
52.456152914600040 -2.562188192033621 -97.140527930394683 143 140 121
217.510747053729119 -2.331702758978332 57.142641363573489 125 125 123
211.620505575077516 -3.092686483228928 51.653929515625975 151 152 147
209.897889227972769 -2.548446795478773 50.033525670687311 168 167 163
205.816152106673314 -2.786059254729832 46.223998567037683 174 173 169
202.520761398369388 -2.792459698891460 43.144494902563451 172 171 166
198.281631053603945 -3.136120346412926 39.189638014956159 175 172 163
195.536677998202720 -3.005868416586194 36.621412426985245 176 173 164
191.061495862142806 -3.483144527914166 32.448280623545543 175 172 163
190.675962284174517 -2.585902420988091 32.069188377402384 172 169 160
188.088326841619562 -2.455624814296246 29.647420088221480 172 169 160
183.455721339861384 -3.060032517526126 25.329189942829714 170 167 158
180.396114322516809 -3.139542935620924 22.470217381249796 169 166 157
179.145605603944574 -2.593468358681793 21.289093287157300 167 164 155
177.423220583161481 -2.226283342599487 19.670401289179296 166 163 154
173.577021306175936 -2.644769295604657 16.082632164661817 165 162 153
171.304036040847734 -2.511117961096764 13.953737121432852 164 161 152
168.873740231964348 -2.451511525049701 11.679143314521241 163 161 149
165.578098744892145 -2.732890691885452 8.602590115880048 162 160 148
163.147800229686993 -2.709723257164138 6.328372688609477 159 157 145
162.290989851489940 -2.102795874690301 5.512572694071650 153 151 139
159.939438806818316 -2.077311855030930 3.311517785969500 156 154 142
158.217334791383678 -1.823440822919079 1.693857753757101 154 151 141
155.472425047745901 -1.982320665929209 -0.871412375827845 151 148 139
153.042239019627601 -2.035633813320228 -3.144896363482985 151 149 137
150.139936368937185 -2.293985861765190 -5.855564118291596 151 149 137
147.552364736620859 -2.445678457459009 -8.274460473129011 150 148 136
144.886091896127908 -2.647106241166402 -10.766053375385383 149 147 134
143.715022219453829 -2.254938249607395 -11.872737712107920 149 147 136
141.914457563761516 -2.130579643252253 -13.562388191422343 146 143 133
140.979659694274659 -1.658258450290144 -14.450352553237394 146 143 132
139.415337824694205 -1.456472647002899 -15.921241113927920 145 143 132
136.434337237495299 -1.864791265920945 -18.703575249338598 146 144 131
134.004265293396372 -2.058620124034268 -20.975667415598082 145 141 129
132.597474732765136 -1.829124867647099 -22.300485871997580 144 141 126
130.954607623431428 -1.711581325016519 -23.843790396232521 145 142 127
129.311797286536262 -1.605263503154744 -25.387006528224333 144 141 126
127.354144037498628 -1.648848190942006 -27.221495408083854 144 141 126
126.498714857967201 -1.216633703651234 -28.036157755730670 146 143 128
123.281453914420240 -1.846693366867376 -31.035759909296502 146 145 127
120.615249628585104 -2.250494035652396 -33.525302482096663 145 144 126
118.657654764074891 -2.350746274215012 -35.359235985346515 142 141 123
116.621336619493349 -2.500451617693437 -37.265858380519518 145 144 126
114.427534432816415 -2.736748877426208 -39.317967385511110 144 143 125
112.548729011874698 -2.841745691924332 -41.078685765272496 143 142 126
111.693763314422597 -2.480362059144811 -41.892840743589488 140 138 123
110.208850447223398 -2.421811936007832 -43.289385017096208 142 139 122
108.802762402249144 -2.335957974428653 -44.613060982571398 143 140 123
106.372760862549612 -2.749631852803387 -46.882923854819978 146 142 124
104.730436270778370 -2.800367738461603 -48.424755732905538 148 143 124
103.482034995863657 -2.671109708795123 -49.602597518708336 145 142 125
101.839810840288223 -2.742885379124556 -51.144260872052627 143 140 123
99.173406349646783 -3.330161780123098 -53.631819059677724 141 138 121
98.003936503437217 -3.193531545155976 -54.736638371310988 144 141 124
98.016488711657018 -2.474644535920249 -54.750043169821879 146 143 126
97.871676978176311 -1.834607853248786 -54.909071721840263 145 142 125
96.545005014023658 -1.793717152486008 -56.159418353813294 145 142 125
94.036246797512490 -2.364402743844085 -58.500846986313263 145 142 125
92.315559698797443 -2.547884876381607 -60.114682970796508 145 142 125
90.594887296200852 -2.743124181325924 -61.728404963370451 146 143 126
89.898969560672484 -2.417087474724037 -62.396566327992161 148 145 128
88.651380992989985 -2.384564188710832 -63.573801170837385 146 143 128
87.246192545041154 -2.443586557368305 -64.896416215599203 145 142 127
84.500722313143982 -3.223334244607154 -67.455027304904178 144 141 124
83.332082763540427 -3.179819440489032 -68.559285343680784 143 140 121
82.715508223355656 -2.847450941798043 -69.154610512385432 144 141 122
82.099098225821450 -2.519064023899315 -69.749973413318855 142 139 122
81.246253284776927 -2.323491184853549 -70.563436180435843 142 139 122
79.289313773376577 -2.738701978772561 -72.394441175735210 142 139 122
77.174567765734466 -3.254356668960965 -74.370635934505913 141 138 121
76.795235300359678 -2.821365930433873 -74.747915999103384 142 139 122
76.021646155744065 -2.610966543587160 -75.488588199750069 144 141 124
75.327097664791822 -2.361298067975368 -76.156618509717902 143 140 123
74.474892617958616 -2.205376851366479 -76.969979245963174 142 139 122
72.991512373149845 -2.414272956005005 -78.364503762392133 142 139 122
72.060588226920089 -2.317010002068489 -79.250460637267992 140 137 120
71.524413600343479 -1.998625222603845 -79.773246022687687 140 137 120
70.278014368242211 -2.095270125223338 -80.949720246544160 140 137 120
69.189552852546512 -2.108288388948799 -81.980894373727466 142 139 122
68.495921043786481 -1.897089493874373 -82.648967234596000 141 138 121
67.644532537133344 -1.783534596122763 -83.462282503061573 135 132 115
67.188096468224487 -1.441256796042332 -83.912601599092142 137 134 117
65.626244518555040 -1.761803057868470 -85.379295134658577 141 138 119
66.275846184016658 -0.765028255602274 -84.813451569179847 143 140 121
64.556205365441940 -1.194429862998934 -86.425256717801773 142 139 120
60.782565729050347 -2.883449603643471 -89.923800998207753 140 137 118
61.432775283081853 -1.895531396686015 -89.358157079152534 139 136 117
60.582150387614462 -1.825065015672023 -90.171394124843317 141 138 119
57.360933325912313 -3.225458689333356 -93.161174250092074 142 139 120
57.063514686818152 -2.830779942724952 -93.466388358905505 142 139 120
58.426222944979060 -1.400085332376941 -92.248429133332223 143 140 121
58.287595889002617 -0.903246552995580 -92.408942405914416 144 141 122
57.279593204653054 -0.956627485864457 -93.367333404073435 141 138 119
55.480971867268863 -1.519360657804214 -95.050840979366086 141 138 119
53.603157979079214 -2.145055685625511 -96.806673896711231 145 142 123
203.797655743813038 -3.770389204016857 42.987134883878468 173 172 168
201.280918421529037 -3.527523489870066 40.641149135949462 172 171 166
196.791970381818885 -3.957160011081798 36.474112515397337 174 171 162
194.511877747950507 -3.676233471623661 34.347101635246787 175 172 163
192.626272433296208 -3.277195554453253 32.584448018631036 174 171 162
191.135186024373809 -2.755960277873625 31.186094495606113 174 171 162
190.117548321644506 -2.081143263519562 30.224817149927844 170 167 158
185.944032181937530 -2.516041165634778 26.350368687342893 170 167 158
183.427366570466319 -2.394971617494378 24.005602342328700 169 166 157
181.541941316469178 -2.066261343749355 22.243586503075136 167 164 155
178.630784380733985 -2.119491859362609 19.535043188900346 166 163 154
173.825813585584399 -2.880537979416109 15.079166597120064 165 162 153
171.624768135416275 -2.719910648633824 13.026437000346846 164 161 152
169.423749095067222 -2.574370337394368 10.973850067477940 160 158 146
165.565528388235208 -3.062930415356145 7.392553261963315 158 156 144
163.443426658152760 -2.923534065261031 5.413134686167808 158 156 144
162.663006065135590 -2.288294206895662 4.671357530625301 152 150 138
160.777777221374549 -2.082445437567888 2.910512404573296 152 150 138
158.655815993287604 -1.981194537808712 0.931419263387681 156 153 143
155.586739859533225 -2.264563023084915 -1.920924891864217 152 149 140
153.306940266136877 -2.257871218113798 -4.045253125686372 149 147 135
151.263959391235005 -2.172636746521222 -5.951106447052211 151 149 137
149.299947735618844 -2.069720332605420 -7.784061496435044 150 148 136
146.704452808914482 -2.235699103260930 -10.199020319620416 149 147 134
144.898377240603168 -2.097413615130853 -11.886177753618142 149 146 137
143.250241547105389 -1.906502019327504 -13.427717019476432 145 142 133
141.207419495908596 -1.890593614390209 -15.332932713527867 146 143 134
139.559387198230723 -1.723521878369256 -16.874276047939190 147 144 135
138.069325161622771 -1.501082598388580 -18.270043969872859 148 145 136
135.631828331935282 -1.691664717311126 -20.538617516634645 145 143 132
133.668096485744655 -1.695863923478833 -22.370603830999698 144 142 129
131.467497794637580 -1.815843989864174 -24.420658722872275 144 142 127
129.424845411018140 -1.882092650751784 -26.325109901360491 144 141 126
127.777076867807580 -1.788957913294355 -27.865818344335878 146 141 126
126.524244895429177 -1.532327663378703 -29.042851605908595 148 142 126
124.086803421976541 -1.812438257325201 -31.310530073334661 146 143 128
121.491372733091268 -2.180235629105676 -33.723442207426189 146 143 128
119.448815613616503 -2.315471098021939 -35.627228844083589 144 141 126
117.406269745260133 -2.464667605299344 -37.530877155256235 145 142 127
115.758710764803780 -2.446248167471648 -39.070916770222112 145 142 127
114.190198963468021 -2.402452608971410 -40.538174608965676 145 142 125
113.569787033012133 -1.926939761002425 -41.133137440014792 140 137 120
111.685402347992650 -2.049728987276010 -42.891003572732927 141 138 121
109.722024521989113 -2.222792725179232 -44.721421041686597 145 142 125
107.126521511166331 -2.710789218352546 -47.133061307271760 146 143 125
105.953333533289879 -2.533219526016785 -48.236523287861161 146 142 125
104.464136419198567 -2.516517393152055 -49.630587229953335 145 142 126
102.737904736401561 -2.625470553708732 -51.242537868565734 144 141 124
100.616524578310845 -2.940144880754377 -53.217627664343468 142 139 123
99.759759493287234 -2.644240349638169 -54.030247812526738 145 142 125
99.535483171354954 -2.039265077923477 -54.261758758015901 147 144 127
98.995218729484037 -1.594034953288534 -54.783893272677005 145 142 125
96.636864842789734 -2.069904283859802 -56.976533042581394 145 142 125
93.883147014260373 -2.762820551280923 -59.532092309352493 145 142 125
92.473419597552009 -2.787030426848796 -60.852894269497682 144 141 124
91.617243172915011 -2.535694132628934 -61.665337267540650 146 143 126
90.365816426302018 -2.495044463177397 -62.840819587688770 147 144 127
89.826201882886494 -2.091294651906448 -63.362838033839836 145 142 127
87.942276481812783 -2.397483604735914 -65.119036060905785 144 141 126
85.346493121643775 -3.093069207361959 -67.528405389337252 143 140 123
84.569863847178709 -2.837901095235126 -68.268084029263804 141 138 119
84.109797201424556 -2.418259506002562 -68.717462614122184 142 139 120
83.966367284239681 -1.830802198187058 -68.876610996401013 141 138 121
81.924359040850675 -2.274741151623207 -70.777482573451010 142 139 122
80.594408257934418 -2.343627923590205 -72.025130635092097 143 140 123
78.077555819406626 -3.074081229033504 -74.361042450182538 144 141 124
76.510201269624105 -3.296465198487904 -75.826113994504112 144 141 124
76.684014242432184 -2.560100037236150 -75.695127531596427 144 141 124
75.512574626079910 -2.575937842636494 -76.797435081812296 143 140 123
74.341208824589700 -2.599636520569810 -77.899697028895275 142 139 122
73.249079865696601 -2.586292290510636 -78.929388026215776 141 138 121
72.552894119412230 -2.354332437232188 -79.596452795099054 138 135 118
71.856865653220865 -2.126866651100680 -80.263546546548923 137 134 117
71.160995233624945 -1.903889857610253 -80.930669699492000 136 133 116
70.069314313878024 -1.915520182695543 -81.960317961562083 142 139 122
69.215320653008163 -1.795523056745006 -82.772453246271198 143 140 123
69.232758419900719 -1.168668509035928 -82.787247942945186 137 134 117
67.190848636539300 -1.759801668662843 -84.686651479026551 138 135 118
66.257981509905136 -1.704873947612521 -85.571243060917453 141 138 119
64.929056707103271 -1.893265910563823 -86.818151820963408 144 141 122
62.490769222742230 -2.758649216597004 -89.079401053629539 144 141 122
60.210767537596965 -3.544933672198990 -91.195470104444581 141 138 119
59.753539207406277 -3.236533816171766 -91.645061462696617 140 137 118
59.455054669796795 -2.833763979887040 -91.949848934964564 141 138 119
59.711754854450675 -2.090674457278336 -91.747725762399341 141 138 119
59.334541301073600 -1.738272898193534 -92.125189962324953 142 139 120
60.067697539489600 -0.696206757630756 -91.488925939723572 145 142 123
59.215255513673100 -0.642345972858225 -92.301122746739850 143 140 121
58.204309454934346 -0.694018762629990 -93.258123227455172 140 137 118
56.400206223182948 -1.255104176887528 -94.939025244470457 143 140 121
54.833990940524288 -1.676931527859349 -96.402588839361300 146 143 124
218.045875327171302 -1.704967373433101 54.773867716167672 142 144 139
203.026900639479322 -4.343750362606405 40.922867910051195 172 173 168
199.631973696350343 -4.391928338568043 37.780553191337191 174 173 168
196.632687138156371 -4.332351226271832 35.002150715959402 174 171 162
195.136989683971080 -3.790235523578969 33.605788168467512 174 171 162
194.037051925383537 -3.124573243018551 32.573118236764202 174 171 162
192.304070466250039 -2.682575930626496 30.958725458023139 176 173 164
189.463134296046064 -2.634546405614489 28.326405334768594 169 166 157
186.068171214547732 -2.798946021437960 25.185304232250388 170 167 158
184.572719231192337 -2.318451893211912 23.789458554176889 169 166 157
182.127533449660660 -2.185497566573597 21.521233052456950 168 165 156
177.624394706164878 -2.807277569419957 17.362963045335277 166 163 154
173.675230355320707 -3.259350151399180 13.713938898340984 165 162 153
171.467448311566841 -3.102042735764935 11.664466238402497 164 161 152
169.180531738483666 -2.989024511061108 9.542448272015463 160 158 146
167.447771908465711 -2.685308732287891 7.929372867957397 158 156 144
164.527593036466413 -2.839623380279543 5.226186126921704 160 158 146
162.636570030431841 -2.623657271492000 3.468008765383047 156 154 142
160.428910764261730 -2.541761752698994 1.419253621607226 153 151 139
159.488042184114931 -1.985877476190454 0.533333310165773 153 150 140
156.172011909435582 -2.361519507199021 -2.532495667356528 151 148 139
154.756210798254699 -2.013176662869091 -3.854226865185268 150 148 136
152.865399163966998 -1.862757391392315 -5.611830639718704 151 149 137
150.816262419924755 -1.788539798271821 -7.514625612123865 150 148 136
148.054470334855807 -2.015685594162634 -10.071116591689048 149 147 134
145.688606111361878 -2.100697073463865 -12.264186738425110 148 146 134
143.956294709388942 -1.942037590065906 -13.875983531604504 146 144 132
141.828052818829406 -1.958922485234979 -15.850855994308091 147 145 133
140.333431422698709 -1.726117506516664 -17.244549433618658 149 147 135
139.314101775055178 -1.303653402323751 -18.202419763373967 147 145 133
137.423611422500301 -1.257343341520691 -19.959105589581696 145 143 131
134.661848444813756 -1.596218236198609 -22.514460410277195 145 141 129
131.741618687998482 -2.022227729873983 -25.214826116656980 145 142 127
130.326457338716068 -1.814726890325052 -26.535413616876895 144 141 126
127.881502921502218 -2.067499371304097 -28.799779322690114 144 141 126
127.179467490923614 -1.568228736703956 -29.466797186815597 147 141 125
124.100728611072043 -2.130114388388187 -32.311651800346880 145 142 127
121.893457590453451 -2.322685386665891 -34.357767457723412 145 142 127
120.399306895186527 -2.208419998921936 -35.750465891154732 144 141 126
119.063701838185182 -2.032190300922503 -36.997932074416042 143 140 125
116.698005217841086 -2.337078418299735 -39.188819101232184 145 142 127
115.362508752735167 -2.182451269771333 -40.436114868590153 143 140 124
114.581859328193602 -1.778779537455307 -41.175398904864494 145 142 125
112.771012038639711 -1.863091090847682 -42.857982260604217 143 140 123
109.929797047216042 -2.446113311766426 -45.483673264109001 143 140 123
107.960412809137594 -2.634002913139360 -47.311064676053832 145 142 125
106.387383395924573 -2.645472915176363 -48.775592428582740 145 142 125
105.052226216450208 -2.552874268634006 -50.022412018492474 143 140 125
103.558584703092464 -2.546312662028780 -51.414245393678783 142 139 124
101.906429258311050 -2.627441234695724 -52.951061378186267 142 139 124
101.205779053516991 -2.250941779663186 -53.617478184152702 144 141 126
100.029515195392435 -2.115094476387567 -54.719039204664540 146 143 128
99.487738614949706 -1.670159677381248 -55.240447277480939 145 142 127
96.963522823383670 -2.226148658000259 -57.574632338656130 145 142 127
94.756459002135671 -2.638724618781964 -59.618582497901286 146 143 128
93.342497760986134 -2.661860460746785 -60.937370066513637 144 141 126
93.435685697042047 -1.920691717896909 -60.878721192982084 145 142 127
92.418571570976994 -1.752618540277375 -61.835032847064156 144 141 126
89.973592860939874 -2.334410507306488 -64.096000168418868 144 141 124
88.480570278178902 -2.434225149407497 -65.487034653714431 144 141 124
86.432180424233707 -2.837003675230491 -67.385276975107331 143 140 123
84.859840997829437 -3.001069242320010 -68.848564072151959 140 137 120
84.239792328298222 -2.667055068754008 -69.442244169043818 140 137 120
83.302463592162653 -2.507707394625203 -70.325776179275437 142 139 122
83.158937043168692 -1.925046656842534 -70.484828959723160 143 140 123
82.539409338016810 -1.602385531718497 -71.078641421557478 144 141 124
80.411808002964094 -2.110345833839431 -73.048765437961009 144 141 124
78.601678569619196 -2.457712474276637 -74.728984455492082 143 140 123
77.347281729491570 -2.508939393722361 -75.902100161199058 144 141 124
75.616535699689649 -2.834665420835815 -77.509659799665343 144 141 124
73.806356053370948 -3.216794417987878 -79.189496969081063 142 139 122
72.472629153973969 -3.341826510826697 -80.434760617548534 141 138 121
72.806830967554149 -2.526925247996065 -80.159594268005009 138 135 118
72.744228663180934 -1.936562650373267 -80.246581323886090 139 136 119
72.284714752398699 -1.574934826794893 -80.695627170426889 137 134 117
71.189840056693157 -1.584331212483689 -81.723770536086136 140 137 120
69.300511355522119 -2.064113802126654 -83.475596756396811 143 140 123
67.808414377323899 -2.323855619074107 -84.865427836991273 137 134 117
67.269953647573715 -2.031225053369436 -85.386854457428768 138 135 118
65.857427155351445 -2.260641509977029 -86.704205055016985 139 136 117
64.524396956497441 -2.452164761986071 -87.949117575732430 142 139 120
62.396441115602030 -3.129871525294590 -89.917324712157665 143 140 121
61.063368637347850 -3.342189909206545 -91.162002951813747 143 140 121
58.458113912205775 -4.336078249983219 -93.563770631768989 142 139 120
59.112961517609193 -3.356669442846564 -93.000257949065031 140 137 118
59.927333248573476 -2.274361795880486 -92.292402480835875 141 138 119
61.139912215936732 -0.940016362654995 -91.223347916504252 141 138 119
58.316040140434481 -1.524312288301392 -93.857322600656687 141 138 119
57.381498273991909 -1.530839035683815 -94.740480411048082 138 135 116
56.128745127108203 -1.744611266933401 -95.912709293418743 143 140 121
54.557658685709441 -2.169057497273627 -97.373915585224267 145 142 123
215.326767350417015 -2.894661330063455 50.876558178209109 139 141 136
203.039439672852723 -4.660208873522842 39.589820126847883 171 172 167
203.444296455445397 -3.466671716279595 39.938146776849663 173 174 168
200.118397647918073 -3.501879522899575 36.873534611124256 173 170 161
197.110000428762817 -3.453910601505751 34.099610133662082 173 170 161
195.451140835621743 -2.971762970786554 32.560203305822910 173 170 161
192.363360900072962 -2.987283913475467 29.714049895927218 174 171 162
187.061050368149125 -2.778373379442411 24.820961368854057 165 162 153
185.402329661206153 -2.353078643066423 23.282073313735594 167 164 155
182.870304127870668 -2.248279135470558 20.944822578392490 166 163 154
178.750302498805127 -2.728413410880425 17.156097482984677 166 163 154
173.597989387235430 -3.609243450206193 12.424185721163354 166 163 154
171.780493295206554 -3.310341461274973 10.740838520236338 163 160 151
169.645420040806869 -3.140603039813352 8.767313151028361 159 157 145
168.383878203040581 -2.661191268634933 7.592153457088102 157 155 143
165.613596952722389 -2.755499099200471 5.038356297170509 159 157 145
163.875691739923809 -2.478453464728087 3.428016955791065 159 157 145
161.820172911675513 -2.334379813284912 1.527556087093132 153 151 139
159.764687754024720 -2.204289742961805 -0.372776949477952 151 148 138
158.106350589795454 -1.933989769104305 -1.910253051162641 150 147 138
155.733242443369846 -1.954940754155080 -4.100517136846832 151 149 137
154.075002248046673 -1.709593500948395 -5.637782777234975 150 148 136
151.860800974597765 -1.697093960010749 -7.682693919491157 151 149 137
149.328878986512763 -1.827385429940243 -10.017574280995888 149 147 134
146.717511581659892 -2.007133904789487 -12.424798026558761 147 145 133
144.821098911619458 -1.912380780826985 -14.179149285166204 146 144 132
142.368615619988987 -2.059763513423859 -16.440998032888729 145 143 131
140.631155076228254 -1.926625817153297 -18.050068785710636 147 145 133
139.688257215943167 -1.472279240804607 -18.933973117933789 146 144 132
138.268752145540560 -1.225668172260134 -20.252885178093209 144 141 129
135.657455985830779 -1.496334921900223 -22.659207139612477 145 141 129
131.933669913692569 -2.262484425435300 -26.080241876313806 144 141 126
129.799056151727598 -2.366218994903303 -28.051172070250885 145 142 127
129.571706842112576 -1.652420640913281 -28.282333079619804 146 143 127
128.311401435438142 -1.394226546542353 -29.455807173278714 146 143 126
124.587414673062881 -2.236238135940165 -32.875965013898934 145 142 127
122.373406560707608 -2.429396005668954 -34.918851628718812 145 142 127
121.272175844754784 -2.136887313515627 -35.947061956708694 143 140 125
119.932585458620892 -1.959871074810217 -37.192629668432176 141 138 123
118.116120433566820 -2.009763658287759 -38.872879810512615 146 143 128
116.856164765300250 -1.815833178934988 -40.045859720154340 144 141 124
115.516797218563099 -1.667228359824935 -41.291241584466803 144 141 124
113.143936704692251 -2.010461009434754 -43.478306729642611 143 140 123
110.612019735133842 -2.444688015187827 -45.810060930838915 141 138 121
109.272764979915053 -2.330809420192175 -47.055139299757428 144 141 124
107.217913091931436 -2.567637725214645 -48.951998415205225 144 141 124
105.322100472729900 -2.741944418305259 -50.703867168216277 143 140 125
103.585353035637581 -2.852076184484446 -52.310774974038964 143 140 125
102.643968082770286 -2.586022247007222 -53.193464885262983 143 140 125
101.464089096353590 -2.443417354984180 -54.293366000047172 144 141 126
100.363846378241064 -2.269356314564182 -55.320829741635009 144 141 126
98.945509719096762 -2.261123634895210 -56.637847017227642 143 140 125
96.572580574016158 -2.741234061920109 -58.823470377743547 145 142 127
94.279140737207086 -3.197353208688655 -60.936509220249405 146 143 128
94.133898093784552 -2.576864154897649 -61.095130412864705 145 142 127
94.068458589330405 -1.916323842704519 -61.181482536422521 145 142 127
92.411735856130534 -2.076055886728179 -62.715304440788316 145 142 126
90.595867696252654 -2.329561562947520 -64.393744229273068 144 141 124
88.461639769639248 -2.761633296322849 -66.361479266149274 144 141 124
86.327353540353613 -3.208244378873102 -68.329036750401940 144 141 124
85.068607674294640 -3.206094828681583 -69.500621327826593 142 139 122
83.173078542678084 -3.551549231080972 -71.250863990977422 141 138 121
82.710547237648299 -3.141733018118475 -71.698962353752620 142 139 122
82.725926059813887 -2.477051969710804 -71.713161425500772 143 140 123
82.741579922946045 -1.811876131443617 -71.727497169025185 143 140 123
81.961187517238315 -1.581309823165487 -72.465122301138365 144 141 124
79.906713082033619 -2.056462703262622 -74.359708794126561 143 140 123
78.648627897149666 -2.104918549965521 -75.531088532388537 143 140 123
75.877192254929156 -3.004438797308082 -78.076044979267095 143 140 123
74.141130857172413 -3.342825868047835 -79.680931437440933 141 138 121
72.644041547232376 -3.558266483174436 -81.068830218167733 141 138 121
73.059165403998534 -2.699247281739688 -80.721971939891375 139 136 119
73.474657559545847 -1.836866230531399 -80.375324459698021 139 136 119
73.651453098291199 -1.108362872855502 -80.245683920617694 137 134 117
72.473713208630940 -1.160710779278183 -81.344601624867693 137 134 117
69.303388584926111 -2.378760232810639 -84.249746593748881 140 137 120
66.611012468678638 -3.339163613899162 -86.721039261258369 134 131 114
65.034500343531292 -3.661844453127265 -88.180697446849535 133 130 113
65.212040219271216 -2.957686493354926 -88.051162396625301 138 135 116
65.150706166911448 -2.394111485868279 -88.138480441800283 142 139 120
64.371937698599609 -2.260001458752547 -88.875889587039723 144 141 122
61.200608604168522 -3.571161742994242 -91.779595584013151 142 139 120
60.980218157815372 -3.117549963024070 -92.011407458600672 144 141 122
59.802795733893205 -3.247893642593760 -93.109674187696868 140 137 118
60.300886762609792 -2.360047727496503 -92.691944963018443 139 136 117
60.480243951026296 -1.664693098638657 -92.563188691842015 142 139 120
60.899381613686089 -0.819227960670355 -92.218111085762700 142 139 120
58.365879986133876 -1.809603594401651 -94.543382474793674 141 138 119
55.752265863722329 -2.867521270987324 -96.940491961629760 140 137 118
55.772812812259204 -2.284191611947675 -96.956326056600886 143 140 121
54.436371076110746 -2.559834435400022 -98.198740624561594 143 140 121
217.123195378730941 -2.652466995782872 51.123248988357631 135 136 131
204.487822324636397 -3.448902577876488 39.549603556188430 173 174 168
202.744331251253811 -2.959550717827748 37.939751096732323 172 169 160
197.895334463970158 -3.514540705938714 33.502815349400635 172 169 160
195.435177864776051 -3.300201906128688 31.240914104268285 172 169 160
193.452839767050364 -2.940483089734095 29.414082965837707 172 169 160
189.399995125781203 -3.303807393828406 25.702886698868411 173 170 161
187.656595184144749 -2.895404652203208 24.093823892238589 167 164 155
185.594685760668369 -2.610171837655188 22.194967240214538 167 164 155
182.258516336211244 -2.788683277323978 19.136743598708193 167 164 155
178.922305190466886 -2.989915457952422 16.078773792523180 166 163 154
175.824995764094012 -3.127905734610531 13.238439896751345 166 163 154
173.683468138023329 -2.939858768279910 11.267813817777267 163 160 151
171.780931162582988 -2.678751851919484 9.514680042726638 160 158 146
168.603939187721778 -2.902101538345807 6.602485767387833 159 157 145
167.020085881452644 -2.552176251135383 5.139416104934099 158 156 144
164.480358761878733 -2.573179619691664 2.807144734250869 158 156 144
162.498283407020182 -2.399405992571501 0.982101927777308 156 154 142
160.117910022113335 -2.391889091593943 -1.204979526972551 149 147 136
158.613918884030994 -2.061329546068637 -2.595196750714024 151 148 139
156.472615261511606 -1.989806791838159 -4.564730549967322 151 149 137
154.012632262099487 -2.058340954605352 -6.823803091133300 149 147 135
151.791687261960931 -2.048612739848850 -8.865459531004177 150 148 136
149.889489197699390 -1.926231194267193 -10.617327470069966 149 147 134
147.349847567982124 -2.074356497017074 -12.948331208878329 147 145 132
145.368016920500338 -2.012395158678856 -14.772340142464088 146 144 132
143.067450525492234 -2.094858990848317 -16.885815885816783 145 143 131
141.085671471091530 -2.060835920962512 -18.709561918723466 147 145 133
139.582117276543840 -1.840444165080985 -20.098854162351898 146 144 132
138.795957528744424 -1.328037177172742 -20.836621345477170 145 141 129
136.017281339198291 -1.666976548201852 -23.383884279905232 146 142 130
133.158851054117974 -2.058931142563193 -26.003306300998048 144 141 126
130.459792448359082 -2.401543003788174 -28.477761326896683 144 141 126
130.072489924635164 -1.757124721496596 -28.853404872819084 144 141 125
129.366479230815713 -1.254918651927885 -29.518551200542959 143 142 124
125.232439913324271 -2.271677491341496 -33.295036967710701 144 141 126
123.250889415052086 -2.358397990411355 -35.117649466874184 144 141 126
121.668021815487677 -2.279699897149550 -36.578398810276582 144 141 126
120.324422989565321 -2.103543680667813 -37.822040045504224 140 137 122
119.140388691586949 -1.863769617973140 -38.920953484567860 144 141 126
118.514673689551358 -1.375770372868192 -39.513507873109006 144 141 124
116.373864956859265 -1.592282346625903 -41.480313539807895 144 141 124
113.275991939813878 -2.268999599392332 -44.314832428335592 142 139 122
111.294628161639281 -2.443003432194054 -46.136635802552291 141 138 121
110.429962800552588 -2.102728793555866 -46.945933209553232 144 141 124
107.730752410769327 -2.641409099183464 -49.418297391500374 142 139 122
105.270775246353296 -3.083734815875750 -51.673525099867163 144 141 126
103.448962210538127 -3.234630120220992 -53.350177100185647 143 140 125
102.504779016154345 -2.971086752750344 -54.231502499701435 144 141 126
101.401141152768744 -2.791923886829933 -55.257394531080990 145 142 127
100.058224338861066 -2.738143856368715 -56.500102358959566 145 142 127
98.715377803676262 -2.693358201840232 -57.742751224308307 143 140 125
95.457296316435645 -3.615198314311963 -60.719821526950113 144 141 126
94.433695042595602 -3.434328116516073 -61.673161477929995 146 143 128
93.889095624933972 -3.017504305546806 -62.192929754575204 146 143 128
93.983242590196298 -2.278269486618373 -62.134719770478370 146 143 128
92.640777737308170 -2.276214821636846 -63.377111379787976 145 142 127
90.979046044013259 -2.448294256766467 -64.908409916914081 144 141 124
88.439102725676207 -3.088794662251368 -67.234201064640416 144 141 124
86.298261634416761 -3.537401307519597 -69.198602184063446 145 142 125
84.636460697787271 -3.747829520003329 -70.729472852185552 143 140 123
83.773238632215964 -3.545477939996432 -71.538041015484822 142 139 122
83.309466312882023 -3.135382852943780 -71.985548551861854 143 140 123
82.925760692752391 -2.685185941343781 -72.360913625997597 143 140 123
81.983126983252845 -2.539926962263511 -73.241762733140149 143 140 123
81.360147814638466 -2.226799528102604 -73.833825891614254 144 141 124
81.136796836459297 -1.698654370443212 -74.064988667422966 143 140 123
78.436858413074546 -2.537937172103088 -76.533910308089247 142 139 122
76.375965138884212 -3.040881978185273 -78.425139974253057 142 139 122
75.353844787436074 -2.977613892201998 -79.377977855813924 139 136 119
74.012145859332378 -3.100740074541838 -80.619447331568097 141 138 121
73.150049545850266 -2.961683807345378 -81.427902520356440 141 138 121
73.247301078277246 -2.282543466685355 -81.370559167895948 138 135 118
73.504754211353912 -1.510757539148002 -81.169091589787001 140 137 120
72.803152123678103 -1.289145028792475 -81.833458689115503 138 135 118
70.662457256638746 -1.905738299365831 -83.796200590980675 140 137 120
68.041830114824748 -2.816544331736441 -86.191469367429704 136 133 116
66.300693695517481 -3.229647606924850 -87.793158861262924 133 130 113
66.159173232432977 -2.711261741838263 -87.952509732779816 138 135 116
66.097925690449784 -2.145937072248650 -88.039887174373320 139 136 117
65.636973581437260 -1.819196525157972 -88.487885879547775 146 143 124
63.656044150937035 -2.407468157526223 -90.305632777631843 139 136 117
61.674987477129946 -3.009258915734657 -92.123179643800370 141 138 119
61.454424597043726 -2.555795292665429 -92.354907501627679 140 137 118
60.033565279353184 -2.836346459680266 -93.667745348812275 138 135 116
60.133597704964131 -2.192613295034955 -93.611367902269080 142 139 120
59.833698689139737 -1.794794387436790 -93.915427730611356 140 137 118
58.733389663358224 -1.895750864999306 -94.940028857368105 141 138 119
57.072603486513628 -2.354022262355116 -96.468833808685389 141 138 119
55.972346811021353 -2.471537282890210 -97.493289534239892 143 140 121
55.432832025594465 -2.242293824480053 -98.013559422716355 140 137 118
218.454159252618325 -1.450847037470832 50.917587095061265 157 158 153
208.319282599350288 -3.599064229411209 41.709111640363062 170 170 166
206.251064100095277 -3.197569250313097 39.812076483701048 173 172 168
201.467166254805875 -3.700897861758087 35.454324734077773 173 170 163
198.280677980297014 -3.707307096251391 32.544440378886520 174 171 164
196.372217376070495 -3.307436335115526 30.792712081579509 173 170 161
192.546664019237028 -3.568900112122509 27.304308596411232 172 169 160
191.277302453630739 -2.983087579492754 26.131794596977102 173 170 161
186.972377120361841 -3.453193284286937 22.209715368838602 169 167 156
184.584661628163133 -3.284529451184130 20.024487586724916 163 161 149
182.516523331157487 -3.019617682293233 18.128819981177855 166 164 152
179.729384943958507 -3.024123120895464 15.582162836629323 167 165 153
177.181922409100110 -2.961574599098411 13.252732020523098 167 165 153
175.113851983787924 -2.742740700056117 11.357506248052431 164 162 150
172.486511816295433 -2.742284781434797 8.956068883037432 161 159 147
170.098878743775856 -2.671225067319279 6.771806359860619 162 160 148
166.672478216981688 -3.003004993486035 3.647467753032430 159 157 145
165.083921607481329 -2.667665775035007 2.186798276456130 157 155 143
162.296754899375742 -2.797380896009090 -0.358556473307175 157 155 143
161.027947658415087 -2.365299705980149 -1.529753225814318 151 149 138
158.800219027189002 -2.311767785834246 -3.568615293369902 147 144 135
156.172906108253926 -2.428852599034052 -5.968855788201324 149 147 135
153.865275721561886 -2.438209897994630 -8.079704664417704 151 149 137
152.276998200423293 -2.178280226088662 -9.539731427564561 151 149 137
150.129276508629516 -2.152547889300828 -11.505723500706381 149 147 134
148.221376203296813 -2.044726207360529 -13.254713635198698 147 145 132
146.713199407610261 -1.787399101944653 -14.642174636394742 146 144 131
144.645514996176701 -1.769459713508054 -16.535517168463400 145 143 130
141.058928067377821 -2.392938792247420 -19.801938313572009 147 145 132
139.950590203981164 -2.008564875389256 -20.827694221492976 146 144 131
138.922309988654376 -1.598012147298105 -21.781160020570638 147 142 130
136.454967654796633 -1.803519478670040 -24.035301947729664 148 142 130
133.028111577189208 -2.435166744419618 -27.156335935443508 145 142 127
132.079960429564210 -2.023890724110455 -28.037283766139922 144 141 126
131.131932174024882 -1.618898221444384 -28.918225708585226 143 141 125
129.304362343914590 -1.604552973036463 -30.593824582264688 143 142 124
125.717410025056978 -2.377297501069334 -33.858534461767505 144 141 126
124.049778569141154 -2.322637006995421 -35.389344520674172 144 141 126
122.702123873229851 -2.136125942128715 -36.631152029257720 144 141 126
120.554690298216443 -2.319042986041854 -38.595134203587747 141 138 123
119.847079967119001 -1.862778711608196 -39.259042368344439 141 138 123
119.539595139645215 -1.228167019205464 -39.561910597484086 145 142 125
116.672330300671092 -1.775137585141663 -42.175510541007668 145 142 125
113.884977857492132 -2.304432187545530 -44.716663363414625 139 136 119
111.897623294577443 -2.478472833708596 -46.535600387807989 139 136 119
111.110469976930659 -2.100531354354123 -47.271508129494748 143 140 123
108.323008691454987 -2.676949513771861 -49.812123815674909 142 139 122
105.055309188541173 -3.501765595659831 -52.785591609673958 145 142 127
103.628088269270734 -3.462855602255613 -54.098674462676172 145 142 127
103.561491690828134 -2.773953356241230 -54.184764989636705 144 141 126
102.374595587027201 -2.632231578548705 -55.281300049177446 144 141 126
100.947661090634398 -2.616447641904543 -56.594281877782834 145 142 127
98.320051578389240 -3.204603016866008 -58.989531517453628 144 141 126
96.332771721641677 -3.491383326403096 -60.807343795030590 143 140 125
95.066009711847116 -3.429968171543619 -61.975703527410502 145 142 127
94.519915452383984 -3.012877972319777 -62.494759418929874 145 142 127
93.974000590223298 -2.599233323871869 -63.013865666718772 146 143 128
92.787647644114728 -2.517122540364721 -64.110046965128618 145 142 126
90.880631066712638 -2.814492361897214 -65.855289032337794 145 142 125
88.252785223596518 -3.498842379119023 -68.249435432353209 143 140 123
86.505853266249659 -3.740775372329114 -69.850114302354655 143 140 123
86.841568109365383 -2.899265022039501 -69.575945681659192 143 140 123
85.415220497272969 -2.987892906451151 -70.888133510376036 142 139 122
85.190640558857424 -2.445852156130522 -71.118851390136030 143 140 123
84.165083095435520 -2.334581928650192 -72.070539079266723 141 138 121
82.338347554708974 -2.662444347037761 -73.743014558703067 143 140 123
82.434830905253065 -1.958211372026775 -73.685562001753681 141 138 121
81.089051814583215 -2.041247632436928 -74.925492207427709 140 137 120
79.743321698499500 -2.133260592696182 -76.165353440694787 143 140 123
