ply
format ascii 1.0
element vertex 681
property double x
property double y
property double z
property uchar red
property uchar green
property uchar blue
end_header
120.247436570178564 -1.636795229384409 -21.272040629489624 143 141 126
118.588852680094490 -1.579613155129538 -22.918063853689745 145 143 128
117.157603152906759 -1.429346569938575 -24.341224568733736 146 144 129
115.650658520386358 -1.324444894049072 -25.838564925967376 145 142 125
113.537645091793465 -1.514233520500920 -27.929801732631972 145 142 125
111.197339018332997 -1.826399482300573 -30.243619480457511 145 142 125
109.311662722055246 -1.938970591638294 -32.111831775908172 144 141 124
107.577567057605890 -1.992309233260033 -33.831451665755736 145 142 125
105.995069284367347 -1.984772049505148 -35.402504322735524 142 139 122
104.261060459112741 -2.062192235132339 -37.121917872726186 141 139 124
102.451305188617582 -2.189068206756665 -38.915444394621659 140 138 123
100.717368787665080 -2.291386191197558 -40.634636306599390 139 137 122
99.059259820672906 -2.368323050877832 -42.279506178816234 145 143 128
98.310733934764770 -2.001431292910094 -43.033779411109833 142 140 125
97.107540540645019 -1.869155472982409 -44.233279555756525 145 141 129
95.298011296410735 -2.053460742232794 -46.026323059229952 146 141 129
93.640117505046234 -2.173041947021288 -47.670856911062600 147 141 129
92.133879688782372 -2.226250665775415 -49.166907897050692 147 141 129
91.082573497457872 -2.054081443694463 -50.217763231876944 150 142 131
89.955545682257977 -1.928880474107762 -51.342769018496000 148 142 128
88.828605839167309 -1.811580622971412 -52.467735560489160 141 140 122
86.033591667336879 -2.585794280833035 -55.224419733137893 140 137 120
85.058395163341999 -2.409467356620527 -56.200869593896698 145 142 125
84.083301037120293 -2.239933604522457 -57.177298506298087 144 141 124
84.321721680979010 -1.421332801331876 -56.967207739618090 145 139 123
81.905892447575894 -2.045031783214399 -59.352547585642810 143 140 125
79.717537977140424 -2.561370768645277 -61.515239034168104 143 140 125
77.908398035874455 -2.884231454138203 -63.307042558343539 143 140 125
77.616384871016109 -2.378041060537560 -63.615990472904087 144 141 126
76.490084283084514 -2.339742170660990 -64.740449635793198 143 140 125
75.667329144052843 -2.138727562545101 -65.568363275916681 143 140 122
75.072307180876223 -1.814598179427501 -66.173914314230416 144 141 122
73.491047215659634 -2.056097898209944 -67.742995672381824 145 142 123
71.909805448585601 -2.308795197992930 -69.311970474135819 143 140 121
70.252692778917734 -2.616448833734363 -70.954942087899411 139 136 117
69.050933087011373 -2.671649163305649 -72.153198324583911 141 138 119
68.532313124262473 -2.336459787914433 -72.684554779154183 139 136 117
69.000592734279152 -1.425010182149039 -72.252806838600264 139 136 117
68.254648384029181 -1.227642815792636 -73.006570068979443 144 141 122
66.901522788690670 -1.396529034366359 -74.352960920175434 142 139 120
65.168835757338769 -1.802073935730675 -76.069629259303667 144 141 122
64.347238941138585 -1.671477227608181 -76.897372190279725 147 144 128
63.525761541270427 -1.546504050411318 -77.725114363790908 145 142 125
62.932218771521590 -1.288360387178551 -78.330693819007081 144 141 124
62.262888632783756 -1.080698297099229 -79.010356109404569 146 143 126
60.074680662491716 -1.813985270553536 -81.170884488470307 144 141 122
59.329553200657642 -1.668007230734683 -81.924509539313675 146 143 124
58.508592301856453 -1.574460295263204 -82.752175319071625 145 142 123
57.687748967019701 -1.486518175403915 -83.579839647844437 144 141 122
57.170935517327877 -1.212398742273079 -84.111431708474413 142 139 120
55.742473453341859 -1.520338047014106 -85.531209392951553 143 140 121
54.086036869100028 -1.983895020964479 -87.172899652286219 141 138 119
53.873549211647344 -1.532252816719169 -87.408471920162867 143 140 121
53.585287742847555 -1.130762638071840 -87.718136901348714 139 136 117
53.069203210598786 -0.878967429524750 -88.249847879126605 143 140 121
52.325228694224208 -0.779400941748462 -89.003546757705521 144 141 122
49.316909614442409 -1.599335294057783 -91.990292622223706 143 140 123
47.432471715257151 -2.277742218717165 -93.853272930299937 142 139 122
46.080296246947924 -2.614287703393003 -95.198392517959263 141 138 121
212.052629419179254 -1.486902461783714 68.059506546266078 166 165 163
207.957729686311922 -1.688262913745333 64.034185460909470 186 187 182
201.964393132242890 -2.547683207014239 58.152371661034607 190 189 185
197.261872941339078 -3.017761430072379 53.533629087700376 183 182 177
193.014914612974906 -3.367284908860424 49.360859659841168 165 165 157
190.666399858344562 -3.097997643676698 47.044983726787905 174 171 164
187.862255031662784 -3.002905136398620 44.283719423063133 177 174 165
185.437825104807928 -2.795285656446541 41.893936940758834 177 174 165
181.570469393474212 -3.113821336265315 38.093542373701723 174 171 162
179.525772155960567 -2.810700143800185 36.075408451930826 175 172 163
177.405159562243711 -2.549483138201581 33.983164632277322 176 173 164
173.689647422684629 -2.882924938954613 30.331999826991364 174 171 162
171.569060492925786 -2.657652075853557 28.240113720903821 171 169 157
169.980169798685722 -2.250506460610171 26.668006045086628 167 164 155
167.024161433377486 -2.366094437628690 23.759843607916849 163 160 151
164.371969090294556 -2.388033299206071 21.148808189399972 158 155 146
161.871698128687513 -2.370970746056360 18.686410411414528 163 160 153
159.295480922342705 -2.400958695387015 16.149970486127302 165 161 152
158.086573452146865 -1.918295256997352 14.949597220112793 164 161 152
156.270037826126327 -1.682380897103271 13.155580013927050 162 159 150
154.073724207872345 -1.609607622604699 10.990632166000438 155 152 143
150.586000488366921 -2.067862341872255 7.564355578186479 149 149 139
147.781956267243118 -2.275699354884817 4.806161350838693 152 152 142
147.029121889512226 -1.670254602753786 4.051493740457119 150 150 138
145.744580966344699 -1.288028306623706 2.777478224134541 149 147 135
143.928290633691205 -1.134735439928067 0.984194134977770 152 150 137
140.896409613101298 -1.501203829065776 -1.995947530782047 151 149 136
138.396362093952717 -1.665626894383829 -4.456584080232318 150 147 135
136.276229752496647 -1.686728952768834 -6.546151598970738 147 145 133
134.536046011282167 -1.560419665172796 -8.264708180144851 146 143 131
131.732100401417654 -1.905223778488049 -11.021539711611325 146 142 131
129.384071272956021 -2.071752759662790 -13.333161891000060 147 143 132
127.112043348361937 -2.221670460193589 -15.570454889144628 147 141 129
126.055933090138495 -1.850341300584306 -16.621062028119752 148 142 130
124.847924020228717 -1.554155048110363 -17.819945582398930 143 141 126
123.336002823078658 -1.403012895881631 -19.315381144624155 143 141 126
121.216129999160245 -1.537815384537992 -21.403902440016083 144 142 127
119.856324090554608 -1.340876047249923 -22.750863078464789 145 143 128
117.736517583831500 -1.503061169779166 -24.839134236569294 146 144 129
115.996780337100560 -1.504168848240233 -26.556592852333438 144 141 124
114.029048049874163 -1.624097201099718 -28.496332996095646 144 141 124
111.833292891358710 -1.865306104546758 -30.658316032958254 144 141 124
110.093660205861099 -1.905832684130691 -32.375418911906451 144 141 124
108.049979018553316 -2.103959071685153 -34.388879315466767 142 139 122
106.386441134237131 -2.133617317958655 -36.031638674763030 140 137 120
104.190746087369590 -2.433121824173594 -38.193050402907460 139 137 122
102.451242446497233 -2.525371426869969 -39.909682605301725 141 139 124
101.167988646553184 -2.405432822024974 -41.181614017994093 142 140 125
99.732732625667794 -2.369896635606590 -42.601677062556092 145 143 128
98.297538236871006 -2.344475510267755 -44.021665472292966 146 144 129
97.698913521450265 -1.908530015545630 -44.626643945690660 145 142 127
96.492030397524871 -1.784769588533808 -45.824291283028543 147 142 127
94.752854061969401 -1.940992127473362 -47.540421561594513 147 141 127
92.101016251165518 -2.578285451473489 -50.145292434529182 148 140 127
90.970339973416756 -2.447705406935010 -51.268608178691437 149 140 128
91.056798006231475 -1.691207087502597 -51.206897537550191 150 143 129
90.382778917855234 -1.332694342574052 -51.885869432084263 143 142 124
88.187425586254619 -1.782063580275983 -54.045902002674296 143 140 123
86.144198319912746 -2.166159411985242 -56.057665283557100 145 142 125
85.013941031459993 -2.076174396381752 -57.180763605736360 145 142 125
84.112029526352771 -1.871105450074165 -58.081709729914763 147 141 125
81.536226869209898 -2.580152420151098 -60.611358078488735 145 142 127
79.797387839992268 -2.850597509634651 -62.326473973157249 145 142 127
78.439058930945762 -2.924249193103527 -63.671355873822421 144 141 126
78.526779987422117 -2.207614084942828 -63.609839126812489 144 141 126
77.777527973559486 -1.956111779483333 -64.362577220380302 144 141 126
77.561211420914290 -1.411171025564205 -64.597278126762177 141 138 122
76.127178527442240 -1.554284488663297 -66.016087380697797 144 141 122
74.160310912470180 -2.009912394896213 -67.952785656558802 146 143 124
72.345669359799359 -2.392548432317263 -69.741341930970094 143 140 121
70.531010430266207 -2.788049250138056 -71.529757468702655 143 140 121
69.934587934724206 -2.491834922545623 -72.134351153443561 140 137 118
69.719051216321589 -1.978026812802606 -72.369104665907855 140 137 118
69.503724712971362 -1.465409725960798 -72.603946484735530 139 136 117
68.070082426747561 -1.671908874854434 -74.022290143133745 143 140 121
66.712632058166108 -1.843345569640280 -75.366585784301492 144 141 122
65.659898674692883 -1.842600092519907 -76.414993804573101 144 141 122
65.292832893034728 -1.437788999264197 -76.797852141368935 145 142 126
63.935593417058314 -1.633073683740752 -78.142003193497999 143 140 124
62.654574831643657 -1.791622290053209 -79.412137316395160 142 139 122
61.221209238540666 -2.052233980052656 -80.830056336264505 144 141 124
61.540491605751072 -1.245948840850668 -80.547663884628406 146 143 124
59.269015896250792 -2.038466993972548 -82.778606451307752 147 144 125
57.835766082630613 -2.325997758491472 -84.196303768127819 144 141 122
56.859853958773641 -2.337623699326859 -85.170476585538211 144 141 122
57.484835917628899 -1.349070122622057 -84.592770411603595 144 141 122
56.433013117737261 -1.416474025749481 -85.640912556133173 143 140 121
54.923804386155211 -1.782225232983072 -87.132325109574680 140 137 118
54.253337260729097 -1.621921348262838 -87.810955987639261 143 140 121
52.210366503692512 -2.349424560190061 -89.819307117016848 140 137 118
51.540052871007589 -2.203123042970614 -90.497867292079803 144 141 122
52.090264404707199 -1.267041651175077 -89.994709965403729 143 140 121
52.259466372114716 -0.575971089999736 -89.861051373244948 141 138 119
49.394329806232278 -1.309018739344278 -92.695471860264831 143 140 123
211.559431087060176 -1.991212028390720 66.083464351112497 160 159 157
207.832319923572470 -2.073356077867544 62.435261745120755 181 182 177
206.390599763855789 -1.427594502388302 61.012009765937961 186 185 181
197.711621586967965 -3.207017932136878 52.544406795047593 184 183 178
195.431849711602894 -2.890178991959921 50.306013915826583 174 174 166
191.399841012838010 -3.186729666402353 46.362444701027755 177 174 167
188.510583890180271 -3.118467433004807 43.531315120524283 178 175 166
186.307016810286285 -2.832204942563345 41.367639752035956 176 173 164
182.579681751269419 -3.097193751258601 37.721426369857966 174 171 162
180.376133793945854 -2.847704906656094 35.558120382807630 173 170 161
178.248804384678749 -2.586557788117609 33.469090584072603 173 170 161
175.207170873553451 -2.671662902959927 30.490718262829148 174 171 162
172.394115795691846 -2.694808462154558 27.734933676542909 171 169 157
170.571632336583178 -2.372161309556063 25.942869109112905 167 164 155
168.596794021274832 -2.119267895551484 24.002690823091797 164 161 152
164.869362166836993 -2.540085672997360 20.358127773368466 160 157 148
162.894558656944668 -2.321480878361185 18.418285786539940 160 157 150
159.624307602249843 -2.613737418527599 15.218838973428092 165 161 152
158.945066313801192 -1.926304346811432 14.538979619349476 164 161 152
156.360707254916122 -1.987891942376476 12.006759999442664 162 159 150
154.538463937314219 -1.767408755383941 10.215632174159708 155 152 143
151.344436305026591 -2.105508997364931 7.091051114213457 148 148 138
149.369820218933995 -1.976921335504747 5.152046056049926 154 154 144
148.157412332507022 -1.553731709825133 3.953959570993277 152 152 140
147.097523734305895 -1.076822811864733 2.904073191626821 151 149 137
144.132192979502179 -1.392478689115203 0.002429953039695 153 151 138
140.709501563722796 -1.919267838642853 -3.343393521724806 151 149 134
138.506374773683149 -1.959204806944837 -5.503921788472866 148 145 130
136.379498747326949 -1.982538366994117 -7.590240181502821 145 143 130
134.862493555573337 -1.760984686644543 -9.083968359366850 145 143 130
132.659455977918782 -1.845045604580059 -11.244085115034579 146 142 130
130.913851236371926 -1.746477395226433 -12.959762755377056 146 142 130
128.710867784688588 -1.860126277055128 -15.119600840947811 149 143 131
126.812864576060235 -1.855040543674860 -16.983127084770899 147 141 129
124.991142263054059 -1.829520583063247 -18.772497302436307 145 142 127
123.703183716950406 -1.577951438545933 -20.043532919962814 146 143 128
121.957813194118202 -1.541865688932676 -21.758679446388925 145 142 127
120.441243968161729 -1.414069744575229 -23.251651093319481 144 141 126
117.704668108626322 -1.856190227408468 -25.928851471219758 146 143 128
115.654377273842144 -2.000712015913674 -27.939701621150022 145 142 127
113.756626992489231 -2.088744779001287 -29.802390349051848 142 139 124
111.782643855389850 -2.225963926412382 -31.738962124826486 144 141 126
110.113749543461623 -2.232958343297931 -33.379392277694649 145 142 127
108.292362600557112 -2.324362038492200 -35.167719381340561 137 134 119
106.471008396466885 -2.428628857028804 -36.955929740532525 139 136 121
105.183619238382519 -2.287682790676688 -38.226099052419926 136 134 122
103.514909114534674 -2.341470634556748 -39.866135651983399 142 140 126
102.303940081261104 -2.182524744168323 -41.062190485944711 144 142 128
100.635334859197073 -2.258191876888681 -42.702052055650682 144 142 128
99.805962545203087 -1.928005535991032 -43.528129691489767 147 145 130
98.595240475640750 -1.794735667245221 -44.724038375854690 145 142 127
97.918685328917533 -1.400328404575141 -45.402166509071407 145 141 126
95.411031010770898 -1.941465123383396 -47.855286289074854 146 141 126
92.216578674854787 -2.851977273870208 -50.973772048931721 148 140 127
91.463901206567357 -2.526403232064440 -51.725633874436824 148 140 126
91.398172900686504 -1.849455668433844 -51.812016724463405 150 144 129
90.722107606810141 -1.491814343074916 -52.490000751340631 142 141 123
88.443423341364436 -1.982223337152807 -54.720604530905177 143 140 123
87.233264467837543 -1.922627070520369 -55.916024286926017 142 139 122
85.870522991303886 -1.952905781003186 -57.259241690229914 143 140 123
84.278836345116261 -2.115704619575213 -58.824145067640444 146 140 124
81.771105776774192 -2.784919587871854 -61.275909996048796 144 140 128
80.408456347124982 -2.848798749628867 -62.618825567942366 144 140 128
79.962049525055278 -2.420373293703800 -63.074829382381893 144 140 128
78.828627255948760 -2.373728492401640 -64.195967466067032 144 140 128
78.229798867572995 -2.038345660024335 -64.799813361019261 145 141 129
77.249303341613526 -1.920218011126052 -65.773129113456179 141 138 121
75.887064956664574 -2.023495856303696 -67.115835777284730 144 141 122
74.677624476385319 -2.049898604634685 -68.310713979109551 146 143 124
73.086355377992234 -2.302139872493774 -69.874896434097025 145 142 123
71.571484789051595 -2.521821286250125 -71.365103944148842 143 140 121
70.744150585913374 -2.355805952669175 -72.190466710584531 144 141 122
70.375314043729333 -1.929536604065377 -72.572698802216422 143 140 121
70.083069318785164 -1.460972941413020 -72.881148628381936 140 137 118
68.339281010172328 -1.846730131219461 -74.592709839376113 144 141 122
66.977540808898809 -2.019046256117431 -75.934944186872372 144 141 122
65.845096389749855 -2.064602804641421 -77.055600995813649 144 141 122
65.782686958963396 -1.478082574112864 -77.142640770342751 145 142 127
63.809716782687275 -2.041322156489422 -79.075311900751728 144 141 125
62.601062555232161 -2.155879903758391 -80.269658819543224 138 135 118
61.621798372489266 -2.139206819700038 -81.242519319551917 144 141 124
61.560049330635323 -1.567325606860223 -81.329724335119664 149 146 127
59.816463683536838 -2.031843155639260 -83.040571778746937 146 143 124
57.690504302813807 -2.745646947260051 -85.120221334949804 145 142 123
56.711513112670545 -2.759549714372718 -86.092897701086315 144 141 122
56.726845752045520 -2.156813986456414 -86.106437044843290 142 139 120
56.054070440412914 -1.987585975881021 -86.784055555048980 143 140 121
56.605352059750601 -1.046595808402102 -86.281460682168330 141 138 119
55.244471860060443 -1.320960058297552 -87.623056018859046 142 139 120
52.965486543128605 -2.193805642558030 -89.849579164482236 140 137 118
51.374978515937968 -2.638720474304796 -91.412142427540203 142 139 120
51.850611720700073 -1.754486815203977 -90.983632274095328 139 136 117
52.632766040202270 -0.666502893453628 -90.260422535402597 143 140 121
51.501836437815044 -0.827461638688495 -91.380616134706486 144 141 124
50.447506317021080 -0.945765473323341 -92.427034846945816 144 141 124
211.973734063581333 -2.200010821254527 65.000541418759184 156 155 153
210.298218087463340 -1.612475515954953 63.357159254245573 179 180 175
205.183576304609488 -2.168386801979052 58.382163336099268 182 181 177
201.750251298846479 -2.201443758232837 55.036344700838811 179 178 173
196.406181209880344 -2.901108277319040 49.840009567404110 174 174 166
193.125632727029227 -2.937784614230876 46.642858193201079 174 171 164
190.991544254795656 -2.604252623468275 44.556316813168280 177 174 165
186.717346758855683 -3.027977377325783 40.397342300709056 176 173 164
184.659705411977569 -2.705532096698786 38.385201883942386 173 170 161
180.767615981511142 -3.046823402185557 34.596874078424747 171 168 159
179.168629464202979 -2.596135284418266 33.029148004905437 171 168 159
176.346655811500312 -2.598229242129761 30.277413339543415 172 169 160
173.830448179133128 -2.508874804681433 27.821895473541844 171 169 157
172.078687938207622 -2.155990566378077 26.106544800359416 167 164 155
169.409633015460884 -2.156388521658721 23.503354650783933 166 163 154
166.893477723005049 -2.118338833745893 21.048339851108381 162 159 150
163.842192281605207 -2.300775209804013 18.075586859790945 159 156 149
162.014105643458493 -2.037254322787497 16.286811450360773 164 160 151
159.650895745087553 -1.993126366699346 13.980283301581181 164 161 152
157.364159560640246 -1.935956236116647 11.747895025456984 162 159 150
154.159964699175873 -2.255454344686155 8.627986451994445 158 155 146
152.026166213132711 -2.173282366029888 6.543893718439193 149 149 139
150.504084851344601 -1.861513906239381 5.051665336875203 152 152 142
149.134993359033473 -1.498755709037515 3.707440033017605 152 152 140
146.618995819356542 -1.612582186510302 1.253913102619748 152 150 138
144.179472678242746 -1.712809133106807 -1.125480019801046 152 150 137
141.204671084031077 -2.052019030446111 -4.022349987917408 151 149 134
139.606344382747125 -1.837240496654278 -5.587963379302323 149 146 131
137.319806732531049 -1.923701864832667 -7.818968162351183 144 142 129
135.645101011397912 -1.766379623778466 -9.458309550881381 145 142 130
133.664532283335632 -1.751916988286667 -11.393292139302673 146 142 130
132.448817886070231 -1.421041970364560 -12.588846560275499 146 142 130
129.932951134188841 -1.664981868027406 -15.041096736309015 149 143 131
128.334927465397982 -1.523698141003476 -16.606098578433233 147 141 129
125.742593818158497 -1.833805248729976 -19.131945046421748 146 142 130
124.068159692933747 -1.752679271378305 -20.770632039083608 146 142 130
121.628822871285038 -2.027376445780041 -23.148318386396738 144 140 128
119.954464280690374 -1.972543851313478 -24.786770863567938 144 140 128
117.744647225369178 -2.174144980074349 -26.942434439920902 145 141 129
116.223377228822372 -2.074330956535062 -28.432869222346085 144 141 126
114.549153753994204 -2.056192479790779 -30.071008627449658 142 139 124
112.339405160766134 -2.300226965811569 -32.226268167970289 144 141 126
110.741769014793434 -2.271501252057634 -33.790296783507529 142 139 124
108.914634729080262 -2.362954356166810 -35.575873869463209 139 136 121
107.699694556844804 -2.174525273033703 -36.770332409471052 134 131 117
106.408315467332699 -2.031440630161512 -38.038614965282193 137 135 123
104.657851601891451 -2.120226488956564 -39.750039487867213 142 140 127
103.443137681761499 -1.959413439855624 -40.944322000395431 143 141 128
101.157028595066336 -2.334729241285784 -43.172558482974239 143 141 128
100.554735271450966 -1.890976586580399 -43.775862269806225 144 142 127
99.187168345152926 -1.833685423375478 -45.117672595184331 144 141 126
98.355488252547175 -1.516355862749967 -45.942513856347972 145 142 126
95.839843473067972 -2.058087766977185 -48.391804900496425 143 140 123
93.477253471088275 -2.539495811298110 -50.693219999525979 145 142 125
91.803640421296265 -2.683560887698594 -52.329981787217832 146 143 124
91.201920150230933 -2.284783448005467 -52.933096767943766 146 144 125
90.370649243892728 -2.009719068172276 -53.757698725677102 144 143 125
89.003509900247607 -2.021502252666226 -55.099002588169924 143 142 124
87.713006770326317 -2.002391513074446 -56.366428074381133 142 141 123
87.111784246330885 -1.625824653061044 -56.969552550944940 142 141 123
85.055624639795312 -2.032142166622107 -58.974900305672918 142 141 123
83.229205024622289 -2.329165246387415 -60.758703252536407 142 138 126
82.475087236647397 -2.057413886182690 -61.509322010140153 143 140 125
81.797699849633915 -1.748958707349688 -62.186167254477112 144 141 126
80.737441896473044 -1.655554434868441 -63.231929329930608 145 142 127
78.451553260395997 -2.247474042276966 -65.458041663542105 145 142 127
76.625271672335998 -2.599664938176772 -67.241342772057948 139 136 119
75.718394904020130 -2.449568133364881 -68.139347675468827 144 141 124
74.811629503348172 -2.305681087222187 -69.037341936613302 145 142 125
73.981604393917451 -2.124516016338227 -69.861573326558926 145 142 124
72.078819767952581 -2.561665763998140 -71.718260004751215 144 141 124
71.478881127403355 -2.263562539624736 -72.321191021136457 143 140 122
70.189286209391298 -2.368295106175323 -73.587776211448357 144 141 122
70.126169429795084 -1.768461952231956 -73.674614629340027 141 138 119
69.143402048759995 -1.707192410837287 -74.646258265032429 143 140 121
68.237396789370010 -1.607512847934269 -75.544161125327719 144 141 122
66.948152549725748 -1.741180941528174 -76.810616231052904 144 141 122
66.349040608052775 -1.472412446594764 -77.413640780240286 144 141 126
64.983263564798662 -1.667502471380865 -78.753709493178036 143 140 123
63.080693919949738 -2.196022873821751 -80.609558493548917 142 139 122
61.868321085334358 -2.319033331360272 -81.802039435428156 144 141 124
61.806537498515425 -1.747985597688047 -81.889219345383310 146 143 124
60.364241897922810 -2.024955013347677 -83.302697901991536 145 142 123
58.768521312718264 -2.406806045311296 -84.863416642534503 146 143 124
57.556394370059948 -2.561511480712314 -86.055688965953863 143 140 121
57.265081555899044 -2.149172135815711 -86.364005869896459 140 137 118
57.127465053849249 -1.642018841822220 -86.525108760493708 142 139 120
57.373829641878174 -0.892796518721952 -86.318104201926815 142 139 120
56.545979286658778 -0.824471680218219 -87.142214465634794 140 137 118
55.027397689778766 -1.203475518184186 -88.629006656459580 142 139 120
52.203717285411784 -2.432362671888119 -91.367296819021391 139 136 117
51.222386904669975 -2.489979336961482 -92.338404155281921 140 137 118
51.162561789453420 -1.955130699421809 -92.426148375857224 143 140 121
51.717366451105946 -1.018467097078961 -91.925194378835585 141 138 119
49.046895038266939 -2.198137638794482 -94.515568039258397 143 140 121
212.921028862955495 -2.236397816519922 64.436874498494376 151 151 148
209.553541505317526 -2.196129886270946 61.169663473071921 171 172 167
206.492717672746551 -2.079125133471775 58.198391317430293 179 178 174
202.128449268704173 -2.415831709327389 53.970751811929176 177 176 171
199.987671309047983 -2.038523270743892 51.886960046780843 172 172 164
197.003487917163710 -1.961888352823623 48.990297798926974 173 170 163
191.105561764687593 -2.903107503468553 43.285399756541665 177 174 165
188.351342020827360 -2.799508781223710 40.611022790500613 174 171 162
185.367083077306177 -2.795704112633735 37.715146364634023 174 171 162
183.149638192420809 -2.542543430284826 35.558450824024050 173 170 161
179.858645085846803 -2.687490343261182 32.367410605438778 171 168 159
176.797686765986953 -2.772940530261372 29.398286758455043 172 169 160
174.580276889084558 -2.573552305149396 27.242127977061358 172 170 158
172.976406488295311 -2.164748341553308 25.677169471298527 171 168 159
170.682373164215363 -2.022891600549764 23.447400399938175 166 163 154
167.774820371673655 -2.126646708410989 20.626794066102576 166 163 154
165.634207960301353 -1.961446005521820 18.545106434700017 159 156 149
161.806298815585563 -2.454224443213641 14.838493218543675 160 156 147
160.355992468168154 -2.059756458222855 13.421935533291872 162 158 149
157.831942492862709 -2.092209555674388 10.971423243418229 161 158 149
155.077793664883643 -2.232590901345683 8.299523760866805 158 155 146
152.783870253339302 -2.210551025494021 6.070935442909985 149 149 139
151.487159144630112 -1.807102477715706 4.802523650337292 151 151 141
149.270014171296481 -1.783012536778324 2.648042573285608 151 151 139
147.052893567159231 -1.774547594323337 0.493710674052608 152 150 138
144.375513918588666 -1.970110322379272 -2.103488026175000 152 150 137
142.081709862875641 -2.026198294083605 -4.331329234369463 149 147 132
140.708545253548550 -1.715098656518969 -5.673074225502774 150 147 132
138.338082677715676 -1.832460921145392 -7.974470418277150 145 143 130
136.121077541645718 -1.901546811308881 -10.128059287359406 147 144 131
134.210995713489808 -1.855189387852196 -11.986231991241596 146 142 130
132.838052971433854 -1.591000432264534 -13.327600247701440 145 141 129
130.928066845549921 -1.569589065315405 -15.185561952931096 148 142 130
129.018118660670211 -1.561602626329954 -17.043403619479477 147 141 129
126.801260757706686 -1.702465076052371 -19.196324092190167 145 141 129
124.891374760125800 -1.722415715268838 -21.053907938548861 144 140 128
122.290842112922320 -2.065412908842195 -23.575493478882265 145 141 129
120.304253541561749 -2.149338364173827 -25.506583436859188 147 143 131
118.547936494981599 -2.142378924193658 -27.216193372108961 145 141 129
117.635928514795253 -1.760284853591248 -28.114131585751466 143 140 125
115.956486345287871 -1.739461055431681 -29.749802026571018 141 138 123
114.200335059979636 -1.766178324639074 -31.459144610159683 143 140 125
111.983659072357398 -2.021479029732146 -33.610974140094783 140 137 122
110.381097862492680 -2.001833874617106 -35.172553151195984 136 133 118
108.548285605119105 -2.103184176839038 -36.955312038139681 133 129 117
107.636757773126504 -1.774995916973990 -37.852925073442464 139 137 125
105.804047157470208 -1.898776586431677 -39.635501698397292 141 139 126
104.355256069962749 -1.848339528941365 -41.049242995633080 142 140 127
102.292272225622014 -2.109533241315542 -43.052819890576160 142 140 127
101.073933673227771 -1.967624526179626 -44.245173799647119 143 141 126
98.934204407187835 -2.293045495831195 -46.322233709406902 144 141 126
97.715986625905472 -2.171355757678653 -47.514437270876527 145 142 125
96.190661674685501 -2.213278727040996 -49.001473206814808 143 140 123
95.126195473084124 -2.031474244062760 -50.046132018414113 144 141 124
93.216965489416481 -2.289751243324341 -51.901576486631456 145 142 123
91.307740883445945 -2.561434460092113 -53.756885530589102 146 144 126
89.859403932549071 -2.607185682343323 -55.169853970938561 145 144 126
89.256123650494672 -2.221217084706001 -55.772090799908682 143 142 124
88.422524012749264 -1.960605355504563 -56.595429932125683 142 141 123
87.589048195508596 -1.705676233696034 -57.418769805715158 142 141 123
85.603213099197490 -2.071325774148667 -59.347320296038788 142 141 124
83.694197773302918 -2.409666895694367 -61.202043315567579 142 138 126
83.168324353025056 -2.013590420875073 -61.730556482420184 143 140 125
82.796307504418195 -1.537325421751936 -62.111781756707103 144 141 126
81.117995063826868 -1.779093291488666 -63.745289668015232 146 143 128
78.517412613002065 -2.541128443765175 -66.262538014251362 146 143 126
76.454749941994010 -3.022993279795934 -68.263997078684440 144 141 124
75.468184441450546 -2.918357913956276 -69.234270093238990 144 141 124
74.942956320856325 -2.561238571085730 -69.762690963918914 144 141 124
74.110380790676459 -2.381492995111107 -70.585687629746076 143 140 123
72.893507854928572 -2.426212998437650 -71.776821621643563 145 142 125
72.291818487192856 -2.127021885185838 -72.378926294330569 144 141 124
71.305808843754846 -2.053401430618890 -73.349145976956777 144 141 122
71.088913848495167 -1.540544186818979 -73.583239906687595 144 141 122
69.718625017120146 -1.702018907734759 -74.921496214862998 143 140 121
69.117511491871596 -1.421462387199785 -75.523684553397942 144 141 122
67.362758456002169 -1.826385374801669 -77.229802993271704 143 140 121
67.146504495728820 -1.329337608914262 -77.464040857044552 143 140 123
65.007153350223973 -1.983293562020474 -79.537899882745734 141 138 121
63.406277182500091 -2.328457668697024 -81.096529847235217 139 136 119
61.420655521940787 -2.917608553608129 -83.022881832874987 146 143 126
61.897450752280278 -2.022072428305885 -82.595043930445797 144 141 124
61.989800957319588 -1.358184587474830 -82.535198798120405 143 140 121
60.389160432600619 -1.735875938145012 -84.093606674153051 144 141 122
58.480597689466492 -2.315497267371446 -85.946062589336606 142 139 120
58.496497855555162 -1.709628214172908 -85.959905688819276 141 138 119
58.050744049396968 -1.392602467696303 -86.415075210660717 143 140 121
58.067168590218060 -0.787214824266677 -86.429164213825374 140 137 118
57.159824276311340 -0.766860007620172 -87.325609945567237 138 135 116
54.866352857001743 -1.636220072449398 -89.545238867669582 140 137 118
52.726736829567812 -2.423166760631687 -91.617602234318838 140 137 118
50.509929559441233 -3.274975140679292 -93.763228805995794 139 136 117
50.758135070297854 -2.544599022878533 -93.556910945140856 142 139 120
50.929643096283471 -1.862083412482622 -93.424267503095336 140 137 118
49.791559526060297 -2.036337857852927 -94.540901809387549 143 140 121
215.098695023947471 -1.879056770319410 65.054291454396491 145 145 143
210.259215993050674 -2.306979941655432 60.389776712614605 166 166 163
204.573577273161675 -3.045607564615484 54.913812368533797 177 175 172
203.349067591811377 -2.350468865795176 53.718716032261625 178 177 172
201.278506541577229 -1.946463526715123 51.711916818641527 173 173 165
196.900342894369203 -2.335716017416099 47.491465631340247 175 172 165
191.137505478924396 -3.227957051642454 41.943155213688755 176 173 164
189.374609417620348 -2.782906078647568 40.232183160304260 173 170 161
186.996349826285865 -2.564428161859055 37.931060061321062 175 172 163
185.079675371293007 -2.200440480255958 36.072771719709152 174 171 162
182.547605009117603 -2.068457494057533 33.624403732207867 172 169 160
177.784540895352052 -2.754333133740159 29.036846475260148 172 169 159
174.867777807798859 -2.805194572089928 26.220101853876002 170 168 156
173.335835802828370 -2.370242418201679 24.731322778565499 169 166 157
171.880890392918332 -1.917638154626805 23.316385978988109 167 164 155
169.348868094242789 -1.876692373798551 20.868932089761387 165 162 153
166.816857110830455 -1.853566144757181 18.421656212949756 159 156 149
163.284602601165773 -2.228113786859063 15.015821363513140 163 159 150
160.906475670650423 -2.185175342058656 12.716441716017272 159 156 147
158.605312918771546 -2.129197363555595 10.490967331722544 158 155 146
156.535017956326385 -1.999287554668852 8.486862225602323 156 153 144
154.618658747688471 -1.823301281738423 6.630358264158019 153 153 143
151.855856138600018 -1.997159455741266 3.962943314638011 151 151 141
149.708690368483019 -1.943627647157298 1.885540251622587 152 152 140
147.099805823172744 -2.091933708989766 -0.634053822907873 151 149 137
145.106601828147745 -2.007396246343694 -2.563713058322776 149 147 134
143.344321659086148 -1.841828897011291 -4.272102887105973 150 148 133
141.351196945452926 -1.784441079872785 -6.201520585526907 151 148 133
138.742367714348688 -1.998770573199991 -8.720461509836241 149 147 134
136.364442668767708 -2.133973792529410 -11.018104036753044 147 144 132
134.756251799954072 -1.958254154368247 -12.578596391369075 146 142 130
133.225095542270935 -1.760744103807694 -14.065307254638299 146 142 130
130.847245912560794 -1.940328175022482 -16.362529025845731 147 141 129
129.470150329874230 -1.700048309423027 -17.701664469308469 147 141 129
127.554245085112967 -1.706353283959300 -19.556509190129816 144 140 128
125.792348313704352 -1.657822280422994 -21.263877721134833 144 140 128
123.722540138756827 -1.759224471397309 -23.265834694109600 145 141 129
121.960723256710608 -1.736437024979512 -24.972976452545879 144 140 128
119.890968985774279 -1.865767048181787 -26.974671737807938 144 140 128
118.360223774688237 -1.763049688691855 -28.460603495571320 143 140 125
117.137547519506512 -1.529024824565706 -29.651830460293837 144 141 126
115.375923110614892 -1.553873431709910 -31.358573955397929 143 140 125
113.383314637293282 -1.699168630693407 -33.286152303310189 138 135 120
110.697619699233201 -2.185281914913168 -35.876382214713828 135 132 117
109.398154681090944 -2.031632032348651 -37.140905243304218 136 133 119
107.097524278836659 -2.366264238211545 -39.362613554981323 139 137 125
105.259013106251317 -2.494205610661401 -41.142372385177879 142 140 127
103.882684301964844 -2.410517904880416 -42.480262771032756 143 141 128
102.275335297768251 -2.449463738844139 -44.038948211252631 141 139 126
101.284301068639195 -2.195907831876587 -45.008616315310491 142 140 125
99.600035918668326 -2.293315008858615 -46.640762447986759 145 142 127
97.992848026220202 -2.363966026699658 -48.199198606129869 142 139 123
97.387294727603518 -1.941569335008778 -48.800723004439902 142 139 122
96.704840019549849 -1.562288417289558 -49.475873104670711 145 142 125
95.097879634070253 -1.659675638939981 -51.034142892190857 145 142 123
92.412143515296265 -2.322871020042439 -53.622530307900462 146 144 125
90.342823295141542 -2.685861370517740 -55.622028058439184 145 144 126
89.891893197471987 -2.219875964771728 -56.076254576768235 144 143 125
89.364060696317878 -1.797259782645192 -56.604103712584561 142 141 123
87.988550775830859 -1.826014057715449 -57.941228427847335 142 141 123
85.842289783018259 -2.274252596781949 -60.013899358967763 142 141 123
84.466849078997242 -2.324854074358938 -61.350832302920054 142 138 126
84.093644703897738 -1.844885651622692 -61.731527589802994 143 140 125
83.103858652737429 -1.701854357738987 -62.700655132557472 144 141 126
81.959976037545857 -1.649793733231642 -63.816844770319392 144 141 126
78.888523901259134 -2.665048600018403 -66.771377464831488 144 141 124
77.744676501931735 -2.635664894177396 -67.887350524826445 145 142 125
76.369558821598801 -2.742952703376458 -69.223854501315742 144 141 124
75.611466722380257 -2.514099985071409 -69.972130384771873 145 142 125
74.776381061643477 -2.333828670689563 -70.793931624434151 144 141 124
74.018552745689362 -2.115436796079537 -71.542226022180529 144 141 124
73.029441238150838 -2.034261084291538 -72.511039553711328 143 140 123
72.734739762008005 -1.560935776288937 -72.818363092532110 145 142 125
71.668731548880928 -1.535351602744188 -73.860676156979821 145 142 125
69.831234270452313 -1.965864875353774 -75.637805506098204 144 141 124
68.070862768896419 -2.364099299237483 -77.341304939992398 146 143 126
67.853869168367765 -1.865900289480799 -77.575200812733868 145 142 125
66.942509833402355 -1.780309290004913 -78.470397280965301 143 140 123
65.722526325229325 -1.884883842017623 -79.659427072738765 141 138 121
62.881602858964243 -2.969693591712052 -82.390951274690508 139 136 119
61.044007344562033 -3.469439836714527 -84.167320978291343 144 141 124
62.062901606947847 -2.249089258814787 -83.226152678523135 141 138 121
61.846874923019726 -1.774776238038723 -83.460265250368110 140 137 118
61.399428796192893 -1.443770922860805 -83.914769070525864 142 139 120
59.407660210495663 -2.069171385440035 -85.837807253136447 142 139 120
58.110888078899961 -2.276950295484803 -87.099898181291707 139 136 117
57.741035374322038 -1.914774542870749 -87.480984396736091 141 138 119
58.298379169614478 -0.972489958964430 -86.981302972131289 134 131 112
55.920372299710962 -1.880364850734180 -89.270952856891370 140 137 118
53.696693509515001 -2.706945686272672 -91.413551796709555 138 135 116
52.400112283840315 -2.956803756162781 -92.675300911672082 139 136 117
51.335389159523956 -3.066674512708563 -93.716834452559709 144 141 122
51.043625388764170 -2.684417432541311 -94.024625968548264 143 140 121
52.298061316287871 -1.299259016098930 -92.865259789125815 143 140 122
51.079255356755255 -1.520641475108779 -94.053650553666586 144 141 123
209.882941304875033 -2.765754992473339 58.579047707174482 158 157 155
208.423183454169077 -2.126382014914783 57.164490658580632 176 172 171
203.876945317805735 -2.513630041540456 52.802707327983541 179 176 171
201.105429861547179 -2.342190874345902 50.135906255689036 176 173 166
195.092919707904286 -3.280260890506300 44.374933506157134 176 172 163
193.093020618175956 -2.896941298372215 42.445401666545422 177 174 165
191.556175366174045 -2.368675224263962 40.958007760750149 174 171 162
188.707468287513848 -2.306247724531277 38.218398122957382 174 171 162
186.167452672858332 -2.155668098389741 35.773639692451468 174 171 162
183.010047704132631 -2.241423318802786 32.739799846635378 172 169 160
178.617793990972189 -2.790717192910204 28.527736684946376 172 169 159
175.228787835237824 -3.008758651959112 25.273479087080574 170 168 156
173.846449528868163 -2.519261000626986 23.934286420792432 169 166 157
172.232631090496454 -2.124627218746282 22.374232882909013 166 163 154
169.383916248091253 -2.200053927639365 19.636045961886623 164 161 152
165.994889333261426 -2.498094674897247 16.382621767962661 162 159 152
163.377713670957462 -2.527765594580013 13.865772964267080 160 157 149
161.764022121025903 -2.192427963123887 12.306269088452950 160 157 148
159.610039311125945 -2.076703555090344 10.231487094233813 159 156 147
158.459621352444628 -1.585616908455920 9.113904827002557 158 155 146
155.765344692815063 -1.708672645905934 6.524043248068750 156 155 145
152.993866095539119 -1.881204602432678 3.860765210136066 150 150 140
150.222379110480915 -2.073177168245943 1.197691296847182 150 150 138
147.528086311714077 -2.253464864094611 -1.391573443879963 152 150 138
145.760265690090449 -2.075879225670577 -3.097436449435747 151 149 136
144.455749573233049 -1.720621988650706 -4.361618295492804 151 149 134
142.533621345206001 -1.629978745306448 -6.214483899159688 150 147 132
139.839392346489035 -1.874924600199270 -8.803113602699540 147 145 132
137.531234564346647 -1.976317412267755 -11.023621691889588 145 142 129
135.918063267736159 -1.799016975497599 -12.581747698873272 147 143 131
133.301064439465506 -2.062408076860046 -15.096275300123267 146 142 130
131.765201145033643 -1.877835247126505 -16.580601163833165 145 139 127
129.457125385292613 -2.039762483282030 -18.800525381021885 147 141 129
128.461976072651964 -1.642327015994690 -19.769705867826332 144 140 129
126.771830105541966 -1.558898532290319 -21.400900070040478 144 140 129
125.081736201580071 -1.487248184047273 -23.031997940821100 144 140 129
123.932370986424132 -1.184653984224403 -24.148143589500904 143 139 128
121.624459632877063 -1.414220931958928 -26.367450208518676 143 139 128
119.084810086447661 -1.765602531223877 -28.807216825752391 143 140 125
117.240380864770003 -1.815319337579442 -30.584949686304014 144 141 126
115.782248733139113 -1.699054798533148 -31.994899855386166 142 139 124
113.628880681200741 -1.917302397156896 -34.066538206069225 138 135 120
111.475517114155991 -2.150604545034911 -36.138023738271841 137 134 119
108.858578346688347 -2.618510095207281 -38.650474902443250 139 136 123
107.864192523850718 -2.330582900712596 -39.618893416488362 140 138 126
106.019941838216099 -2.458021755179444 -41.395911655985600 143 141 128
104.407538142138463 -2.486076872093739 -42.952291052557285 144 142 129
102.949736268188332 -2.449965558256511 -44.361574158369223 142 140 127
102.419374858023346 -1.968398274131574 -44.888820286090521 141 139 124
100.729884363079861 -2.063926958154537 -46.518485967914614 145 142 127
99.195008750576406 -2.094184720930204 -48.001072976063256 140 137 121
98.046652616280340 -1.941153364616875 -49.116161840085397 144 141 124
96.975685798245522 -1.756959809683485 -50.157735370983062 145 142 125
95.595609375435842 -1.737473001695890 -51.493172056889421 145 142 123
93.287916976131058 -2.202917391199491 -53.710155417863461 144 142 124
91.057492236992729 -2.644634675136367 -55.853488712706309 143 142 124
89.600186490406699 -2.700300921717230 -57.262064451614151 143 142 124
88.838814707129586 -2.402082987835797 -58.009485356468474 142 141 123
87.690951302531673 -2.312587697147353 -59.124155932048069 143 142 124
86.311184709367311 -2.353964322125970 -60.459114341504062 142 141 124
85.395484184633474 -2.157254497937415 -61.353377801314679 143 139 127
85.175958343690922 -1.592833580351017 -61.586743914286245 142 139 124
83.641774910795462 -1.740673426834503 -63.068451727330995 144 141 126
82.494376148129803 -1.688648276065704 -64.182958887044748 144 141 126
80.573506452318526 -2.068287570237308 -66.031585713801434 144 141 124
79.503582683551713 -1.992124492879568 -67.072546223918039 143 140 123
78.279018905815462 -2.009145599977292 -68.260286062023880 143 140 123
77.441385352959543 -1.818533257751768 -69.080974844224301 144 141 124
75.907477586391252 -2.024971135262961 -70.562211356124607 144 141 124
74.450974740130064 -2.198287558032370 -71.969960167429946 142 139 122
73.768397829943453 -1.941235586284909 -72.643793642635757 141 138 121
73.085969894348551 -1.688705301167350 -73.317651842783675 142 139 122
71.939281378917826 -1.708310598541016 -74.431761454153246 143 140 123
69.786364313870607 -2.319242294854861 -76.499573460734126 144 141 124
68.484913790459089 -2.448515484734215 -77.760234361096479 142 139 122
67.338350464131139 -2.495884134435041 -78.874118080371119 140 137 120
67.043559416652755 -2.048187790338141 -79.181134956771643 141 138 121
65.742339899858521 -2.200195139867399 -80.441672355781890 140 137 120
63.666750255375050 -2.823981055160958 -82.435486335450406 139 136 119
62.288092129054547 -3.043304030925865 -83.769143340463813 139 136 119
61.064365030295704 -3.178485294307484 -84.956067161077385 139 136 119
61.312470518713752 -2.426764102680778 -84.749921165398405 141 138 119
61.793309726990614 -1.530569492440393 -84.324024666269111 141 138 119
59.485341925970587 -2.347060246023114 -86.537262779430478 139 136 117
57.952055095276933 -2.700184533970178 -88.017286428013250 140 137 118
58.433556572573806 -1.809520827074707 -87.591649823746422 138 135 116
56.667928034014665 -2.322246038156246 -89.291455797970031 140 137 118
55.289768991259393 -2.603273760989787 -90.624716404890989 138 135 116
54.531746932858653 -2.501080523845230 -91.371722025966335 140 137 118
53.231181854028947 -2.749563230142392 -92.631579436543376 140 137 118
52.318298502861822 -2.758717994321406 -93.525071554906305 140 137 118
52.878813031652612 -1.825039014160751 -93.026818416536344 141 138 119
51.578534390111614 -2.092249112976953 -94.286620087271388 141 138 121
52.760178717017297 -0.751960782851914 -93.202827670203192 146 143 126
213.058759575470873 -2.080544794675669 60.156742697302633 149 148 146
208.033819137698686 -2.589600775295245 55.360069427784111 170 166 164
203.086195754887967 -3.108496016664626 50.637368109566808 179 176 171
200.693026530932343 -2.814694793425589 48.342602387091006 176 173 168
198.377286433649090 -2.511700370574721 46.121559090518645 176 171 165
192.423118341106658 -3.457374279229552 40.443612854541925 176 173 164
191.887897096813560 -2.590206675771043 39.914722477013527 175 172 163
190.268935383851613 -2.101464451020816 38.356160758585901 173 170 161
184.933911555379609 -2.921870698281880 33.267599665322734 173 170 161
182.540762705584541 -2.741898620323096 30.973995896493619 171 168 159
180.379900097098300 -2.495920898303973 28.901164411541714 171 168 159
177.212546028479352 -2.627158544560741 25.872552354469548 171 169 157
174.277451231832799 -2.696195025171495 23.064764644720185 169 166 157
171.884346670350340 -2.586984282811238 20.771868070488864 169 166 157
168.871814549938279 -2.723873647666696 17.890965669899487 167 164 155
166.168997289884203 -2.766075561687410 15.304357615911954 165 162 155
163.930788246446923 -2.651890311021949 13.159026121513250 161 158 151
162.931593932690134 -2.081535706585511 12.190000805831801 159 156 148
161.390419996507148 -1.726420842766625 10.706460060102472 160 157 148
158.687691091979161 -1.832523331584568 8.120467497851479 157 154 145
156.449620883261730 -1.775693050805361 5.975659968916375 160 158 146
153.359669678704734 -2.070843615397947 3.022564769923463 155 153 141
150.966723910639814 -2.109963214745870 0.731119068187439 157 155 143
148.728691804262354 -2.103550720694717 -1.413187713169918 153 151 139
146.800493299664936 -1.987177299966157 -3.263414170974215 150 148 136
145.491980177680546 -1.630894773276589 -4.525694417300770 150 148 136
143.176591587935604 -1.698917458906349 -6.743086808394025 148 146 134
140.241530472323575 -2.040813794837224 -9.548081947471019 145 143 131
138.545854840144813 -1.883445463317806 -11.177391876868171 145 141 130
137.160098337377292 -1.606828238048926 -12.512758004548687 146 142 131
135.154666516857759 -1.604079698171701 -14.435725595691167 145 141 130
132.529491838270189 -1.881752384325592 -16.946194890647320 146 139 129
130.446624345227946 -1.942709677376459 -18.942320650261280 146 140 130
128.983601173237787 -1.747359347672593 -20.350745032173165 144 140 129
127.210725387151825 -1.698653591634991 -22.052863039004677 145 141 129
125.980281167985225 -1.421474134044507 -23.240818048292709 145 141 129
124.285004384693849 -1.360827082040299 -24.869323184911792 144 140 128
122.744758450534547 -1.242058879818200 -26.350875048710179 143 139 127
120.507135697842500 -1.450953064413972 -28.493161403663436 144 141 126
118.192019072895306 -1.710944448501075 -30.708707871533676 144 141 126
115.954396220289482 -1.951318043588703 -32.850670145302502 142 139 124
114.414303041988120 -1.882911782458968 -34.331776686220394 139 136 121
112.099198633937391 -2.188342076499410 -36.546861273085312 141 138 123
110.249144561300909 -2.290378766798125 -38.321364669369956 143 140 126
108.709175450185853 -2.257815269770107 -39.802161616027718 141 139 126
106.781671915110948 -2.421615827458953 -41.649836573362279 143 141 128
104.234009981639318 -2.898140867565377 -44.084481927795878 145 143 130
103.004238976309367 -2.751755213582556 -45.271412673950124 142 140 126
102.162200369198217 -2.424013241853394 -46.091405637458593 140 138 123
101.552887151984024 -1.987265588191281 -46.691279025260371 144 141 126
99.703116011980242 -2.170797956965241 -48.465078899588207 142 139 122
98.706325337778068 -1.940505728063312 -49.431753675329475 144 141 124
96.546445938585009 -2.302981841267043 -51.498792403250178 145 142 125
95.627358071399726 -2.051077402956055 -52.392003515933453 145 142 123
