ply
format ascii 1.0
element vertex 682
property double x
property double y
property double z
property uchar red
property uchar green
property uchar blue
end_header
-103.591186865712473 -23.274118828846987 -17.618743991522052 3 9 7
-103.598263256938736 -22.658473724695394 -17.510836929625356 4 10 6
-103.598557534502305 -21.881646712953955 -16.964397994321502 4 10 6
-103.597389878392192 -21.061297274542913 -16.308247556357088 4 10 6
-103.596529075343312 -20.237194091572064 -15.651988960118445 4 10 6
-103.601214957042359 -19.532014269265805 -15.324429365776979 4 10 6
-103.611409646116016 -18.948260307290489 -15.325561134252013 3 9 5
-103.625338336721185 -18.446982665302471 -15.545775368840253 3 9 5
-103.637785313713735 -17.904645177565254 -15.656262214840439 3 9 5
-103.660839901743557 -17.614507973789959 -16.424231701385651 3 9 5
-103.673781266195093 -17.074058335551836 -16.534462601536802 2 8 4
-103.669856581198516 -16.107936713103644 -15.548554968299811 3 9 5
-103.671440164518245 -15.264853203997809 -14.891322360032945 4 10 6
-103.686997268649151 -14.763010814078317 -15.110763380406354 3 9 5
-103.714695899582651 -14.565725458882714 -16.097273171863691 2 8 4
-103.734132838015000 -14.154490158350896 -16.535643198359082 3 9 5
-103.728565364873219 -13.085250328623729 -15.329865147008519 5 11 7
-103.730151521948599 -12.186334374118585 -14.562347133953523 6 12 12
-103.743834518682633 -11.594750115504187 -14.561890709177703 8 14 12
-103.772809877906795 -11.406072225962539 -15.547701117228996 8 14 12
-103.780438303274451 -10.635460246468721 -15.108548461226434 4 10 8
-103.801648093073993 -10.225167650684462 -15.546060657970997 3 9 5
-103.832988086910078 -10.090622897593338 -16.641041498282164 1 7 3
-103.879237048405670 -10.374809157714676 -18.722309695181508 3 9 5
-103.896227974817378 -9.836748262259153 -18.830578710242150 10 16 14
-103.915161897914942 -9.345170863190958 -19.048298609289134 10 16 14
-103.939245586790307 -8.994548775016041 -19.594680608976546 10 16 16
-103.968411224421004 -8.787435099584407 -20.469730872375408 10 16 15
-103.991410194963436 -8.394695670152439 -20.906206447626175 10 16 14
-103.992457870910073 -7.336198295581606 -19.808012039059577 10 16 14
-104.006674192916165 -6.654961629572789 -19.586505540727586 11 17 17
-104.022862122251567 -6.020135223239899 -19.474436993010386 16 22 22
-104.051939061513707 -5.772263292140973 -20.239090349685057 23 29 29
-104.064177744812099 -4.990722333587890 -19.797844659562799 13 19 19
-104.079959320583143 -4.304362761974783 -19.575642081835724 15 21 21
-104.106909427283426 -3.961842325193519 -20.120569402693206 11 17 17
-104.135681508635940 -3.671122499121988 -20.774950772334307 17 23 23
-104.175341825873758 -3.732857493892050 -22.196507447163896 17 23 23
-104.198583581227268 -3.248511233159587 -22.412092060286199 18 24 24
-104.228170669499448 -2.966706354959357 -23.065991767373589 19 25 25
-104.243193841914987 -2.179233994387008 -22.623475042102768 19 25 24
-104.271985550169219 -1.848735267405758 -23.167397601591148 21 27 25
-104.289382322865421 -1.108994312947260 -22.834112915661194 23 29 27
-104.351604547441539 -0.557632718175873 -24.140328077624872 17 23 19
-103.413733051718140 -153.042401829534356 -16.035290506200766 183 187 188
-103.429517650058784 -152.201735077425042 -17.366699232699546 196 200 201
-103.438050719536363 -151.458398585879451 -18.257139656801826 193 197 198
-103.446730288106863 -150.719529082442449 -19.147464015287596 108 112 113
-103.448103186253874 -150.073614593507017 -19.596891487516075 131 135 136
-103.455189133285614 -149.364425575336952 -20.376813828018015 138 139 141
-103.462406623800192 -148.659145881910945 -21.156632997925186 112 113 115
-103.473495076403623 -147.915162153204079 -22.156716482756906 94 96 95
-103.479098697232175 -147.239267385737492 -22.826146363664861 64 66 65
-103.479189648876783 -146.629004112476366 -23.164961253912907 40 42 39
-103.473740887430552 -146.081915679170066 -23.173199378789661 37 39 36
-103.468372418508139 -145.534903134612733 -23.181398310837181 30 32 29
-103.461197692812974 -145.007905812516469 -23.079396438273449 28 30 25
-103.450319793774682 -144.519773183961632 -22.757048327488121 27 29 24
-103.445171140507142 -143.971883714658844 -22.765151127106776 29 31 26
-103.438203375954700 -143.443185090517375 -22.663067757398352 23 26 19
-103.435092005772049 -142.876301529952372 -22.781250328416064 20 22 18
-103.428260732085107 -142.347184079760666 -22.679105973132408 18 20 17
-103.417693249913413 -141.854196555563959 -22.356659333861842 19 21 18
-103.412884476320613 -141.305527399675498 -22.364607561914823 21 23 20
-103.406236193045700 -140.774676744059320 -22.262393505399388 27 29 26
-103.403460322010517 -140.208353906995711 -22.380409802966255 28 30 27
-103.398841723509818 -139.659845601193297 -22.388265396196289 29 31 28
-103.398106118963156 -139.077494526287239 -22.616329508893017 31 33 30
-103.393610857647730 -138.529628161670360 -22.624119490213275 32 34 31
-103.387256840143067 -137.998209770807676 -22.521770501946065 28 30 27
-103.375200016876789 -137.514680895787990 -22.089080110802058 26 28 25
-103.367020415046568 -136.997302366500747 -21.876601071549999 24 26 23
-103.358885070559651 -136.478876537338351 -21.664111640120296 23 25 22
-103.354641452904630 -135.928774724992934 -21.671804246562431 21 23 20
-103.350447827040782 -135.378710816259172 -21.679472546942122 20 22 19
-103.342445786814110 -134.858222349625976 -21.466940574974956 21 23 20
-103.334482855455306 -134.336680764160405 -21.254400733740596 22 24 21
-103.326557814654421 -133.814084723472803 -21.041853619830533 21 23 20
-103.318669463383813 -133.290432929348611 -20.829299821175425 21 23 20
-103.308880141683247 -132.779405732586383 -20.506666604014896 22 24 21
-103.297182864025388 -132.280186083390760 -20.073965720505186 23 25 22
-103.281630447370773 -131.805094793133492 -19.421142987116667 22 24 21
-103.269979420206710 -131.301035996356262 -18.988469789306293 19 21 18
-103.258351947731455 -130.794827989716225 -18.555807445910347 17 19 16
-103.250639001248885 -130.261825693859919 -18.343265983617499 15 17 14
-103.242955025531543 -129.727759709207845 -18.130721610892977 14 16 13
-103.235298955693764 -129.192629017919842 -17.918174847651642 11 13 10
-103.225718280154126 -128.667939067333549 -17.595582452471547 12 14 11
-103.218113105942805 -128.130404196106923 -17.383036088368812 10 15 9
-103.212487810334281 -127.580839025093098 -17.280525275968614 11 16 10
-103.208846697414685 -127.020058150197499 -17.288039571166109 11 16 10
-103.203276891364240 -126.469714348337959 -17.185510227589987 14 16 11
-103.207533901788025 -125.868107570851407 -17.633101868858915 14 16 11
-103.203984461663765 -125.308193428947476 -17.640563386387242 14 16 12
-103.200461806800007 -124.748294710458453 -17.648011931177791 15 17 14
-103.193034125939121 -124.207074445672120 -17.435418590471926 16 18 14
-103.189558798639766 -123.646660712774860 -17.442849795219900 15 17 12
-103.186107454118599 -123.086260179360963 -17.450269390820068 15 18 11
-103.182679196005850 -122.525872159160002 -17.457677813156835 15 18 9
-103.179273151195019 -121.965495994655427 -17.465075486689472 15 17 12
-103.175888469863438 -121.405131056326226 -17.472462824450162 15 17 12
-103.174499695127750 -120.837075438828009 -17.589833376281433 15 17 12
-103.169179914890478 -120.284432475530707 -17.487208087636986 18 20 15
-103.161897249621063 -119.738413330705555 -17.274594769252161 20 22 17
-103.156606574361078 -119.184430129986509 -17.171969352623421 18 22 16
-103.157275600434360 -118.610068925908834 -17.399279251091968 17 24 16
-103.152017581935752 -118.055830472538574 -17.296640839024320 17 24 16
-103.142802539642105 -117.513197866731517 -16.974058218916412 15 20 14
-103.135580028113566 -116.963142875284802 -16.761457666184924 19 24 18
-103.136318488743612 -116.389897972141483 -16.988722856753242 16 21 15
-103.139067045351041 -115.812490546569578 -17.325928156150923 19 20 15
-103.135864850914174 -115.251671363026105 -17.333232868580893 18 20 15
-103.132675658294460 -114.690857763094954 -17.340531303511199 19 21 16
-103.123516018201727 -114.143371154990248 -17.017972143864398 17 20 13
-103.116354946361554 -113.590090360460522 -16.805375403408192 20 23 16
-103.119186026533185 -113.016241535603328 -17.142504593350793 23 26 19
-103.128033882584589 -112.433150880941838 -17.809427163894554 21 24 17
-103.132909661917083 -111.860032242928767 -18.256429545507729 19 22 15
-103.129799944049864 -111.301419271599514 -18.263667307813108 19 20 14
-103.122693020553243 -110.748430597882987 -18.051041656028730 20 21 16
-103.125613973246885 -110.181665100015820 -18.388054939021742 19 20 15
-103.124539983965889 -109.621066840293921 -18.505198136240637 18 19 14
-103.127493392644709 -109.057024293509656 -18.842167863698222 19 18 14
-103.120416951156344 -108.503232579712702 -18.629535895520490 19 18 14
-103.113342523199719 -107.948356619583109 -18.416914124768226 22 19 16
-103.106269871031486 -107.392396241995030 -18.204302666938588 21 18 15
-103.107254219548494 -106.831717166602303 -18.431320879207050 22 17 14
-103.108251744322217 -106.272126847903110 -18.658321580879914 23 18 15
-103.107245426095574 -105.713990279631503 -18.775407065071590 23 17 14
-103.104230670905039 -105.156492249939731 -18.782587920903609 23 16 13
-103.101222672326614 -104.598995770369754 -18.789765528439375 23 14 10
-103.100242517802840 -104.041950595912013 -18.906827261740460 26 17 14
-103.103317156238049 -103.486893217357206 -19.243646504447810 32 21 12
-103.102358756408833 -102.931480540165296 -19.360681026263194 31 19 10
-103.099384098312925 -102.375347277621060 -19.367828651548734 25 11 3
-103.094388798097057 -101.817678249719194 -19.265099868582126 27 11 4
-103.097510875144664 -101.266699819347167 -19.601854430157204 31 15 8
-103.102677939368064 -100.719432058302274 -20.048451366013978 40 21 14
-103.105831617386130 -100.171986531495548 -20.385154443841856 67 43 32
-103.104934834166784 -99.620924706831858 -20.502114702971539 94 66 57
-103.112184418600847 -99.081986546602337 -21.058488512452698 103 72 64
-103.119455011265089 -98.545765226654083 -21.614824305866676 106 69 61
-103.126746701490816 -98.012260599449434 -22.171122041996398 108 68 63
-103.142213644829170 -97.496312805822782 -23.166763583433607 114 70 65
-103.159753226229526 -96.989236599378572 -24.272181147143158 115 72 66
-103.175287109377365 -96.483339995910768 -25.267687202855342 116 73 66
-103.176554600458900 -95.950657088720916 -25.494281782068100 119 74 68
-103.183967963891206 -95.433450376393239 -26.050353547527664 120 76 68
-103.187312214001722 -94.908822410598475 -26.386730583701734 119 74 67
-103.194767089360681 -94.396503563713068 -26.942732176743448 113 75 68
-103.187905876858309 -93.847617099523006 -26.729946751558145 111 75 66
-103.181047980012437 -93.297642166555022 -26.517170944330076 87 61 50
-103.178296099054208 -92.758888969198665 -26.524033092054594 93 87 75
-103.194026710736594 -92.277975728775232 -27.519187867203783 38 39 31
-103.199522603941375 -91.768457441392826 -27.965238918106905 46 50 43
-103.205039919814027 -91.261109953337950 -28.411257375351141 38 41 34
-103.198239112092892 -90.712481143588150 -28.198440400558979 121 124 114
-103.189386164116598 -90.155248606487120 -27.875834840197996 54 56 45
-103.176418168481575 -89.580811569421343 -27.333657229251770 71 61 51
-103.173752648620606 -89.043938924145692 -27.340458704656101 88 57 54
-103.171100063538205 -88.507061976086533 -27.347254036397430 107 69 64
-103.172587773724800 -87.987381276721862 -27.573609425288254 110 65 62
-103.169965427551048 -87.451038004268995 -27.580384797448232 117 69 68
-103.171489854322616 -86.932977010109099 -27.806705948811356 128 82 82
-103.168900118106762 -86.397165802314390 -27.813460243670391 137 91 91
-103.168394990412423 -85.871035552274790 -27.929976502917214 138 93 91
-103.161699182040749 -85.315564900495772 -27.717179723313194 140 96 93
-103.163300528259214 -84.799922987272225 -27.943439175861272 141 97 94
-103.158707437183708 -84.253852787232290 -27.840398584858661 142 97 94
-103.162425762677259 -83.750327496786554 -28.176379444213239 144 99 96
-103.153720821769269 -83.182148190539763 -27.853815758372150 149 103 100
-103.157486514675540 -82.680234857053861 -28.189757364636108 140 92 92
-103.152970571517301 -82.133584261122508 -28.086685840640769 133 85 85
-103.154710406407560 -81.621962820221199 -28.312837655941621 125 80 82
-103.143997941252948 -81.038619566804826 -27.880531568024338 127 84 85
-103.133299464771071 -80.453090087980101 -27.448241291890383 132 90 91
-103.120533633632220 -79.852697151115933 -26.906234143257848 129 89 88
-103.103614420390343 -79.223676393153383 -26.144790869089860 117 74 72
-103.086705429687072 -78.590836176556721 -25.383382020100868 89 49 49
-103.057292645381025 -77.873224916605267 -23.963674224523743 97 68 70
-103.023704957728185 -77.121003482544978 -22.324602178465142 17 7 6
-102.994289777745550 -76.388681273940350 -20.905046956156184 12 15 14
-102.987858669073546 -75.806652466623177 -20.692396921559777 12 18 16
-102.977274971925141 -75.194358816591304 -20.260327232445491 15 20 19
-102.979264704908232 -74.668974956108286 -20.486501160853720 13 17 16
-102.983385899224530 -74.159779473217853 -20.822347655283750 9 13 12
-102.974988188608634 -73.559825107581815 -20.499964068172687 10 14 13
-102.960337774657773 -72.911216430775454 -19.848495921409892 10 14 14
-102.952000161959361 -72.307134967884394 -19.526126065946499 11 15 16
-102.954178784010992 -71.782446666357387 -19.752202470734005 10 14 16
-102.945914769073511 -71.176407847838249 -19.429817554398795 13 17 20
-102.939785620186683 -70.585462534584977 -19.217114845351063 19 23 26
-102.935795579075346 -70.010425048803526 -19.114083932136737 17 22 26
-102.931848548865744 -69.434811858556742 -19.011038368669716 22 27 30
-102.932148160934048 -68.893761199778822 -19.127323226434982 14 20 21
-102.928293091670923 -68.317536051207213 -19.024239968360860 9 15 15
-102.928690864332069 -67.776958317344580 -19.140472998381256 17 23 23
-102.922829767091727 -67.181729140596502 -18.927686150303629 17 23 21
-102.910704126182665 -66.529398597471328 -18.385907356732048 20 26 25
-102.902834449376329 -65.912166198253232 -18.063449011535880 10 16 16
-102.901332841084184 -65.350864436331477 -18.069945136805018 8 14 14
-102.906207349051741 -64.847940257628494 -18.405366694881991 16 22 22
-102.904822106805881 -64.287363304596582 -18.411799690211410 26 32 32
-102.895064722695622 -63.646664150236163 -17.979627087897825 11 17 17
-102.891688876141473 -63.064608963724879 -17.876374582831602 10 16 14
-102.884156364603342 -62.440831269718188 -17.553822312934130 15 21 19
-102.893561917007318 -61.982045790566865 -18.108339662916904 10 16 14
-102.888267634245835 -61.378175169423656 -17.895370603463761 10 16 14
-102.887260221506907 -60.815915752965068 -17.901640164893450 17 23 21
-102.875766609161914 -60.145335989173397 -17.359746859419175 4 10 9
-102.879120399851018 -59.625438934961451 -17.585211748843136 6 12 12
-102.878324816081843 -59.062172442536827 -17.591390338358593 14 20 20
-102.879716052375286 -58.521306835589087 -17.707151062004897 11 17 17
-102.870621448691850 -57.867208472043544 -17.274799312598248 10 16 16
-102.861602757335874 -57.210857310838549 -16.842434436172340 9 15 15
-102.852662261507817 -56.552250355094991 -16.410055371300331 8 13 16
-102.864934947151625 -56.126974086228785 -17.073715052354345 7 12 15
-102.864613081033824 -55.561898285186238 -17.079685641091658 6 11 14
-102.862263446126065 -54.972634466439160 -16.976016401964301 8 13 16
-102.840978886118890 -54.163347050251787 -15.885940415235495 16 21 24
-102.828237968854936 -53.447114003373137 -15.234254863415657 15 20 23
-102.819816554741024 -52.777359508813070 -14.801742218847949 12 18 18
-102.819944205850959 -52.206106777715334 -14.807561342328427 9 15 15
-102.824395314052779 -51.685690413725091 -15.032506624331972 13 19 19
-102.820491223219037 -51.063299399402261 -14.819063141536645 14 20 20
-102.831480200025737 -50.621807452858611 -15.372644975694044 11 17 17
-102.832005232873840 -50.051502069159511 -15.378264241590387 10 16 16
-102.838972559863862 -49.560763899381321 -15.712559165509020 12 18 18
-102.835483633424658 -48.937383499514304 -15.498927253732774 8 14 14
-102.844775864308815 -48.475428186472065 -15.942672560114346 11 17 17
-102.837284937090701 -47.796500525235530 -15.509809197817930 13 19 18
-102.836243679256754 -47.198218209362601 -15.405606867504616 13 18 18
-102.828988400457263 -46.515480657353720 -14.972669988932097 8 12 12
-102.836623389645240 -46.027817701784436 -15.306613850819076 13 18 16
-102.838047899238717 -45.456238351301764 -15.311815923703676 11 16 14
-102.839594992586584 -44.884516749812370 -15.316960817201476 7 12 9
-102.845481819163808 -44.370689061646949 -15.541151435905363 6 12 9
-102.840959799901370 -43.711336639830165 -15.217525145366835 5 12 11
-102.836572893495784 -43.050187071558533 -14.893852716232090 6 14 13
-102.834428721624008 -42.417076783934185 -14.679677633102813 5 14 15
-102.845045067825581 -41.963399139400714 -15.122704281054894 10 21 21
-102.866302250637517 -41.663691856181529 -16.113349919571647 12 23 25
-102.877171415566949 -41.215428354188795 -16.556199889421947 10 21 23
-102.875571991591585 -40.583556138773687 -16.341751456667083 17 28 30
-102.884615278015772 -40.106465277195667 -16.674912770109046 22 32 34
-102.902186089024781 -39.756779413449046 -17.446118641055989 18 28 30
-102.911501967794919 -39.283702661204359 -17.779108228010131 22 32 34
-102.895827845420840 -38.427656341596588 -16.797688424951730 16 24 27
-102.886614338227830 -37.663396538374549 -16.144809735774459 13 23 25
-102.883850987914627 -36.993387976719724 -15.820451793039439 15 25 27
-102.881258228340045 -36.321518990682442 -15.496031390562536 14 24 26
-102.885101787283460 -35.747186106686051 -15.500104542033654 14 24 26
-102.895367882686941 -35.272858241517795 -15.832652426941337 14 24 26
-102.907874308864081 -34.833637224197439 -16.274626057785497 15 21 24
-102.910128370040653 -34.226585826861630 -16.168937522713605 16 20 23
-102.918798491156252 -33.721449821640896 -16.391707154991849 12 17 20
-102.927636536462543 -33.217170656777576 -16.614387633024563 7 11 14
-102.932495569847376 -32.644170681181130 -16.617961264707930 8 12 15
-102.925103582739808 -31.860542386415119 -15.964410536178804 8 13 16
-102.934485056900527 -31.356043333242383 -16.186833303131152 9 15 15
-102.946112232351538 -30.887992164385885 -16.518665442821174 9 15 15
-102.972366100769449 -30.672551184886668 -17.616912173595807 9 15 14
-102.980204069040198 -30.136857664619928 -17.729535563875260 9 15 13
-102.977939324507830 -29.419216705962587 -17.294570509114095 9 15 13
-102.965619441598022 -28.515473927204727 -16.312037013007995 8 14 14
-102.961769190677742 -27.754432783082912 -15.767418314058972 8 14 12
-102.976603865719397 -27.325767593961135 -16.208169462184486 8 14 12
-102.995716033414524 -26.974100235123977 -16.867799464980038 6 12 10
-103.004787528721877 -26.436300783857440 -16.979854417559096 6 12 8
-103.005911484091612 -25.746309333938186 -16.653842495017329 5 11 7
-102.997098306146029 -24.862407835357576 -15.780286051932535 3 9 5
-102.998728498428108 -24.167014537807162 -15.454087551318537 3 9 5
-103.014807444805484 -23.742158652312124 -15.894204233226191 4 10 8
-103.049305911977029 -23.672098147979547 -17.319586956714772 4 10 8
-103.059690991469566 -23.134982138210315 -17.431006460115583 4 10 8
-103.066272593339164 -22.518503958159780 -17.323344679019840 3 9 5
-103.061032033868642 -21.660785059799963 -16.558668481765864 3 9 5
-103.062119630733420 -20.919757784835209 -16.122340405473153 3 9 5
-103.061489067717730 -20.135489482358299 -15.576420507676090 4 10 6
-103.071149588749250 -19.552451844047081 -15.577800446832214 4 10 6
-103.085054738225509 -19.051324688974208 -15.798024394378388 4 10 6
-103.095224116687561 -18.467994236717470 -15.799163911964996 5 11 7
-103.103674571279655 -17.842499545870638 -15.690700889607854 5 11 7
-103.126254335634002 -17.510032542293715 -16.348474367145428 2 8 4
-103.123390140148047 -16.630760963371845 -15.582883178074894 1 7 3
-103.122845412555193 -15.789663703375686 -14.926648300993406 3 9 5
-103.108910909326070 -14.644798119134833 -13.503933692198274 3 9 5
-103.148242567214481 -14.656573477948321 -15.037020741085058 2 8 4
-103.177948787806230 -14.458676384680762 -16.022576405458580 3 9 5
-103.207842212163570 -14.265334386241925 -17.007995624312969 4 10 6
-103.210777930617752 -13.460949194568537 -16.460576702931263 4 10 6
-103.210210615798474 -12.564715101087815 -15.694061297706440 5 11 11
-103.213890441895145 -11.753064900738192 -15.146361180163069 7 13 11
-103.240984023071135 -11.475849049915695 -15.912265420254613 7 13 11
-103.252994813786813 -10.841228658387807 -15.802193080721167 2 8 6
-103.278682818651859 -10.523150571731572 -16.458331474302412 5 11 7
-103.304611067847190 -10.207887439429351 -17.114325960080151 0 6 2
-103.332673560753506 -9.941382173432675 -17.879656426690957 3 9 5
-103.345886137983214 -9.308381459052416 -17.768992484458067 12 18 16
-103.372590735163527 -8.999819990899507 -18.424546584425229 9 15 13
-103.401413616946826 -8.740846957561422 -19.189435750549023 10 16 16
-103.443505324988607 -8.814826304119864 -20.720562104008565 11 17 16
-103.474597328240165 -8.611912247641440 -21.594647571909917 9 15 12
-103.470836862685985 -7.507437991926029 -20.388367739970334 10 16 13
-103.463937629285212 -6.300132580271961 -18.962930206714816 7 13 11
-103.490543865135123 -5.952814498482141 -19.508071418778627 8 14 13
-103.517431549500216 -5.607661111047539 -20.053055704551042 24 30 30
-103.526487013492556 -4.776656176086391 -19.502983128270841 28 34 34
-103.541417281796043 -4.089323104530622 -19.281197833842185 27 33 33
-103.569321052240340 -3.745729060992316 -19.825679976407145 34 40 40
-103.613575338363333 -3.851225011362326 -21.355447343689747 27 33 33
-103.649082455193494 -3.714267886479920 -22.337600593478413 18 24 24
-103.677751248832408 -3.380771611685962 -22.881612810162949 21 27 27
-103.675137548237686 -2.139871514773525 -21.454470899674476 18 24 24
-103.706337206838839 -1.856183771650564 -22.107618539918462 19 25 24
-103.732623260459889 -1.421832037982675 -22.432091037322834 20 26 24
-103.774774247801929 -1.450962796834278 -23.741932910970689 22 28 26
-103.822226791343198 -1.641281348497575 -25.380156006141277 24 29 25
-103.854460997450474 -1.371663818978428 -26.032663890627560 17 22 18
-103.873466906731977 -0.686517631277744 -25.808906312831056 87 92 88
-102.884589682932727 -153.206928129265236 -15.510725133778692 126 130 131
-102.928692402491293 -152.089134957938882 -18.161745788648261 184 188 189
-102.941466873874901 -151.324591183741006 -19.161234322751454 183 187 188
-102.952282877093054 -150.587453819360604 -20.050518788447420 125 129 130
-102.952685828167532 -149.965397141534993 -20.389305814675282 133 137 138
-102.955310719865139 -149.323216897790303 -20.838095899018953 138 139 141
-102.964396314048614 -148.618570353878994 -21.617014857208204 111 112 114
-102.975726938046307 -147.896520400929177 -22.505897827782121 84 86 85
-102.978698759095977 -147.263048775428814 -22.954432300130492 57 59 58
-102.979650182387644 -146.652598098559167 -23.292837472731492 44 46 43
-102.976443697006701 -146.084836024296521 -23.411074589516858 40 42 39
-102.973321051033054 -145.517692907336965 -23.529265226578701 38 40 37
-102.959618336071301 -145.050883056259124 -23.097190127067790 38 40 35
-102.950240103531016 -144.542620767902719 -22.885190670591356 35 37 32
-102.943062616649769 -144.013937050395697 -22.783207477884730 29 31 26
-102.942371581411294 -143.427394592272577 -23.011293412790138 28 31 24
-102.939617902630218 -142.860857582797109 -23.129301298242950 29 31 27
-102.932647727395960 -142.332088201192477 -23.027219810138575 34 36 33
-102.925739307718260 -141.802832075301609 -22.925113788691078 36 38 35
-102.923189991479830 -141.237013283421447 -23.043016514829475 36 38 35
-102.916405045963458 -140.707322165605291 -22.940855901356827 33 35 32
-102.909677188377088 -140.177138386208213 -22.838673048427353 30 32 29
-102.905161195254877 -139.629239746943682 -22.846473279992068 28 30 27
-102.902862233509580 -139.064440909000808 -22.964245738500779 26 28 25
-102.898463974986058 -138.516908549266674 -22.971985875937861 25 27 24
-102.891958342282649 -137.985824488387522 -22.869705978435633 24 26 23
-102.881172481914234 -137.486502578504172 -22.547429013559849 21 23 20
-102.872593568498857 -136.969729436238623 -22.335134772048576 17 19 16
-102.868395766524358 -136.420732023399268 -22.342794092287306 16 18 15
-102.859905310601022 -135.902403853042131 -22.130473539700461 17 19 16
-102.855801540576152 -135.352936554556095 -22.138092712145777 18 20 17
-102.845219039750404 -134.847819162423662 -21.815778116572034 20 22 19
-102.841201943662639 -134.297604141945186 -21.823363521181051 20 22 19
-102.835050006388116 -133.761648887355364 -21.720964558641953 22 24 21
-102.826756075177826 -133.239136184250640 -21.508593062803641 24 26 23
-102.818496200779563 -132.715565084644311 -21.296216168910178 25 27 24
-102.808084262860802 -132.204346331310717 -20.973882781002260 24 26 23
-102.791139786606351 -131.730943110986942 -20.321708628002881 28 30 27
-102.780777161634077 -131.215698434637261 -19.999393089798446 27 29 26
-102.766059351499550 -130.724039591598512 -19.457200506575617 28 30 27
-102.760128622448704 -130.180388002276885 -19.354774941020196 29 31 28
-102.745452261700237 -129.684425284612161 -18.812606830496748 25 27 24
-102.732987549247682 -129.173984826538856 -18.380388586584900 18 20 17
-102.720541159640788 -128.661390116218655 -17.948183751887086 11 13 10
-102.712511214841413 -128.124166263914987 -17.735837395103658 10 15 9
-102.704504737319908 -127.585873729995882 -17.523490812131683 11 14 8
-102.696520738059235 -127.046511649090078 -17.311144485021202 11 13 8
-102.692967708201977 -126.485236043135771 -17.318621734098883 15 17 12
-102.693854940557983 -125.903676887366046 -17.545901335562462 14 15 10
-102.692567196115093 -125.333098058531348 -17.663249527529814 14 13 12
-102.684678739014842 -124.791895792765061 -17.450876435324460 17 16 15
-102.676807993951726 -124.249620051980415 -17.238505919558889 18 16 14
-102.673380379666128 -123.688144833646277 -17.245925224967493 18 15 12
-102.672190142157504 -123.117890958540102 -17.363223425039706 17 16 11
-102.668808440539962 -122.556711315144582 -17.370617723483917 16 16 11
-102.663229491454985 -122.003789997137702 -17.268119285572766 17 17 12
-102.657667269880150 -121.450335518536832 -17.165618333367831 16 16 11
-102.654342264071516 -120.888643419693395 -17.172990783692796 15 15 10
-102.648812731379834 -120.334392693452799 -17.070482389415247 16 17 12
-102.647746545401816 -119.765286339908641 -17.187709431644521 18 19 14
-102.642248241834764 -119.210509026535831 -17.085191517886670 16 20 14
-102.641218147688306 -118.641962036857976 -17.202395536094173 15 22 14
-102.631289776561360 -118.099346734610691 -16.880153991940858 17 23 16
-102.623597503559054 -117.549034418605459 -16.667780820259082 17 24 17
-102.620377706491297 -116.986038048809036 -16.675116364599177 16 21 15
-102.623872933859417 -116.406457440536357 -17.011986828925586 15 20 14
-102.627390227016335 -115.828512777284047 -17.348829897450372 16 21 17
-102.619744239638649 -115.277137071235813 -17.136445528892324 18 21 17
-102.612103756326405 -114.724679531821081 -16.924069663062653 19 22 17
-102.606708259858280 -114.166696595515660 -16.821535563828235 18 20 15
-102.603561818019841 -113.604003086455450 -16.828832897780302 20 23 16
-102.604911519010415 -113.033513965676235 -17.055777306403087 23 26 19
-102.608521409323558 -112.460487326674738 -17.392525453071528 23 26 19
-102.616641570871508 -111.882381527200664 -17.948885953632328 21 22 16
-102.615795280042448 -111.319335161846681 -18.065945420273351 20 21 15
-102.614960274225808 -110.756835332423677 -18.182993862434273 20 21 15
-102.616386698534768 -110.192340434913703 -18.409839865333140 18 19 14
-102.613322583633433 -109.633474459646962 -18.417058415632624 19 20 13
-102.614772702749988 -109.070615018089825 -18.643876248447043 20 20 13
-102.607215686874170 -108.515750042349381 -18.431485233033328 22 19 13
-102.601915842327884 -107.958345911956954 -18.328899416307394 25 19 13
-102.594361459359320 -107.401583452819523 -18.116526673069643 25 16 12
-102.591326157876054 -106.841913649109983 -18.123739713338665 25 14 11
-102.590557672738370 -106.281606059900128 -18.240733766404958 28 14 9
-102.596584939668190 -105.720739787099333 -18.687059160548330 27 13 6
-102.595838014859666 -105.162337193879367 -18.804023290146375 25 10 3
-102.592834139327294 -104.604303931478924 -18.811204450606368 23 6 2
-102.587568807418762 -104.045824839849985 -18.708613188268799 28 10 3
-102.593646786108152 -103.490397663523396 -19.154858334727862 42 21 13
-102.597471871625274 -102.936154511337989 -19.491310184882508 46 24 15
-102.601310742340218 -102.383542406402142 -19.827738651057018 50 27 18
-102.605163352014827 -101.832561237111236 -20.164143756520389 86 62 54
-102.613577698338418 -101.286821955822731 -20.720030355261741 98 73 66
-102.628837906987243 -100.750031728640806 -21.605126454584223 96 70 63
-102.635018685266360 -100.208193331020269 -22.051182545946261 103 69 60
-102.648051125887122 -99.676390469665648 -22.826434179474802 105 69 60
-102.656549351535276 -99.142606915135971 -23.382157584333186 110 72 62
-102.669629652886513 -98.617868161348269 -24.157313607044415 111 71 61
-102.671322226725010 -98.079754975740272 -24.383760724707031 113 70 60
-102.684446447474443 -97.561264809063715 -25.158831416682574 116 73 63
-102.690739896604398 -97.034641083649504 -25.604676994431571 117 74 65
-102.699337590319672 -96.514441080095452 -26.160212991793600 118 75 66
-102.696513932280951 -95.974345853917200 -26.167123291604241 121 77 68
-102.698276176494574 -95.443837973317727 -26.393458793973167 122 78 68
-102.695468388577154 -94.904284697920971 -26.400355923000518 120 76 67
-102.704130458283686 -94.391417173321031 -26.955785646219567 117 75 68
-102.696755931641874 -93.842002163155271 -26.743251229348374 107 70 61
-102.698564943744032 -93.315021908952886 -26.969528046489074 77 53 42
-102.704981083680678 -92.801431609208322 -27.415180769778857 110 109 95
-102.711416706902909 -92.290013015951729 -27.860801817865735 29 33 24
-102.708673864089789 -91.753982926569250 -27.867631611454243 63 66 59
-102.712843028599949 -91.238852913128426 -28.203516244212182 102 105 98
-102.714727708312012 -90.718111423197271 -28.429692643492928 159 162 152
-102.712020484284395 -90.183432334089403 -28.436491490652031 57 59 48
-102.693188156652283 -89.594272788497335 -27.675553132367241 59 49 39
-102.688186463479582 -89.049631327042931 -27.572693308483366 82 51 47
-102.678578033115500 -88.487791067283339 -27.250496597911166 104 65 60
-102.675901148359813 -87.950109320538971 -27.257311838730061 110 65 62
-102.670926525790946 -87.403553923955059 -27.154458765457861 124 77 75
-102.679833700019728 -86.911296110468868 -27.709559085403725 129 83 83
-102.672575938607309 -86.355861506819309 -27.497030771146655 138 92 92
-102.674585532507564 -85.838071948726807 -27.723117026190636 140 96 93
-102.665036589644700 -85.271582819056292 -27.400939710155200 142 98 95
-102.667081450183517 -84.754595818719224 -27.627000832630017 144 99 96
-102.664511378814694 -84.217689667887910 -27.633756990692405 143 98 95
-102.666598212409411 -83.702318410965105 -27.859781401742481 146 101 98
-102.664066373432775 -83.165940100959929 -27.866513836228677 156 108 106
-102.663875791327968 -82.640867815282732 -27.982868727784961 149 105 105
-102.656736881124715 -82.081570591646809 -27.770323315404823 123 79 80
-102.654263146460153 -81.544892826785301 -27.777031035426575 123 81 82
-102.644832756824542 -80.971814953265081 -27.454864825183932 92 52 53
-102.637744582145956 -80.409497021636241 -27.242326234767518 69 29 30
-102.614375376295868 -79.757366604498841 -26.262488724444751 64 24 25
-102.588678953778441 -79.087386728016781 -25.173089395130006 82 38 39
-102.555991237623800 -78.372307358653970 -23.754922253701977 93 54 56
-102.511638824955611 -77.582704189492887 -21.788808149409306 82 63 64
-102.485937785837862 -76.893385134337223 -20.699610096541591 15 13 11
-102.474248792453778 -76.282807337124055 -20.268051515222794 12 16 15
-102.474258292489964 -75.741557935180140 -20.384477207353058 12 16 15
-102.460281257251026 -75.113378755521410 -19.843335512366082 10 16 14
-102.460351874873624 -74.571547952917840 -19.959737950701594 9 15 13
-102.467474607397676 -74.075598766424463 -20.404871053678733 8 14 12
-102.462940859195669 -73.504846166655184 -20.302056141588622 9 15 13
-102.446735744171846 -72.855211456856054 -19.651342319963135 10 16 15
-102.430555001525889 -72.202290656060811 -19.000650664060970 11 17 17
-102.435487484952276 -71.691944356623111 -19.336120886494456 8 14 14
-102.431089341941885 -71.117287887099167 -19.233281285837990 11 17 17
-102.422039919593942 -70.508558653922634 -18.911299799505400 15 20 23
-102.413026752739000 -69.898168982060028 -18.589318060398739 15 19 22
-102.413438996904986 -69.355295401678845 -18.705567799602392 10 15 18
-102.411550026598647 -68.795367399896463 -18.712235096728136 8 14 15
-102.400312262878728 -68.164052458335362 -18.280674106528892 7 13 13
-102.396163813040459 -67.584858052909098 -18.177761764768690 13 19 19
-102.396763547364884 -67.041847969640571 -18.293923214415997 15 21 19
-102.395064092129758 -66.480689449283574 -18.300512514527099 14 20 18
-102.386360283162176 -65.862711967559960 -17.978460884806253 5 11 9
-102.377705161487341 -65.243060769393210 -17.656403191655528 10 16 14
-102.383221989858228 -64.738557143256699 -17.991533723899124 14 20 18
-102.381736699947908 -64.176413074996148 -17.998030712792627 25 31 29
-102.380309357020025 -63.614222108257863 -18.004500462797921 18 24 22
-102.371874538775458 -62.991121673149770 -17.682372881969911 19 25 25
-102.363497014411962 -62.366337482966181 -17.360235223682423 20 26 26
-102.362249347573723 -61.802361010736604 -17.366637396367310 16 22 22
-102.358708721400689 -61.217226064745276 -17.263495422817414 16 22 22
-102.355233178140580 -60.631489482115491 -17.160328506773226 19 25 25
-102.349465980748278 -60.023501018108128 -16.947628075083628 15 21 20
-102.350843449855759 -59.480122526427522 -17.063421251289412 16 22 22
-102.352293191674903 -58.937224694819918 -17.179174904802153 21 27 27
-102.356176674265726 -58.417270226055976 -17.404386982432783 21 27 27
-102.348335500466447 -57.784649779017180 -17.082073398402230 20 26 26
-102.340568904790842 -57.150323600916472 -16.759741694399651 18 24 24
-102.328157408489062 -56.467724295889610 -16.218411224640079 18 23 26
-102.337073438312373 -55.994316406536853 -16.662454391440889 18 23 26
-102.331905979989472 -55.380045605870933 -16.449531713883488 17 22 25
-102.331544969611471 -54.812802333400334 -16.455543339972991 18 23 26
-102.312377469972304 -54.050494076349437 -15.585688748576501 18 23 26
-102.312190119766129 -53.480896980769636 -15.591641525318778 16 21 24
-102.305008055955895 -52.836455238559800 -15.269134307858394 12 18 18
-102.302641883616914 -52.240664297341283 -15.165540167131951 11 17 17
-102.302732079849562 -51.669694014220063 -15.171374301518426 15 21 21
-102.291110986686419 -50.969941866215535 -14.629842268436278 15 21 21
-102.303204587249780 -50.527449065166685 -15.182905956672982 15 21 21
-102.308313596684528 -50.008732170312513 -15.407519007492283 20 26 26
-102.320607736217937 -49.570662446567084 -15.960441229616549 23 29 29
-102.318839482880406 -48.974240502596224 -15.856567541717567 21 27 27
-102.319539203104753 -48.404256834607239 -15.862099926190496 24 30 30
-102.310907903474671 -47.724654814440427 -15.429789055662383 20 26 26
-102.309470219958200 -47.125686004738618 -15.325783440462544 16 22 22
-102.308147284123052 -46.526042567192434 -15.221729874648645 6 10 11
-102.309300063423365 -45.953914858550448 -15.227067586900120 12 16 17
-102.308213309581930 -45.353183517938760 -15.122912230762751 11 15 14
-102.304891324774331 -44.723024127459077 -14.909270234237994 4 8 7
-102.311121537310044 -44.207685807972538 -15.133312127963478 12 18 16
-102.310406899123919 -43.605428487201905 -15.028994460652456 14 18 17
-102.307466875658776 -42.972909372966654 -14.815194024952831 12 18 17
-102.307014812645676 -42.368974433946484 -14.710768011146513 6 12 12
-102.323168878925969 -41.975098861997793 -15.372247629860510 5 13 12
-102.346501964994260 -41.675495734293357 -16.361899091249938 15 25 26
-102.355847300397215 -41.196708888973994 -16.694933363108476 8 18 19
-102.355926087705512 -40.595665846806661 -16.590223624580915 11 21 23
-102.363194605139697 -40.087514223847720 -16.813694820524290 18 28 30
-102.375296666329348 -39.643237153860412 -17.255913942682469 23 33 35
-102.382842875953813 -39.137458151928897 -17.479227869053801 22 32 34
-102.374121777834702 -38.408381577279989 -16.936610339337648 16 26 28
-102.363224630282616 -37.644058949905016 -16.284537744617694 15 21 27
-102.368890073800557 -37.104285417118298 -16.398242460910609 19 24 29
-102.365351579626662 -36.433441089104683 -16.074263947304559 18 23 27
-102.376011035894493 -35.959500726480641 -16.406619660964651 16 21 25
-102.389158946410319 -35.520393330733015 -16.848285238336103 16 21 24
-102.400123439227784 -35.049583913788965 -17.180462795159741 15 21 22
-102.397251693491739 -34.376477854881649 -16.856188592518691 11 17 17
-102.396893426370752 -33.735713119949708 -16.641237929749622 9 15 14
-102.403701594247778 -33.197116328102432 -16.754383857840480 6 12 11
-102.413008131721398 -32.693602173724955 -16.976832336189005 5 11 9
-102.410868699773388 -32.015663141170570 -16.652257545367519 4 10 7
-102.411247472509757 -31.371140753118862 -16.436992964668264 5 11 9
-102.425732853971382 -30.938887530697034 -16.877948147074420 8 14 12
-102.438070920469514 -30.472687444790747 -17.209421144797545 5 11 9
-102.448271676209060 -29.971707174006593 -17.431415749656054 6 12 10
-102.442483495261556 -29.216503027960325 -16.887664066635949 7 13 11
-102.446151698135395 -28.605088917230592 -16.781343918624003 5 11 9
-102.447722618411703 -27.955835213598874 -16.565557720436090 6 12 10
-102.463319108497117 -27.528756920460800 -17.005928084138418 7 12 11
-102.485993091182806 -27.216205271597236 -17.774310374118983 10 16 13
-102.495062063521615 -26.680301295659685 -17.886347022597789 8 13 10
-102.495171155809473 -25.992243182981685 -17.560800706264331 6 11 8
-102.486365109921408 -25.148695924113451 -16.797684349686506 6 13 8
-102.496106142163654 -24.610127453595542 -16.909426913992348 6 12 8
-102.508345110443386 -24.110693062827107 -17.130430532438453 4 10 7
-102.520796638975256 -23.612012941556166 -17.351324698713626 4 10 8
-102.517551374859437 -22.837691317222667 -16.806553278805467 4 10 8
-102.521388102433619 -22.179502349497145 -16.589775101334823 5 11 7
-102.525479824072363 -21.519818461328750 -16.372890323544766 5 11 7
-102.532091575612554 -20.898949536769521 -16.265259315088912 5 11 7
-102.529932753087536 -20.114731958816932 -15.720070009269648 4 10 6
-102.543831917763612 -19.613456320479248 -15.940298348336569 4 10 6
-102.548977884272460 -18.948255205784747 -15.722966014998605 1 7 3
-102.561128167997410 -18.405817438741323 -15.833595830266233 1 7 3
-102.566817672238074 -17.738358132966013 -15.616026715035645 1 7 3
-102.581723398857022 -17.237315056743192 -15.835771124440669 2 8 4
-102.579058195808017 -16.398738605824200 -15.180524727594815 1 7 3
-102.574507263921390 -15.513781205522962 -14.415798994452530 2 8 4
-102.581394516573638 -14.838601343215991 -14.197736352054193 1 7 3
-102.612912275376075 -14.636092225194503 -15.182472856644864 1 7 3
-102.635793080193423 -14.264554800524451 -15.729645604007970 2 8 4
-102.661106516351950 -13.939003223636984 -16.386040118363752 4 10 6
-102.675672991312936 -13.396516526908133 -16.495514539683910 4 10 6
-102.688336997840921 -12.809829577315584 -16.495495185867895 6 12 11
-102.703484430267963 -12.267133446293506 -16.604693834940093 9 15 13
-102.712399303167487 -11.590041897738196 -16.385680863912484 10 16 14
-102.728156972343172 -11.046530423756284 -16.494595970550478 5 11 9
-102.757189099305336 -10.775242564617757 -17.259511797186349 3 9 5
-102.786445162660172 -10.507339820520762 -18.024285648729915 1 7 3
-102.809481549572780 -10.105005940430743 -18.460842084617866 4 10 6
-102.815657968452854 -9.334581071902294 -18.022382137514711 12 18 16
-102.837160384339995 -8.886809021828229 -18.349281252872657 12 18 16
-102.867459553230191 -8.627276010151656 -19.113469932443110 10 16 16
-102.908586057006787 -8.606458945642473 -20.424316053554520 10 16 14
-102.947758395914590 -8.544477467121807 -21.625661881513025 10 16 12
-102.953453810898992 -7.725833938137926 -21.077069498999407 11 17 13
-102.936536458501394 -6.376467618638229 -19.325310249061062 14 20 18
-102.951539358620423 -5.740492706809599 -19.213820437403086 12 18 16
-102.983547510300824 -5.491253514318856 -19.977085586012549 22 28 26
-102.988900455977429 -4.611095529891232 -19.318431353913525 16 22 22
-103.011217049775652 -4.119364785311523 -19.534534573354534 19 25 25
-103.029773541495189 -3.529329273045133 -19.531730743258379 3 9 9
-103.079349378143306 -3.683264077093339 -21.169312578476536 24 30 30
-103.116834970978985 -3.545460515705515 -22.150528044921998 31 37 37
-103.124189893448602 -2.658718250243563 -21.490983849299738 18 24 24
-103.164275138989964 -2.575931546944630 -22.581248219563719 17 23 21
-103.188534940535064 -2.091715635506611 -22.796344461126751 18 24 22
-103.225120703456795 -1.914393836141496 -23.667538299273986 19 25 21
-103.265917982229098 -1.843647147683069 -24.757338101359778 22 28 24
-103.332560101021613 -2.449591388751049 -27.268973804856898 19 24 18
-103.350085930705404 -1.769019267531404 -27.045877208902510 17 22 16
-102.390722896037886 -152.366715261699426 -17.085944663973777 194 198 199
-102.429357181704518 -151.372281311851452 -19.184017175833588 176 180 181
-102.451705616494024 -150.545097653046724 -20.512146997221464 146 150 151
-102.457703804519923 -149.879430983339148 -21.070423950665827 143 147 148
-102.466180816257406 -149.194727733884378 -21.738569881342272 139 140 142
-102.472413927843064 -148.534962632766451 -22.296673700350681 108 109 111
-102.488226896619622 -147.792776758231724 -23.294478486623348 83 85 84
-102.485214161756844 -147.223856862210283 -23.412634831865972 60 62 61
-102.484659582045154 -146.634796798572523 -23.640681401893431 50 52 49
-102.481819323222780 -146.067391148971183 -23.758739648290373 49 51 48
-102.481438443319334 -145.480384948483191 -23.986681979479840 46 48 45
-102.469243100599584 -144.994262811327303 -23.664943434237927 42 44 39
-102.464253235931167 -144.447555505577981 -23.672958101331716 33 35 30
-102.454565208187560 -143.939713350909869 -23.461102525171555 33 35 30
-102.452099142288148 -143.373460673683610 -23.578969890832951 35 38 31
-102.447316366777954 -142.826668458007930 -23.586886361203796 34 36 32
-102.435424050332159 -142.335684189151635 -23.265052897595240 33 35 32
-102.430765582716774 -141.788189266334911 -23.272917132812950 32 34 31
-102.423773765458535 -141.258787141816583 -23.170852511319310 26 28 25
-102.424035639966021 -140.675592739091343 -23.398448114252488 27 29 26
-102.419564315386310 -140.128525956847199 -23.406218413817385 27 29 26
-102.419957972781631 -139.547062664491534 -23.633733153080072 23 25 22
-102.413200845885100 -139.017584620652229 -23.531557037997601 22 24 21
-102.404087148241771 -138.504284822607474 -23.319482882551000 22 24 21
-102.390199419007487 -138.022751322522595 -22.887647851149666 20 22 19
-102.381170938704045 -137.506814473354240 -22.675560072511757 18 20 17
-102.374599071141844 -136.973966990127764 -22.573330013330974 20 22 19
-102.368072748007876 -136.440613303534064 -22.471083376457443 18 20 17
-102.364008510157291 -135.891434050028522 -22.478680671854420 21 23 20
-102.362410993210375 -135.327243727103308 -22.596111297825189 24 26 23
-102.353597312781631 -134.807952345447944 -22.383955289551608 27 29 26
-102.344819924256683 -134.287605015375732 -22.171792788763071 27 29 26
-102.340929059439745 -133.737740452818940 -22.179314197325368 27 29 26
-102.339507323397385 -133.173947030516587 -22.296656644816466 28 30 27
-102.333270547446190 -132.638097655008892 -22.194297178942861 29 31 28
-102.324637586375587 -132.115145375196278 -21.982092398611570 30 32 29
-102.308735270334054 -131.630558091829840 -21.440393687838366 29 31 28
-102.295286215274231 -131.130405847611200 -21.008540448302227 29 31 28
-102.279421192138074 -130.640700530582052 -20.466876579222429 31 33 30
-102.268449787266007 -130.123645277368553 -20.144870916412572 32 34 31
-102.257500884331776 -129.604980106518042 -19.822871060443731 30 32 29
-102.244131286382995 -129.096487183097480 -19.391065663699067 32 34 31
-102.235666572531429 -128.562816287041500 -19.178890726576498 33 35 32
-102.227224866060880 -128.028076387299933 -18.966715786593568 27 29 24
-102.221252551645520 -127.481298950685826 -18.864342291250523 26 28 23
-102.205508306517075 -126.976777849920680 -18.322773148690658 27 29 24
-102.199577086181236 -126.427858182228249 -18.220402045141412 22 23 18
-102.193668360789388 -125.878409793154617 -18.118025622482890 24 25 20
-102.187781166338723 -125.328431913859404 -18.015644349804774 24 21 18
-102.177002996285267 -124.797141298287855 -17.693692775856022 25 17 15
-102.166237916876128 -124.264232693911154 -17.371751594159434 25 14 13
-102.160403208593380 -123.711575007782798 -17.269372796876439 19 7 6
-102.152125744894349 -123.167178554477658 -17.057218683471518 19 10 4
-102.146324415552513 -122.613184019814099 -16.954837678671112 21 14 8
-102.140539322644628 -122.058656034573531 -16.852454397491158 20 13 8
-102.134769648375766 -121.503594031627074 -16.750069236999678 21 14 9
-102.131481675535213 -120.940290957336003 -16.757440553459190 21 15 9
-102.128210706257661 -120.376996267838777 -16.764803649163582 19 15 8
-102.127426191143428 -119.806546403308388 -16.881909770450648 19 16 9
-102.121716696078636 -119.250430061825369 -16.779506673270390 20 20 12
-102.118492172149402 -118.687157616706756 -16.786847320706784 19 20 12
-102.107857004403954 -118.142935405114812 -16.464960446358134 19 22 13
-102.104655245481638 -117.578860469247886 -16.472298463533662 16 19 12
-102.106422143679737 -117.003182317548678 -16.699096699744388 16 19 12
-102.110686740936259 -116.423063602844493 -17.035604639153178 16 18 13
-102.110009882387303 -115.855102288584348 -17.152633642010358 15 20 14
-102.104381813348951 -115.297667818115002 -17.050205159061960 15 18 13
-102.101245050040333 -114.734976682218502 -17.057497838410399 16 18 13
-102.095632451207493 -114.176735633182815 -16.955070257087158 16 17 11
-102.087538981462217 -113.622129314743063 -16.742933216876253 21 20 14
-102.086913966814549 -113.054732089430203 -16.859931611337828 29 25 20
-102.088790283383432 -112.484250737288434 -17.086624008906483 26 21 15
-102.100646657935528 -111.901422530463719 -17.752104613004519 25 20 14
-102.102556051860788 -111.334207555826481 -17.978747564014697 25 21 15
-102.104478345901768 -110.768082077656160 -18.205373128919376 21 15 9
-102.106413144001451 -110.203045909891969 -18.431981499105945 19 12 6
-102.105862565742740 -109.641371319006097 -18.548885377503268 20 13 3
-102.107819805553547 -109.078241577990582 -18.775463387843928 21 13 3
-102.099786666474216 -108.523116944215573 -18.563302820929380 20 8 1
-102.096756786844225 -107.963992754010050 -18.570507651128480 25 11 3
-102.086221723886553 -107.408427504879853 -18.248689646576111 32 16 9
-102.085702132625656 -106.847577781303926 -18.365570210126265 48 29 22
-102.087696395476939 -106.286630675824668 -18.592108041807251 49 25 16
-102.097224305731672 -105.725659796494384 -19.147618701871238 63 39 29
-102.101752533302701 -105.167605069498478 -19.483773405731739 75 50 40
-102.098761433141277 -104.610663622631378 -19.490937215892302 85 59 48
-102.100798639550462 -104.054612126263834 -19.717404110558448 95 68 57
