ply
format ascii 1.0
element vertex 673
property double x
property double y
property double z
property uchar red
property uchar green
property uchar blue
end_header
-95.026728334256688 -14.308097016194361 -15.711004692497767 14 16 13
-95.063415920491408 -13.931301137669386 -16.251626450863654 40 42 37
-95.100309339703131 -13.556855769588815 -16.792125544454024 80 82 77
-95.074226620028156 -12.705826960136594 -16.148210185675453 125 127 123
-94.991044369382053 -11.412808148698399 -14.427571822715066 138 140 135
-94.883171623095862 -9.242286501190749 -12.062624576225403 131 132 124
-94.517257352438577 -2.875175579870172 -4.210517981139105 116 119 110
-94.500112881590113 -2.017698664420490 -3.673251853274451 114 117 108
-94.614364668563354 -2.222710386426550 -5.611943829933665 113 116 107
-94.797035063107757 -2.996766584985214 -8.842353737635392 108 111 104
-94.900070341748560 -3.130451408560250 -10.565428087189986 114 117 110
-94.781675167372484 -1.432197141384624 -8.089794563917678 112 113 105
-94.881115876298466 -0.812328283226951 -9.489768595140248 107 108 100
-94.979336486122264 -0.915274306799052 -11.104603790743454 109 110 102
-95.153588975541226 -0.950298636134095 -13.903212482008740 106 108 97
-95.784187392163616 -0.697393257888404 -23.692298170877251 111 111 99
-95.850544545311294 -0.570246938387895 -24.659591881488410 115 115 103
-94.878278920820691 -148.502053566923848 -14.511555459931969 196 200 203
-94.891839516412148 -147.864183829377083 -14.844210685891085 167 171 174
-94.893804210555246 -147.267938093459065 -14.960267124755859 157 161 164
-94.936663411179268 -146.534370934457542 -15.834185484730284 173 174 178
-94.938756187813752 -145.941201353344127 -15.950148984963448 140 141 145
-94.940903992586414 -145.348614793989498 -16.066080158588079 145 146 150
-94.931427241209676 -144.794380360774483 -15.965459932487221 91 90 95
-94.951198471133310 -144.146568852282542 -16.406105232833227 67 66 71
-94.959345140068507 -143.537649232095418 -16.630193579725557 63 62 67
-94.955855450251548 -142.965988503660753 -16.637747426427779 60 59 64
-94.934872269222168 -142.447752134750743 -16.320543520831308 56 55 60
-94.919768421184799 -141.910386492259903 -16.111582754627221 52 51 56
-94.933942691460899 -141.285686881132762 -16.443808833993387 51 52 54
-94.948165337161129 -140.662642710148504 -16.775994730445461 47 48 50
-94.968286695237310 -140.024541241590015 -17.216372580364464 48 49 51
-94.959188646247824 -139.470832103184705 -17.115565777216204 49 50 52
-94.944266824479072 -138.932767200654467 -16.906525128104079 50 51 53
-94.941085028207155 -138.361842438704116 -16.913924103916997 49 50 52
-94.955509019729462 -137.744062804843679 -17.245959486692669 47 48 50
-94.964112577241053 -137.143282041908861 -17.469745482309804 43 44 46
-94.978611860091632 -136.528522358591005 -17.801713760104036 44 45 47
-94.975559902846186 -135.959833469368021 -17.809027606410552 39 40 42
-94.972534059623626 -135.391157081072350 -17.816328831179703 43 44 46
-94.963667682657174 -134.836757645138249 -17.715418302509050 45 47 46
-94.966555594454135 -134.253837446937155 -17.830895910758841 43 45 44
-94.975336857740444 -133.657747793763036 -18.054548604593066 46 48 47
-94.966536029328424 -133.103104702135965 -17.953609225789080 46 48 47
-94.957752292128163 -132.547925682561157 -17.852667187183556 44 46 45
-94.960729241597718 -131.966395614241122 -17.968087890810779 47 49 48
-94.975473993047657 -131.360143721076838 -18.299851162310460 43 45 44
-95.001993586458525 -130.730799238376477 -18.847936863242609 47 49 48
-95.005036138764694 -130.152544048005296 -18.963292472733713 43 45 44
-95.002217704592312 -129.586656067536268 -18.970465771241692 47 49 48
-94.993533153080492 -129.032319612238354 -18.869467609605437 40 42 41
-94.984857928320693 -128.477441943424253 -18.768470557065598 43 44 43
-94.987954723204766 -127.900011597858395 -18.883791726551436 63 65 64
-94.985180977389120 -127.333859309792970 -18.890946366953585 41 41 40
-94.970647199530006 -126.788631653114592 -18.681793808791895 53 45 43
-94.932572819718146 -126.283079008179897 -18.040059059405138 59 43 40
-94.865053927677906 -125.823859688367634 -16.857639106947346 70 42 38
-94.815177660316053 -125.329721446311282 -15.999715076087170 83 50 41
-94.794734587261360 -124.784358004369906 -15.682532017277111 92 57 43
-94.791961357355632 -124.210051534028608 -15.689770345964206 97 60 42
-94.795084096064770 -123.626910909463803 -15.805137882783413 100 62 45
-94.786424737528392 -123.061432119006653 -15.704242362567271 103 65 47
-94.795449713875797 -122.470541088153325 -15.927724952877384 105 63 46
-94.804480999110282 -121.880733872690101 -16.151193368781293 103 62 44
-94.813517808057611 -121.292010266668129 -16.374647988023554 107 64 47
-94.804862546857791 -120.726791289601962 -16.273747833265901 114 71 54
-94.808003969992953 -120.146621420130302 -16.389075852045181 123 80 63
-94.811146089280967 -119.566991346257396 -16.504397981400047 130 86 69
-94.826093957674999 -118.974583575743495 -16.835921577940809 137 93 74
-94.835142227281423 -118.390189162901720 -17.059326151882885 143 100 80
-94.844191821412764 -117.806877683419998 -17.282718944999601 148 104 85
-94.859148939546557 -117.218805470532274 -17.614193488423894 148 104 85
-94.891833210524140 -116.615643679262135 -18.269919402063351 137 93 76
-94.906799250634734 -116.031639121387158 -18.601347806828102 132 89 72
-94.909945415619603 -115.459318059549531 -18.716592765402851 136 93 74
-94.889439027987606 -114.906564150646531 -18.399516069858663 145 102 83
-94.886657660671304 -114.338720845273969 -18.406691762851239 144 102 80
-94.877953723665115 -113.775087426296267 -18.305798573486527 145 103 79
-94.875154949085768 -113.206965325600251 -18.312985463834394 148 105 85
-94.860512554829143 -112.646180015227785 -18.104045010129965 149 106 87
-94.869530820116694 -112.070711111842371 -18.327372063282610 148 105 86
-94.848944192629745 -111.511959322235285 -18.010395493409192 147 104 87
-94.840182514413115 -110.945864413249495 -17.909555264594815 145 104 86
-94.849176418389305 -110.371473515259282 -18.132882875664336 143 105 86
-94.864089384911225 -109.795855303651720 -18.464250345776890 141 105 83
-94.873074037721722 -109.223904818207799 -18.687557262180007 140 103 84
-94.852418077775681 -108.661879727335730 -18.370647554451580 138 101 83
-94.849527446026769 -108.093733128138297 -18.377878641129882 134 97 80
-94.846625083301504 -107.525584811480797 -18.385115357545743 134 97 82
-94.873366495448337 -106.952669961758573 -18.932514082594878 134 97 85
-94.876379567692140 -106.385196194955526 -19.047772816637917 130 97 87
-94.885317098813545 -105.817855288258258 -19.271054827185907 130 102 93
-94.840829564061167 -105.252841355273745 -18.522141289128456 118 98 89
-94.831930290037064 -104.684826022463724 -18.421386653563957 129 113 106
-94.817077240244018 -104.115861510028196 -18.212631169381751 170 157 151
-94.820024550580328 -103.547842025164201 -18.327926981046033 186 181 178
-94.260226877205724 -93.434706474113824 -9.276826635552339 199 199 207
-94.426603006094439 -92.421116863410504 -12.422573915522065 206 206 214
-94.013927263692253 -90.819910058537076 -5.098074427580713 201 202 209
-94.229802030251250 -88.111647737341713 -9.346174695700427 206 206 214
-94.178536498242266 -87.456120535528953 -8.490576541923019 204 206 213
-94.104616342369951 -42.946740800447103 -11.422992564571359 147 150 144
-94.213355865561368 -42.877975224903089 -13.367139716586962 146 150 144
-94.151058059313272 -39.060457901206014 -12.327649547921169 141 143 139
-94.053964581755977 -37.978306782121749 -10.611495701143156 142 144 141
-94.108896985896422 -37.665478271748270 -11.586166292588047 141 143 140
-94.024196006281400 -36.635186588841457 -10.085267871884781 139 141 137
-94.079367163500990 -36.325609236642350 -11.059790778870592 148 150 147
-94.079977609248076 -35.733261890207856 -11.065596072524215 145 147 145
-94.068564001397490 -35.076309622753179 -10.856100873269838 143 145 145
-94.039056366811963 -34.320611550081694 -10.323701579801593 134 136 135
-94.033982281974687 -33.693079872972646 -10.221729618472068 95 97 96
-94.053338920560009 -33.196992211804393 -10.550152603192743 51 53 52
-94.060682414926816 -32.635732277623021 -10.663275716034832 18 20 20
-94.049946032921511 -31.974062756223855 -10.453505091321972 16 17 19
-94.033282393131486 -31.277240664615352 -10.136073004560217 16 17 20
-94.053194680968389 -30.783402037152779 -10.464207018149779 14 15 18
-94.048968164863354 -30.153355984422863 -10.361855464575399 9 10 13
-94.075240079283617 -29.695981595250874 -10.797430594804126 12 13 17
-94.077383219448976 -29.100744223647641 -10.802532401182589 11 12 15
-94.067546766296957 -28.434815825406478 -10.592375092349812 15 16 18
-94.033607898637555 -27.625524823845968 -9.951788459614477 12 13 15
-94.030169014680467 -26.991623940034394 -9.849099785233136 14 15 17
-94.057215048127787 -26.537225885341925 -10.284273942666744 15 16 18
-94.108666363927213 -26.230113149814414 -11.149692154579441 14 16 18
-94.117837814988462 -25.670887725878273 -11.261919836968644 16 17 19
-94.139296612389359 -25.185720622953401 -11.589224745325481 16 16 19
-94.142746915714127 -24.590463354379857 -11.593701414138536 14 14 17
-94.146374331966513 -23.994934379471385 -11.598096149543949 11 12 14
-94.174399203950117 -23.549964673096387 -12.032704983251421 14 15 16
-94.220749870017585 -23.220869239599651 -12.789930722545193 6 8 7
-94.237006352461805 -22.704037947394003 -13.009191451031825 8 10 9
-94.229248679110839 -22.033865223534615 -12.798083350043441 8 10 9
-94.227736891785938 -21.401095739611861 -12.694461113171371 8 10 9
-94.250600770904171 -20.923815978098467 -13.021012646883463 7 9 8
-94.267606439363192 -20.408508121746632 -13.239899285858030 6 8 7
-94.272723779305778 -19.814694986641449 -13.243563584876000 32 34 31
-94.338415471310071 -19.619727636790817 -14.322732650673373 36 38 36
-94.343916981028840 -19.028003200216496 -14.326191664164014 49 51 48
-94.349627312309281 -18.435928905644360 -14.329554379399468 75 77 72
-94.349520640142003 -17.802747682335632 -14.225264178492580 106 108 103
-94.361687519585900 -17.250698009554473 -14.335984994599585 131 133 128
-94.458392659721710 -17.277079183433660 -15.952333306167674 111 112 105
-94.458904917618256 -16.646105688964980 -15.847724285977819 120 121 114
-94.525834250442401 -16.474637024866663 -16.926059384872076 129 130 123
-94.466637645766298 -15.423451923973261 -15.745751479828471 135 136 129
-94.479869130806577 -14.874724419420424 -15.855928795520811 131 132 125
-94.403226269634416 -13.685733018714505 -14.352808974494650 128 129 123
-93.473029240619965 -0.668442936499798 3.803346000692301 121 121 111
-93.750678528698415 -0.612842744918061 -0.609614134035610 116 118 105
-94.095148432124603 -1.137013482829681 -6.204087376119105 114 116 104
-94.137026210309116 -0.748208957254404 -6.742349775483405 117 115 103
-94.196946104059094 -0.503990315703479 -7.603069248227797 114 114 102
-94.286703818660413 -0.502380292009590 -9.001311541975042 114 114 102
-94.990109705546431 -1.275873674399222 -20.075307767616579 110 112 98
-95.004749004874796 -0.681177166595326 -20.074425886901935 110 111 99
-94.462121842929378 -147.565494151633885 -16.715743984645258 194 199 202
-94.361132010271575 -147.312970125418985 -14.992914372355983 152 157 160
-94.339171507353413 -146.795638466254985 -14.676168701569196 101 105 108
-94.371982834658382 -146.101828852760605 -15.332766915468881 138 141 144
-94.392699422097891 -145.449639217015118 -15.773005026282931 146 147 151
-94.389140055459549 -144.875212308484720 -15.780620679819009 140 139 144
-94.397800007682292 -144.263586472300204 -16.004491330186710 155 154 159
-94.394336221130118 -143.689768471714842 -16.012054990741831 146 145 150
-94.409184501579034 -143.061762482371620 -16.343992660163565 103 102 107
-94.411902462995954 -142.471017007558231 -16.459632121595888 72 71 76
-94.420756791169723 -141.863312428733451 -16.683369419703041 62 61 65
-94.429656414399020 -141.256719648883603 -16.907073604505456 57 58 60
-94.438599733036511 -140.651237015988016 -17.130745458274134 51 52 54
-94.453682434720420 -140.030149181494522 -17.462499769337370 51 52 54
-94.450512415894792 -139.460037892857002 -17.469884737370876 52 53 55
-94.435174918035287 -138.922285778595239 -17.261039726588905 53 54 56
-94.432066645851833 -138.351666885526413 -17.268400380267877 46 47 49
-94.447298309102379 -137.734183387210606 -17.600046327385286 49 50 52
-94.462567614475418 -137.118344797249222 -17.931657334772268 49 50 52
-94.471766995204774 -136.519233267463051 -18.155141108348971 44 45 47
-94.468783207512047 -135.950844218459139 -18.162419256169159 43 44 46
-94.471933227982532 -135.367926207182904 -18.277771450016843 45 46 48
-94.450668249166071 -134.842635012847808 -17.960774974377927 50 52 51
-94.459975934441715 -134.245739306284122 -18.184184126849374 46 48 47
-94.463197138345166 -133.663663304532719 -18.299493599559696 48 50 49
-94.466440963535774 -133.082137693640902 -18.414786584874207 48 50 49
-94.457474469039568 -132.527524869190103 -18.313926148601752 47 49 48
-94.460757182225663 -131.946554018131877 -18.429194819610871 49 51 50
-94.464058934845383 -131.366130967100446 -18.544448743439290 46 48 47
-94.485738282270262 -130.749154986897992 -18.983863801330045 50 52 51
-94.476836201075528 -130.194830203839757 -18.882969585000211 48 50 49
-94.480189565522679 -129.616317706558220 -18.998179151617819 46 48 47
-94.477433597961593 -129.049901799427346 -19.005328000527385 39 41 40
-94.480813692410990 -128.472206883167104 -19.120516363831314 37 39 36
-94.484206244869625 -127.895055702098546 -19.235693170326869 43 45 44
-94.481482416341279 -127.329184390753426 -19.242821038235320 39 36 36
-94.460379048930420 -126.794707485761549 -18.925841801388231 56 44 44
-94.384100915315059 -126.350339659257713 -17.636600481274002 63 42 40
-94.307797584275647 -125.899450374098848 -16.347438344171110 75 46 38
-94.256000302454964 -125.403439101572630 -15.490452600086883 86 54 41
-94.259395323748521 -124.818673624283491 -15.605706603276360 95 60 41
-94.256660625728003 -124.243555482051420 -15.612934853388140 100 63 44
-94.260065255279443 -123.659599317846045 -15.728175929353853 101 64 45
-94.257335863894482 -123.084746568626215 -15.735398908965806 103 66 47
-94.260746706798457 -122.501598611387251 -15.850628693204612 105 64 46
-94.258019320225344 -121.927010264846245 -15.857847992091848 107 66 48
-94.255291108778934 -121.352417984383308 -15.865067726089478 114 71 54
-94.246417968098470 -120.785298265143567 -15.764291369422580 123 80 63
-94.262118470759987 -120.188811038610979 -16.095496900199720 129 86 69
-94.283969625024582 -119.587016254377133 -16.534673498610800 135 89 73
-94.311974638052249 -118.980728895976156 -17.081811241326477 141 96 77
-94.303097099313305 -118.415493498099167 -16.981017592409330 146 101 81
-94.318811224480072 -117.825237255246478 -17.312152467581456 146 101 81
-94.334527511713901 -117.236606636555521 -17.643269575061908 143 98 79
-94.368702672483138 -116.632877083694780 -18.298288096390706 131 85 69
-94.365964295949141 -116.064222409782928 -18.305451574564330 123 77 62
-94.344753422923461 -115.510657762385947 -17.988720247756277 133 87 72
-94.341995868781439 -114.941179280156348 -17.995901380304730 148 102 86
-94.339229910010587 -114.371696560309928 -18.003086577218738 148 102 86
-94.348773073821107 -113.793776963406998 -18.226187746936773 147 102 83
-94.333670842929038 -113.232718859225244 -18.017470085506204 146 102 85
-94.324715152444071 -112.666897111041891 -17.916719859714675 147 101 85
-94.303420541415775 -112.107330760700208 -17.600090371423420 148 101 85
-94.288271587753044 -111.543001076517157 -17.391428738022682 148 100 86
-94.291603307795938 -110.969007686673805 -17.506602141805985 146 101 86
-94.307260442472739 -110.390382317266400 -17.837644558609952 144 102 88
-94.310577182203872 -109.818013116990159 -17.952808410323883 139 103 88
-94.307714853022247 -109.248227336140047 -17.960042830071217 136 102 87
-94.317182512889246 -108.674897119995862 -18.183132879815361 136 103 91
-94.320470582667056 -108.104150810807695 -18.298293741903507 128 96 87
-94.323748612697642 -107.533945967922335 -18.413453833387649 131 99 93
-94.333191695876280 -106.963327028055289 -18.636527732006442 129 99 95
-94.330273762166655 -106.395161748575276 -18.643772072134709 130 107 103
-94.339698636535019 -105.826170533578562 -18.866837926796251 152 138 133
-94.312038597429591 -105.259109336933449 -18.442471900775871 182 177 171
-94.339981838683158 -104.691053255853902 -18.989245661153348 186 184 179
-94.207184704940218 -104.115241993584675 -16.730665886000821 182 182 179
-93.555587467752758 -36.399034189529431 -11.531327159865384 140 141 133
-93.475155359463841 -34.201199079814025 -10.151263521688321 145 144 140
-93.406458732535924 -33.245091046055570 -8.974521718711969 145 144 140
-93.413765458263768 -32.679235712315823 -9.087709724301078 145 144 140
-93.471776756501214 -32.380233839217674 -10.060765058840133 146 145 142
-93.466709411144706 -31.750126691556300 -9.958816383978302 150 149 146
-93.468103621004602 -31.153139412402549 -9.964294488725244 139 139 137
-93.482279375898742 -30.624220509152678 -10.184675053992493 112 112 110
-93.483960516754237 -30.027382670224178 -10.190014353671387 90 90 88
-93.511060514107896 -29.569059644199097 -10.625203096658907 72 72 70
-93.557254342807326 -29.217581503642382 -11.382734262859771 65 65 63
-93.565692753319382 -28.658350133717143 -11.495312690540118 64 64 64
-93.492192572029211 -27.637896981948064 -10.210672343208927 78 78 76
-93.450445577033136 -26.789515492037225 -9.463364584940877 86 86 83
-93.503563585824566 -26.477842756140170 -10.328032395013707 103 103 101
-93.556826232620793 -26.170321432867702 -11.192588278185156 93 94 89
-93.591305080936834 -25.757140695540642 -11.734641216830227 97 97 93
-93.607013973666426 -25.235821950104686 -11.954210101969721 92 91 88
-93.629195665402946 -24.752494313188883 -12.281150245606568 94 93 90
-93.613710807479919 -24.045983544800247 -11.963253964057486 106 105 102
-93.604716961466750 -23.375248959920064 -11.752743027351187 126 125 123
-93.627419996956831 -22.893023155484130 -12.079422420208175 138 137 134
-93.662895751976919 -22.488670076621968 -12.620907574579888 143 144 136
-93.667048257491857 -21.894128718728052 -12.625040943043871 151 152 144
-93.683981997906301 -21.376896285373103 -12.843981802786374 146 147 139
-93.688511514366894 -20.782294072716006 -12.847935436914867 144 145 138
-93.718403215993973 -20.344806785181664 -13.281574165423876 138 139 132
-92.881084295531309 -1.336981489853873 3.527043171153935 123 124 113
-92.903805508984078 -0.780945156554564 3.310471590639679 124 125 114
-94.521137020386945 -1.798425458768083 -21.402872653873800 108 110 96
-94.535388487066982 -1.206958577378515 -21.402143066801614 108 110 96
-93.815022285822749 -147.398066803672833 -14.809859910084754 195 200 203
-93.760782889894372 -146.978242472434090 -13.953258234559115 194 198 201
-93.782487788232828 -146.320894561679324 -14.393076637542691 106 110 113
-93.816912055354805 -145.627432494780379 -15.048899649090913 101 105 108
-93.819753467092568 -145.031719498115052 -15.164531185510810 119 118 123
-93.803648971656756 -144.492438530447487 -14.956068840996409 104 103 108
-93.806581989726666 -143.897059390954354 -15.071653116701413 89 88 93
-93.828565299997834 -143.248026446249810 -15.511252738248089 112 111 116
-93.863274954574337 -142.565587342999549 -16.166825756513958 138 137 142
-93.891704646668174 -141.903965909906191 -16.714329915648364 141 141 145
-93.894829578644320 -141.314124889888916 -16.829765373752593 103 104 106
-93.910675725929167 -140.690872468402688 -17.161176736238446 70 71 73
-93.920223139572684 -140.085986899829663 -17.384553447143873 71 72 74
-93.923465805909231 -139.498651477630290 -17.499906790156530 62 63 65
-93.926743229988134 -138.911876575455011 -17.615237735470231 64 65 67
-93.930053969412114 -138.325660819605332 -17.730546987263040 62 63 65
-93.946093161630358 -137.708743649200073 -18.061800785792514 59 60 62
-93.949469135203870 -137.124185664087605 -18.177061765524826 57 58 60
-93.952874209448808 -136.540183005838173 -18.292303107337233 54 55 57
-93.956307034903872 -135.956734507729379 -18.407525468817113 44 45 47
-93.966120168385757 -135.359296178504394 -18.630698402086921 48 49 51
-93.963250655884323 -134.791495570779091 -18.637915823925567 49 51 50
-93.960402247467073 -134.223702569331806 -18.645123071347484 46 48 47
-93.957573714151792 -133.655916209655658 -18.652320742221633 51 53 52
-93.973841798639981 -133.047766989019067 -18.983374786562138 51 53 52
-93.977414071929374 -132.467621653435373 -19.098496435564897 51 53 52
-93.974643308191858 -131.900936514676999 -19.105655134250952 51 53 52
-93.965524377495427 -131.346895798248738 -19.004861733938867 47 49 48
-93.981875296522418 -130.742836019783823 -19.335834055837381 49 51 50
-93.979149204112858 -130.176701623967688 -19.342965714839494 47 49 48
-93.976434925937582 -129.610568310992363 -19.350091710806197 43 45 44
-93.967362876632407 -129.055990031376098 -19.249281416005232 41 43 42
-93.983777223992021 -128.455736605022338 -19.580184213312407 60 62 59
-93.974723577930476 -127.901157493720163 -19.479365123023712 37 39 37
-93.959302660347689 -127.356773465510315 -19.270628285573309 43 40 40
-93.905641300478464 -126.874108809836599 -18.414396926605946 54 41 40
-93.813715541126555 -126.448273200216548 -16.910732845749379 62 40 37
-93.740887569535047 -125.985054635429535 -15.730893904988562 72 43 34
-93.699923020548169 -125.467591702875779 -15.090664401202133 85 56 42
-93.709976459858993 -124.871815049783635 -15.313705268519868 95 62 43
-93.713657128038406 -124.286231038332318 -15.428831044801569 101 66 46
-93.723722976233802 -123.692348449548817 -15.651846479196024 107 71 52
-93.714646614287091 -123.125247244115428 -15.551167152314406 106 69 51
-93.718335082536726 -122.541009019483525 -15.666275344209453 109 68 54
-93.715639811840489 -121.965332481712821 -15.673490480270289 115 74 61
-93.719329018885588 -121.381899883432865 -15.788590026011406 126 84 70
-93.710242729338404 -120.813964924048022 -15.687924030708075 131 88 74
-93.739484203908816 -120.202234049792082 -16.234526287303282 132 90 75
-93.755953855346817 -119.607087363437358 -16.565350061088679 135 90 77
-93.785209400017649 -119.000236520318069 -17.111895353984039 142 96 82
-93.782508317423634 -118.428061684083090 -17.119077225663830 146 100 84
-93.792589293749870 -117.843639308298549 -17.341988044087515 145 100 84
-93.777087219165566 -117.283696447132613 -17.133450186752185 141 95 80
-93.780762644467970 -116.705928307060944 -17.248498018517807 133 87 72
-93.778034800772687 -116.134004559902749 -17.255690108030706 128 82 68
-93.756100728814999 -115.577178964032797 -16.939338323693562 131 85 70
-93.759752092590148 -114.999667497250385 -17.054395024344274 143 97 82
-93.763396561100024 -114.422694632834933 -17.169449479561564 146 100 84
-93.792646395653662 -113.829383417134537 -17.715858133970670 146 100 84
-93.783471937846855 -113.262470160604011 -17.615223801159800 144 98 83
-93.787095605620991 -112.687657435078606 -17.730265971982988 141 96 83
-93.765082003477247 -112.127000536840512 -17.413991672134188 143 95 85
-93.749457182356352 -111.561576963984677 -17.205568952039926 139 92 82
-93.759454223661820 -110.983619938271318 -17.428453373593641 139 97 89
-93.769444185561667 -110.406746256162918 -17.651330030510849 137 99 90
-93.785839298991661 -109.828638895818017 -17.982014068681309 133 99 90
-93.757332269869792 -109.266477665823572 -17.558002801963283 130 101 90
-93.780122981683988 -108.687949278978991 -17.996490426546785 125 101 92
-93.757994655568467 -108.122106887849526 -17.680324387136210 116 99 92
-93.793606207121528 -107.543558538098480 -18.334396541263970 146 133 127
-93.771445796610180 -106.976896816468582 -18.018254284698770 175 165 161
-93.813470544810372 -106.401733863027317 -18.780082424868738 185 179 176
-93.887611285914772 -105.828297776664797 -20.080823033209782 184 184 180
-83.080037683457277 -0.511627560894117 150.928150395391555 151 154 147
-83.485662521459588 -1.286231310706839 144.256922447981225 150 151 143
-83.582737321897099 -0.734425790496784 142.634799414535991 148 149 141
-92.848679408523353 -30.758068045232669 -8.934384957771186 136 137 132
-92.896033425970188 -30.396650367270681 -9.691463406303882 139 140 135
-92.984580361761104 -29.650041445968569 -11.097953580392215 141 142 136
-93.097993263113537 -29.648737826373267 -12.928311699591546 141 142 137
-93.132756290192617 -29.233859191765728 -13.470246165400141 142 141 136
-92.990455446853076 -27.863058495160104 -11.113537273038133 145 144 139
-92.835230933413754 -26.408411748031220 -8.542156319831037 148 147 141
-93.109254908835752 -26.691494685574369 -12.953364556119340 142 143 135
-91.669497047195051 -0.664991115398363 12.917806492862837 124 126 113
-92.154293424930103 -1.066784184797642 5.504604216622454 127 129 116
-92.228877040624766 -0.864432354287732 4.429613004470554 125 127 114
-92.342504511549507 -0.938275637005181 2.710989944355674 125 127 114
-93.556813833429928 -0.563591317467445 -15.003661464165219 115 117 103
-93.917209585248671 -1.226833719162975 -20.367366530627066 111 113 99
-93.918469084803490 -0.532338258449905 -20.152195011178009 109 111 97
-94.595795871731980 -1.025880108248149 -29.800383566641898 112 114 100
-93.220634879738498 -146.442925993589057 -13.995455702740998 199 203 206
-93.230312758786866 -145.824529383206198 -14.218909075384602 178 182 185
-93.226892490260994 -145.245038712122181 -14.226510308712307 69 68 73
-93.184054727700058 -144.777306961684161 -13.586665035838593 52 51 56
-93.167555632403520 -144.232943763340216 -13.378443780498429 68 67 72
-93.177412503885677 -143.615208751040001 -13.601804713613888 122 121 126
-93.226805510352719 -142.891749052736969 -14.472493282098498 124 123 128
-93.276261140306232 -142.172660632674962 -15.343106895958954 127 127 132
-93.306023497890337 -141.509729590699493 -15.889986992952913 123 124 128
-93.335835817531773 -140.849535835155734 -16.436815012005553 134 135 139
-93.359108810241239 -140.208796951545565 -16.875712278956968 146 147 151
-93.375836479703409 -139.586696255366462 -17.206690068967674 142 143 147
-93.386012950654631 -138.982417171817929 -17.429759598158256 104 105 109
-93.396224328866523 -138.379239111393190 -17.652801094450950 84 83 88
-93.413062428214133 -137.761528325629939 -17.983680867629772 69 68 73
-93.416746020104299 -137.176180841085426 -18.098802810528042 69 68 73
-93.413861442870171 -136.606476303065591 -18.106047037394177 74 73 78
-93.443987627164248 -135.962694142815110 -18.652555971877973 67 66 71
-93.454353605459417 -135.365274163692220 -18.875464237197292 50 50 52
-93.438345777063930 -134.826044370684855 -18.666955120735679 55 57 56
-93.422352534792296 -134.285734188797079 -18.458450147307985 53 55 54
-93.419578209658141 -133.716881190231987 -18.465632864624013 59 61 60
-93.456445813439601 -133.067278051512375 -19.119835530308791 56 58 57
-93.460318592436167 -132.486875533328714 -19.234816065720906 52 54 53
-93.450995760452855 -131.932850639979279 -19.134120048210747 52 54 53
-93.441684331797148 -131.378284418102709 -19.033424147554200 48 50 49
-93.465429506033232 -130.761313734662792 -19.471850866457260 50 52 51
-93.469365102373175 -130.182819316344336 -19.586781709237215 48 50 49
-93.499761225343462 -129.557551403373964 -20.132970929535617 48 50 49
-93.497114238200211 -128.992786949309220 -20.140050643350833 43 45 43
-93.507704549136122 -128.405449489639096 -20.362747804265979 58 60 56
-93.471998083075519 -127.896296396944010 -19.830776199195157 49 51 48
-93.429668666503545 -127.395167044547350 -19.191031513637199 59 57 54
-93.347620840108476 -126.953600537037062 -17.904521559388286 51 40 38
-93.245689283952146 -126.536108833513140 -16.294699444488401 54 36 31
-93.170206472369173 -126.070753396955070 -15.116152565974090 71 45 38
-93.147674269600074 -125.522169986382764 -14.800002084413109 85 57 45
-93.158252370617063 -124.925030927543659 -15.022805979295754 93 63 49
-93.162212145129203 -124.338086507783785 -15.137812235430772 102 69 52
-93.179425997834016 -123.733998663510519 -15.468372021711104 106 73 58
-93.163512100612991 -123.174382056652320 -15.260027820614056 108 74 60
-93.180732661879659 -122.572185476131224 -15.590564929813553 117 78 67
-93.178070197891344 -121.995691215102866 -15.597772788494041 131 91 81
-93.195296800756282 -121.395928603280595 -15.928281953351046 131 91 81
-93.185999376773879 -120.827720579734489 -15.827719774824430 138 95 86
-93.216494207159101 -120.215698098148451 -16.373725431954682 135 92 83
-93.220458559516416 -119.634143361400064 -16.488674019349475 138 95 87
-93.250962517849558 -119.026456078683793 -17.034630685320963 146 103 94
-93.241650571048254 -118.459854671639874 -16.934058916750388 146 104 92
-93.258882028854174 -117.868207514126823 -17.264482222572184 140 98 86
-93.229636463816647 -117.319151634368666 -16.840689368951189 135 92 83
-93.220294787587946 -116.751174203289253 -16.740145986943418 130 86 78
-93.217583691281831 -116.177338628921007 -16.747349743960598 129 80 73
-93.214863065518429 -115.603497433589609 -16.754558117696888 132 83 76
-93.205487678718299 -115.034416344564249 -16.654042223216635 145 96 89
-93.209391117038237 -114.455798682309293 -16.768989718894829 145 96 89
-93.219933395240972 -113.873497057526976 -16.991658022126614 144 95 88
-93.237117988929000 -113.288326798529042 -17.322037077611697 148 101 93
-93.240998661672862 -112.712139516825403 -17.436970447135565 146 98 93
-93.218264637052314 -112.150119185807355 -17.121054829428829 144 95 91
-93.208815035856873 -111.580193515954505 -17.020583132555629 139 92 90
-93.225965223837420 -110.998265896029977 -17.350945269500272 137 97 96
-93.243109930152002 -110.417964719848612 -17.681293287052654 127 93 91
-93.253592294641749 -109.841610399973661 -17.903929034202292 115 93 89
-93.224118319110573 -109.278630062613814 -17.480388782815623 146 129 124
-93.227915565985441 -108.704589438755107 -17.595339966361678 172 162 158
-93.298307492644327 -108.116040067656428 -18.787170678395142 186 184 178
-82.004534484319763 -0.825107405515442 153.188332279971917 153 156 148
-91.451714716388622 -1.028938788066300 6.941845567741609 127 129 116
-91.521629541709515 -0.775453279862394 5.974953362566765 127 129 116
-91.618671401570623 -0.706072410257913 4.579498179581719 125 127 114
-91.709161648120656 -0.598248743855269 3.291371901146732 124 126 113
-91.806555549688312 -0.542060351484698 1.896220930502864 123 125 112
-93.015755584431446 -1.290533975180299 -15.476736859774093 116 118 107
-93.041802291114948 -0.783127447054035 -15.691216964711487 114 117 106
-93.101406700854483 -0.521829497391251 -16.441404284902916 114 116 105
-93.327563217190360 -0.804260655620493 -19.656071124508856 115 115 105
-93.401034907934502 -0.657372668647372 -20.620164475621067 114 114 103
-94.004433947420438 -1.109602453230617 -28.973838438853392 115 117 103
-94.072601844586274 -0.948541175716850 -29.829756114512719 114 116 102
-92.642448610463759 -145.420713799148530 -13.506567981294722 201 204 207
-92.611851744435995 -144.913350663689329 -13.082992421073868 203 206 209
-92.574460757931433 -144.422192683057460 -12.551641452080929 114 117 120
-92.550745852814003 -143.892181248201382 -12.235865600593655 10 11 15
-92.547541520156926 -143.307136369866640 -12.243420703187269 3 3 7
-92.571687931648412 -142.651964876276224 -12.682048691692046 12 12 16
-92.589052172733531 -142.016252774525412 -13.012862057055656 37 38 42
-92.620121859020529 -141.348202186570262 -13.559169430537906 92 96 99
-92.651238653393804 -140.682885738882362 -14.105426123793848 117 121 124
-92.675566844042933 -140.036752191915127 -14.543874117647817 146 150 153
-92.734113203769880 -139.311913250654953 -15.521056835469039 154 155 159
-92.785875999323252 -138.607884376341445 -16.390411693745193 162 163 165
-92.844525763801585 -137.892578577615268 -17.367446813662696 158 159 161
-92.855348615945331 -137.289718375342233 -17.590192511048627 149 150 152
-92.873041736795486 -136.672862003811701 -17.920654449956487 109 110 113
-92.918134408093906 -135.998362458082568 -18.682037427679091 92 92 95
-92.929049273334542 -135.400416161168380 -18.904688525018457 77 78 80
-92.933144574192198 -134.817839340112954 -19.019584987926720 71 72 73
-92.909876621033945 -134.291832022374990 -18.703554099765256 64 65 66
-92.914008266965695 -133.709264114819547 -18.818433083563519 67 69 68
-92.938705109052819 -133.086856555090066 -19.256460492327619 63 65 64
-92.956577371118570 -132.479814834339493 -19.586735703561061 57 59 58
-92.953917383246491 -131.913160674572623 -19.593841088570485 57 59 58
-92.944417679612712 -131.359154343952497 -19.493229494776045 55 57 56
-92.969196372976583 -130.742727570934335 -19.931156182927822 54 56 55
-92.966575413272807 -130.176888511379929 -19.938234506759358 52 54 53
-92.991389411743882 -129.563719624766946 -20.376110770007472 50 52 51
-92.988791534616823 -128.998964078655121 -20.383166898065213 49 51 50
-93.020495348227783 -128.377761916748852 -20.928688672825388 46 48 45
-92.990477281561624 -127.858428162491677 -20.504959436566708 52 54 51
-92.919286802064903 -127.401391129838160 -19.435132380505451 64 63 59
-92.772587864719114 -127.054130061899357 -17.180850598581117 28 20 17
-92.667023392597713 -126.634241827773721 -15.572791126919725 45 32 28
-92.609479805164710 -126.136685184346177 -14.718570303022773 54 34 26
-92.579383332123697 -125.596141311224912 -14.295096902513592 71 50 39
-92.576747887663785 -125.015869795549406 -14.302330716323894 88 63 53
-92.608456131882761 -124.390014724904447 -14.847898266223382 97 68 57
-92.633305881849367 -123.775714417291212 -15.285769072363308 105 76 65
-92.610065359494314 -123.223587205984657 -14.969993926585602 113 82 73
-92.600559789729985 -122.653222590616636 -14.869553523170566 134 97 90
-92.618543151590771 -122.050192652555566 -15.199734289348271 134 98 90
-92.657154619545523 -121.425514642256587 -15.852846129521936 143 105 99
-92.661395335854280 -120.841517953323788 -15.967687641590175 147 109 102
-92.686265206311447 -120.236416463483550 -16.405454134103962 149 112 105
-92.690502830947153 -119.654308329374970 -16.520277685374452 149 112 105
-92.708495834670899 -119.059395988655780 -16.850370280410630 151 113 106
-92.712726451911195 -118.478904740254436 -16.965180540578245 152 114 106
-92.710068945896310 -117.905077380364887 -16.972358575628078 144 104 96
-92.686751562343517 -117.348809625012748 -16.656662820683721 137 96 90
-92.656532198649913 -116.796488872262643 -16.233369435979711 135 93 87
-92.674496178789752 -116.204804369040332 -16.563442690046088 135 86 82
-92.685569731196566 -115.619784150643483 -16.785884817369464 139 89 86
-92.669082191340436 -115.054918865564517 -16.577869072224388 144 93 90
-92.666358026707584 -114.479967161773743 -16.585090569965132 145 95 94
-92.663621757884215 -113.905009727675179 -16.592317917294110 142 94 92
-92.709121523279691 -113.302373087723254 -17.352766421606049 149 109 105
-92.713262772094069 -112.725625222110168 -17.467580902802723 142 108 103
-92.710497980594980 -112.152825678719395 -17.474799683028863 137 103 101
-92.687029631398474 -111.589435931091032 -17.159249459775339 125 95 93
-92.691130847424034 -111.012945359420613 -17.274080444065220 130 109 108
-92.695220197643962 -110.436993971934811 -17.388911554822101 166 153 149
-92.747601486391375 -109.845321035167018 -18.256813991966283 185 182 180
-92.627440810222524 -109.309273875993611 -16.435215206617414 186 185 183
-90.735212442968646 -0.954809005334875 8.482911324656584 129 131 118
-92.290137124504525 -0.711443463083195 -13.058358990330476 116 118 105
-92.516865499081746 -1.605270956730040 -16.377317730214770 116 118 107
-92.501611764789459 -0.806906108182691 -15.949397495183064 114 117 106
-93.347592889486549 -0.734870943258651 -27.185607435698302 117 119 106
-93.651424521347522 -1.650421625051365 -31.465186598181816 117 119 106
-92.156530440265271 -144.732864211893116 -14.411263259199984 192 197 200
-92.011972579958751 -144.519806733985376 -12.265434653309256 195 199 202
-91.959311409205100 -144.060820451043867 -11.519339958832376 201 205 208
-91.934955495723798 -143.526805611689582 -11.203911972602810 199 202 206
-91.960141056379086 -142.868401563071302 -11.642076110022288 104 107 110
-91.964148434360965 -142.263994409247772 -11.757239345514762 4 7 10
-91.968191949173743 -141.660147786181540 -11.872379523446540 0 2 5
-91.958114875292765 -141.090309838007244 -11.772207104391953 0 1 4
-91.933907464098525 -140.552849061225970 -11.456743545942317 0 3 6
-91.945122528340775 -139.932863733790441 -11.679477887920996 0 2 5
-92.005942381884481 -139.202607926546278 -12.655628732615952 4 6 8
-92.102227581194143 -138.399061505348271 -14.169861919171353 55 56 58
-92.170237164305320 -137.664596451714090 -15.253475434693627 107 108 110
-92.224124883650404 -136.965761931796038 -16.121760268612235 154 155 157
-92.320577049362598 -136.182341279445893 -17.635706414363909 144 145 147
-92.353291468024068 -135.537496260983090 -18.180988086931620 142 143 145
-92.386037735038997 -134.895372237069722 -18.726226514792415 119 120 122
-92.376269515037009 -134.340017810944403 -18.625757254932466 103 104 106
-92.394883601339643 -133.729176298492405 -18.955716693158593 76 78 77
-92.413520529453166 -133.119966456860737 -19.285648408333145 79 81 80
-92.432179065572754 -132.512387468751399 -19.615552999117170 66 68 67
-92.436666272724835 -131.932281968346018 -19.730236536852573 76 78 77
-92.434070617003798 -131.365369330220688 -19.737313806229054 68 70 69
-92.445682301522282 -130.773698686738612 -19.959566949161086 58 60 59
-92.450208899439374 -130.195219584416265 -20.074214901157006 49 51 50
-92.476048875237879 -129.581775949925316 -20.511603168486374 45 47 46
-92.494804059532498 -128.982065994957480 -20.841380523203554 67 69 68
-92.520676243239478 -128.372690582704593 -21.278711506124694 33 37 36
-92.496832208463317 -127.842625790362916 -20.962997979058940 52 54 51
-92.394822556821453 -127.429160754598044 -19.464030661178072 47 47 43
-92.228820020720363 -127.102376729528117 -16.997055104401085 8 3 1
-92.084088484917572 -126.732475631451024 -14.852924054446333 21 12 7
-92.031731494112279 -126.222565976350509 -14.107208021176092 25 10 5
-92.000689898120044 -125.679861290765629 -13.684209006575344 44 26 21
-92.005197281747371 -125.088025667902230 -13.799003635997309 61 42 37
-92.059496970445849 -124.432896614079610 -14.666641502871101 101 80 75
-92.085357345151522 -123.817495189850888 -15.104040163946451 118 96 91
-92.068532134100167 -123.255711729566769 -14.896154236772986 128 105 101
-92.073048406065340 -122.667923727784142 -15.010902949847491 131 110 106
-92.113152079093098 -122.040512347992248 -15.663329060174362 145 123 119
-92.160384380708322 -121.408593618220991 -16.423250140357965 149 127 123
-92.143545123594180 -120.847867918816078 -16.215360044708689 149 127 123
-92.155180548715052 -120.257180702127755 -16.437591707311839 151 129 125
-92.152568053696100 -119.681463151020509 -16.444767665943232 151 131 126
-92.178443652224573 -119.079044396880477 -16.882025406848783 150 129 124
-92.197195291742005 -118.485193644895148 -17.211744145655530 147 126 121
-92.180312645732059 -117.923616088000983 -17.003883575702332 147 122 118
-92.156287398810761 -117.366802864654730 -16.688532074943225 146 117 115
-92.132244170132481 -116.808352297419702 -16.373206030598254 135 103 101
-92.172354732725296 -116.200430207101206 -17.025428231933688 143 103 101
-92.191074278610088 -115.610891501656099 -17.355117938162977 151 106 105
-92.166992534321039 -115.051605378450262 -17.039818920351564 151 104 106
-92.142890535757985 -114.490682479408775 -16.724546440271240 138 96 98
-92.118767743427682 -113.928122984587091 -16.409300754160455 138 102 104
-92.173126812608004 -113.320407728875665 -17.276422159572633 126 103 102
-92.177526945449586 -112.742826405407953 -17.391121370738489 139 123 120
-92.181915282379151 -112.165783037693032 -17.505820687579416 168 159 155
-92.150588638633721 -111.604983424795066 -17.083144299023701 185 182 178
-92.162087573398082 -111.024788762154017 -17.305333253015760 186 187 183
-91.870847686487807 -0.900257733020153 -15.030744218868762 117 120 108
-91.940359719879979 -0.683886617570743 -15.886588196311862 115 118 107
-92.739143418072047 -0.778414766557754 -26.256791624659769 116 118 105
-91.382498571270602 -143.586294559869316 -11.135016467207635 193 197 200
-91.401416627051958 -142.944644756687865 -11.465147612690259 196 200 203
-91.383777786605989 -142.390997257862722 -11.257567175491772 205 210 213
-91.380807904977715 -141.802279924657313 -11.265047919939718 207 212 215
-91.348578706275191 -141.280487429408737 -10.842401790724296 187 192 195
-91.309044167617344 -140.772990362346150 -10.312244476158696 169 174 177
-91.298824909635272 -140.198050639950935 -10.212192592615708 167 171 174
-91.317935515213378 -139.558926845350726 -10.542205621460312 163 167 170
-91.381045901011689 -138.827595375068711 -11.517271755715939 158 162 165
-91.436874229328268 -138.116530531001899 -12.384754101824882 149 153 156
-91.514736541128997 -137.364525037057518 -13.574693543198606 135 139 142
-91.658632699259044 -136.485065636775346 -15.732084530202997 181 185 188
-91.787933130056885 -135.645584956734780 -17.674328772241125 184 188 191
-91.895294320061964 -134.858734970912650 -19.293950262936761 190 194 195
-91.885342738658110 -134.304216032739788 -19.193560122445746 182 186 187
-91.897414007109688 -133.707936392908721 -19.415640844714233 167 171 171
-91.902166443229106 -133.126211791394098 -19.530214164041894 127 131 130
-91.921612574748110 -132.518637533848533 -19.859741923192388 107 111 110
-91.926397129217605 -131.938541483605206 -19.974283113715131 95 99 100
-91.916511623312942 -131.384293136854893 -19.873858577598327 72 76 77
-91.928661640925824 -130.792354866582571 -20.095856938640253 79 83 84
-91.926136968273795 -130.225719751956944 -20.102897393271007 70 74 75
-91.945655352865899 -129.623566614762353 -20.432334784483857 53 57 58
-91.950494498037742 -129.046172252384054 -20.546822049171340 76 80 81
-91.984731867765234 -128.424137097582332 -21.091140353783970 56 60 59
-91.952846211463665 -127.904022372458030 -20.668312604930776 70 72 71
-91.825404135430631 -127.521499501165763 -18.848616913699232 18 19 15
-91.646465314884452 -127.203094114540818 -16.276884900603875 15 12 10
-91.533642258875858 -126.779768609364766 -14.672333292151421 11 5 3
-91.501673540901791 -126.238983945081486 -14.249758045785086 16 4 4
-91.477049710752169 -125.686354025807816 -13.934649844340328 11 0 1
-91.459773451254563 -125.122693541374574 -13.726999018349971 11 1 1
-91.486633420748319 -124.503209112603088 -14.163961505121961 9 0 1
-91.484066429665276 -123.921290132303838 -14.171179529252385 53 44 43
-91.466776438243286 -123.356519828325190 -13.963546696497644 190 182 181
-91.508363336703283 -122.724201991827584 -14.615313741485465 192 189 186
-91.630941224118303 -122.006752111352753 -16.448659015991637 190 186 182
-91.665195530406436 -121.391690168226788 -16.992897439440867 190 186 182
-91.633175321696811 -120.846760854369577 -16.570389489026041 189 187 182
-91.556944026042657 -120.342968935601093 -15.503455213666513 190 187 183
-91.628017033127890 -119.694771871941384 -16.584715197902028 194 191 186
-91.677001257157272 -119.072030024745558 -17.343703702145376 195 192 187
-91.799686014175037 -118.389036530933694 -19.176643173702587 193 188 183
-91.716027554811731 -117.886998214936767 -18.002385092368513 189 184 179
-91.624959341731710 -117.384835767039647 -16.720814204645535 188 180 177
-91.592833982231198 -116.831427575666183 -16.298443835354391 184 173 171
-91.649177704087890 -116.212023385455822 -17.164736109803812 169 151 149
-91.653900280984544 -115.632282499460459 -17.279303294300973 162 140 140
-91.636481959841177 -115.067401180180340 -17.071732996781350 152 128 130
-91.641179101074357 -114.487917830662013 -17.186309698660352 150 129 132
-91.645864700346237 -113.908971186610074 -17.300886397595121 165 149 149
-91.687441294780882 -113.310765311946483 -17.952307240433782 187 186 181
-91.544471289526427 -112.808001558333373 -15.919559987281104 178 184 177
-90.824610187314022 -141.270037392398621 -11.204032986582661 191 199 201
-90.799059218735110 -140.729938813607077 -10.889239333601722 191 199 201
-90.735677365061719 -140.269156604316436 -10.037432978537794 192 197 200
-90.816153690374762 -139.501639448882514 -11.226281554131418 193 197 200
-90.783094388232058 -138.974765748183785 -10.804084846956698 193 197 200
-90.742473680147356 -138.461097471728493 -10.274510675480258 192 196 199
-90.777611947771987 -137.793710425616922 -10.818864823426992 192 196 199
-91.353097818725502 -134.922142919556933 -19.109246981131321 189 193 196
-91.396012918124896 -134.268457202566680 -19.760598569670663 189 193 196
-91.408632096737207 -133.673001505973218 -19.982408692334701 191 195 196
-91.398521940486077 -133.119044520884131 -19.882088629041675 192 196 197
-91.396004833115057 -132.551343415679725 -19.889136437244474 193 197 196
-91.385913645177894 -131.996567803887046 -19.788815726110926 178 182 183
-91.360657677911874 -131.466558212438855 -19.473777094498104 156 160 161
-91.380926207557792 -130.860608478602757 -19.802894699164995 114 118 119
-91.393620928669591 -130.268397216237162 -20.024635285964848 120 124 125
-91.436684997940347 -129.629902993882439 -20.675759234142475 90 94 95
-91.456996356056337 -129.029371876200941 -21.004800573277976 94 98 99
-91.469727174931492 -128.441762827427908 -21.226476518135115 91 92 94
-91.398941938215842 -127.976523238485925 -20.267398913269375 102 103 105
-91.259789387154598 -127.603179117702226 -18.342352106740748 8 10 10
-91.113000439238078 -127.230531636793344 -16.310092470507612 13 13 13
-91.026940277485636 -126.765863409945965 -15.136598686263397 15 12 11
-90.994038388813664 -126.225633373447096 -14.714464156497883 18 10 13
-90.961125702265846 -125.683222046234022 -14.292357245520293 8 2 3
-90.951001780427376 -125.110440128564562 -14.192237542124928 108 103 105
-90.925669668016567 -124.555355738566874 -13.877493445586339 208 206 207
-90.869916386609532 -124.034044646933722 -13.133519546812295 194 195 195
-90.760915784392054 -123.568990508856146 -11.638427708270058 188 191 190
-91.366928411690424 -117.191792462000038 -20.615444496132852 186 187 183
-91.074917125290114 -116.837769205610527 -16.546148206861830 185 187 184
-91.148472769830903 -116.207684981215834 -17.626034061294746 186 186 183
-91.260136927782781 -115.557781664696307 -19.242187366010711 188 185 182
-89.833375927345145 -0.546204675873276 -3.482054174538519 121 122 108
-89.951147649126568 -0.564568758479530 -4.977547944685057 120 121 107
-90.707643831669202 -133.435305053369973 -17.659592566460248 189 193 194
-90.642527426852865 -132.966987215838401 -16.808693582724658 189 194 195
-90.765302429451495 -132.183981185414041 -18.531760475466143 190 194 195
-90.801989664377999 -131.548913683242034 -19.075040921463369 188 192 193
-90.838696085335002 -130.916557683231844 -19.618284278075436 189 193 194
-90.836257131735707 -130.347492122677522 -19.625308742806112 183 187 188
-90.904328165575123 -129.671822325732563 -20.597428766476924 135 139 140
-90.909744320656074 -129.093616625338285 -20.711648343111420 162 166 167
-90.915166078384459 -128.515947404255058 -20.825859717207607 118 119 123
-90.826544568218722 -128.071166385523810 -19.653386564241117 121 125 128
-90.706545029013654 -127.663432338347590 -18.052107670041352 13 15 17
-90.602190458040141 -127.226568700959731 -16.665361892012442 13 14 16
-90.552690807109997 -126.711132942334217 -16.029194685020201 7 7 7
-90.518859683197149 -126.172543123613181 -15.607487814623227 33 32 33
-90.469330682743873 -125.651113186548741 -14.971396349432098 193 192 193
-90.427628742993804 -125.117014648574951 -14.442549734423324 196 196 197
-90.456519873684996 -124.498040392597943 -14.878535269175785 190 193 193
-90.383409587992972 -123.996358727881812 -13.920945076363665 187 192 192
