ply
format ascii 1.0
element vertex 684
property double x
property double y
property double z
property uchar red
property uchar green
property uchar blue
end_header
31.489633450504073 -0.726958014014248 -41.455247244912442 145 142 123
30.582809251812193 -0.752636531774088 -42.794903493435953 142 139 120
29.277654154407955 -1.089868834968790 -44.716804820198234 138 135 116
27.972505110041652 -1.439365281993515 -46.638582801719622 137 134 115
27.577947514419151 -1.099629714727876 -47.229337063709721 140 137 118
26.785053688905506 -1.072252897496574 -48.402325567615918 143 140 121
25.935278846731805 -1.096619892469599 -49.658428647991343 145 142 123
24.630201036952855 -1.486168052598955 -51.579828435491891 144 141 122
24.008146570581303 -1.348772992555211 -52.503101721503640 144 141 122
23.443056272682028 -1.171880559400160 -53.343174151838355 144 141 122
22.821091720602567 -1.045624774997512 -54.266375790379158 143 140 121
22.199171491882439 -0.925067535378838 -55.189539975078930 141 138 119
21.406518396139674 -0.948278840541381 -56.362122914325255 141 138 119
20.898536836329129 -0.747327455936803 -57.118904735162289 143 140 121
19.479732847999102 -1.296113789250403 -59.205976959994729 142 139 120
18.459439138230763 -1.530323075050015 -60.710921041248810 143 140 121
17.894630916247607 -1.397089519206268 -61.550679012978492 139 136 117
17.557614245538048 -1.079409910080714 -62.057874738235597 139 136 117
16.822097227731078 -1.098327299896852 -63.146976695827590 141 138 119
16.143555976961736 -1.076063869106667 -64.152900675027240 143 140 121
15.123400357714203 -1.349302413276958 -65.657509070550191 144 141 122
14.615758877435894 -1.195628426684910 -66.413966934261850 140 137 118
14.335958183846074 -0.851447610804665 -66.837948492166788 138 135 116
13.377912077824305 -0.515328385480186 -68.267683406639350 143 137 121
11.674459875061913 -1.419857410618796 -70.769213487745390 136 133 116
11.622698820578577 -0.894376832710240 -70.860719097190241 137 134 117
144.708242279230234 -1.091250148361235 123.331405932216228 145 143 130
142.426602698923290 -0.847714346684732 119.986072253461600 146 144 131
137.004723425308271 -1.950424792012153 112.059637398435200 148 146 133
134.837169523548027 -1.716772311091975 108.881545025943268 147 145 132
132.041530350362905 -1.774705641746265 104.787480199518313 149 147 134
126.733623875672905 -2.954613068756117 97.029033545306021 150 148 135
125.079806658203054 -2.574579648941726 94.601394495736372 148 146 133
124.168228149757212 -1.879749808312133 93.256596138217475 149 147 134
122.571472640665419 -1.502182854527706 90.912543236445259 149 147 134
120.175328104272637 -1.503570676274585 87.402791688246026 150 148 135
117.950448430570049 -1.449087467074358 84.143109162955227 148 146 133
115.896839246431227 -1.336289942024956 81.133467818737103 148 146 133
113.843207934585777 -1.243098186602770 78.124038872373831 147 145 133
112.646054425306417 -0.763632528195787 76.363781043499444 143 141 129
110.649490238627195 -0.678244461152915 73.437990592271632 143 141 129
108.881312029808186 -0.501503670707415 70.845436272285269 141 139 127
98.555558631087393 -0.623509679593192 55.721039003047082 141 137 125
96.730200992047088 -0.584163341130567 53.046394511678699 141 137 125
63.537204411472871 -0.621037004242019 4.406318835177643 146 143 125
61.768956794774994 -0.903031114963307 1.818519708468983 146 143 125
60.686145845349984 -0.776473462923021 0.228911220130016 146 143 125
59.831837635189856 -0.517295144674141 -1.027941786889670 143 140 123
54.244172692128430 -0.959002210656766 -9.214446040523313 143 140 123
52.704472688649076 -1.194999218484539 -11.468619493605189 143 140 123
52.021669875206626 -0.885540420302143 -12.475461002020609 142 139 122
51.110394842020597 -0.732878664185265 -13.814823732607778 143 140 121
49.627867821707966 -0.967488796128339 -15.985503935753798 144 141 122
48.430994285875386 -1.025341280894059 -17.740364817392276 144 141 122
47.634049962122504 -0.825545068096594 -18.913190376279402 144 142 121
46.208695651790691 -1.058727572799614 -21.000377618272438 143 140 121
44.440556917500047 -1.539043662420325 -23.586187406194256 143 140 121
43.929349395771439 -1.173040248895207 -24.343124901356077 142 139 120
42.449984741411171 -0.773354416717385 -26.521847096535595 147 144 125
40.796166040570796 -1.224460061171847 -28.940930104548983 146 143 124
39.428036309117232 -1.489570304879470 -30.944305855750770 144 141 122
38.631310762012930 -1.361711758418896 -32.116495586098665 140 137 118
37.606056887176194 -1.404674604000801 -33.621035337069202 141 138 120
36.809395614800337 -1.292722401765932 -34.793092084235127 142 139 121
36.069912678492173 -1.146779098062054 -35.881993753947484 146 143 125
34.987598951751565 -1.257688513565234 -37.469395744094896 146 144 123
34.362475858898406 -1.043205854443444 -38.391994511098886 147 145 124
33.680248977735801 -0.876692518481214 -39.397640134090608 145 142 123
33.226659609047388 -0.546553463163319 -40.070913901392117 144 141 122
31.233752375290251 -0.716092258452106 -42.995829736104696 140 137 118
29.522915683817772 -1.355982512132073 -45.496551162941444 137 134 115
28.669392121573154 -1.358416263594411 -46.751086638378268 140 137 118
28.158841471137833 -1.105713407300719 -47.507172118962274 143 140 121
27.362549837117058 -1.078213329234712 -48.678536391711077 141 138 119
26.223332081583067 -1.324382019489332 -50.348182282791441 143 140 121
25.255614368958248 -1.447198107967424 -51.768566282082276 144 141 122
24.859557666289106 -1.129690536595361 -52.358374572471661 144 141 122
24.406395097738397 -0.860912072602546 -53.031220904104657 144 141 122
23.042886513623955 -0.701539753634229 -55.041176808612875 142 139 120
22.304024225350744 -0.677236517762045 -56.129123291892824 141 138 119
21.508027060677819 -0.706010209126015 -57.300049183589977 143 140 121
19.858957621492024 -0.832369119946017 -59.724747003367895 142 139 120
19.291776511520339 -0.694910551953988 -60.563413283789913 139 136 117
18.043197847422533 -0.530686259022662 -62.406683442051786 140 137 118
16.561192730234367 -1.176157441216344 -64.573384122674469 143 140 121
15.822608872742123 -1.208740600509865 -65.660878246042927 141 138 119
15.141251352166776 -1.199589032240319 -66.665319964433024 138 135 116
14.688704408863131 -1.001585562844963 -67.337732286500341 136 133 114
13.893047467223326 -1.101808361028693 -68.508085478180931 139 135 117
13.783788953541261 -0.617564170774975 -68.682518918296893 142 136 120
12.702223435879773 -0.977011113081414 -70.267720527485181 139 136 119
12.421495202703483 -0.648399410146127 -70.691098092930503 140 137 120
9.016455042125173 -0.833598600703556 -75.711765298534658 142 141 123
146.192055065758495 -0.943474821343347 123.396046049992009 144 142 129
143.671208062055598 -0.793109818239390 119.722671896808464 145 143 130
139.143425242260662 -1.509422562284872 113.138269136059336 145 143 130
134.902269971686508 -2.146968704958540 106.970228378645544 147 145 132
134.158833003817335 -1.323067625752262 105.876239744118720 149 147 134
129.458842948012432 -2.223688736260574 99.043540858643013 151 149 136
126.307006400904044 -2.489562049652832 94.456866756140130 153 151 138
124.990073978456095 -1.971591125421781 92.531796624872356 151 149 136
122.870330755671887 -1.826028253376942 89.442597422956652 149 147 134
120.750561848203915 -1.700631808329396 86.353618091669460 149 147 134
119.089517460828930 -1.385454634532061 83.930104093330954 147 145 132
117.829866387261021 -0.900507423052346 82.088829575688578 148 146 133
115.767383737807322 -0.802560426098470 79.083586130807333 149 147 135
107.574612605467095 -0.578816978399853 67.147856110715736 145 143 131
97.146922389651579 -0.831335699224868 51.962709613352956 143 139 127
95.543083383868805 -0.693421104461988 49.624512294239878 144 140 128
82.024106603005137 -0.516741818548143 29.927428957153097 144 142 124
80.133491651843428 -0.678291142015496 27.175212375269382 145 142 125
78.759075932550914 -0.567969587735309 25.170979311005738 146 140 124
65.586741810831995 -0.643288893929829 5.975810571600277 144 141 124
64.327154952971867 -0.596523867750208 4.139015762740542 147 144 127
62.723401136352592 -0.772590232881279 1.804009653174376 147 144 127
61.521206756785901 -0.715697317620259 0.050513112894350 148 145 128
60.319030744759999 -0.670098377945662 -1.702875959789878 143 140 121
56.597879009668290 -0.674046582548435 -7.128476603740154 145 142 123
54.707347280917531 -1.115554909622269 -9.877851240276527 143 140 121
53.447883104382171 -1.167193742578205 -11.713691819105549 141 138 119
52.647404642740270 -0.932015360257840 -12.885190864985958 139 136 117
51.789587233824221 -0.741907088733138 -14.139654110660587 143 140 121
50.300697687327471 -0.976365485516898 -16.307292064975258 145 142 123
49.156061914155714 -0.995942389510279 -17.976678418075039 144 141 122
48.527824085469632 -0.680530296632941 -18.898826023497321 144 141 122
46.924231110130819 -1.028523617484808 -21.232139348456798 145 142 123
45.492774144291175 -1.274688913323962 -23.316273462581904 145 142 123
44.462976659584228 -1.259694386673156 -24.819236150512410 144 141 122
43.662723564358032 -1.096328626327726 -25.990103807520029 144 141 122
42.173935857387036 -1.417569799173486 -28.156897182804755 147 144 125
41.144211007815386 -1.432456431666491 -29.659587037352992 147 144 125
40.286661652351782 -1.336013342736672 -30.913214376102644 142 139 120
39.716068177645369 -1.044640049892454 -31.751832514515257 140 137 118
38.399505147914326 -1.289548031164895 -33.669226666180691 145 142 123
37.369890340396353 -1.341144192933004 -35.171591294844092 143 140 121
36.684631921541680 -1.153963168524476 -36.175999383494883 144 141 122
35.827245583532616 -1.098084487445969 -37.429287159408261 145 143 122
34.969892836584449 -1.050142288987693 -38.682509310967419 145 143 120
34.112573706130433 -1.010132144121799 -39.935665895929844 143 141 120
33.714441868750697 -0.638224072902446 -40.525041420660074 141 138 118
31.885201411626923 -0.679519202931671 -43.196998302020461 141 138 119
30.568835358515571 -1.015913942918059 -45.113544967459205 142 139 120
29.482078921582485 -1.190308713395470 -46.698168093627800 145 142 123
28.911961144464101 -0.980243884549669 -47.536176855270128 144 141 122
27.653048139554031 -1.304687170331337 -49.369472999437335 136 133 114
26.910793130996964 -1.241396476476371 -50.456197734453383 138 135 116
25.996355972238391 -1.318879130566327 -51.791678722976627 146 143 124
25.483810355855695 -1.090301418769246 -52.546561486457875 146 143 124
24.856496982003321 -0.956741650378193 -53.467279450573102 143 140 121
23.716839894190159 -0.615227630271322 -55.142764479961187 142 139 120
22.917421827978387 -0.636273022498734 -56.312133375353454 142 139 120
21.830946965601484 -0.896114626356544 -57.896011658643744 145 142 123
21.318691859744604 -0.700341214124309 -58.650695730229899 144 141 122
20.461956910120122 -0.790198208524602 -59.902794997594583 145 142 123
19.490403172612929 -0.982149454721738 -61.320632212821607 142 139 120
18.576297643444761 -1.135669596030919 -62.655489159750289 139 136 117
18.179077691406803 -0.868630331718455 -63.244221459991223 140 137 118
17.265041724273672 -1.036495337440886 -64.578964026263350 143 140 121
16.982797793879016 -0.682432455364453 -65.001878469127291 141 138 119
16.356013757805314 -0.621646751088606 -65.922100566620941 137 134 115
15.212333538966291 -1.005362456262224 -67.588195790029971 137 134 115
14.068656820207053 -1.399673623546172 -69.254183623450956 139 136 117
13.614298054422292 -1.212840716521963 -69.925614191643604 141 135 119
13.389782087957641 -0.831646196975430 -70.265565889230515 139 136 119
12.533419318800526 -1.000718671013632 -71.517027801728773 140 137 120
12.021785666603606 -0.876795741989960 -72.271269581497393 139 136 119
11.165488656941022 -1.059883771266589 -73.522618683961582 137 136 118
10.653951679802205 -0.946658384413116 -74.276796597571064 141 140 122
9.797718601749239 -1.143752010496251 -75.528032118054398 142 141 123
155.273934519296716 -1.397229919455219 134.465361782614480 135 133 121
144.629237199273973 -0.857579213358062 119.043299887441776 145 143 131
140.485134996719779 -1.405621871523974 113.049625740469651 146 144 132
137.550262867814553 -1.481630924923488 108.800637775464338 147 145 133
134.788104012423048 -1.511584082706051 104.801126950712927 149 147 135
131.910731924478426 -1.617460160540003 100.635797484412620 151 149 137
129.033319060005510 -1.750564459919438 96.470767799226167 153 151 138
125.407231005073157 -2.241433870697862 91.226418910963162 151 149 136
124.199781823773890 -1.687268078667269 89.470317570290973 149 147 134
122.877146492787844 -1.196540108812454 87.548256116335040 148 146 133
121.496912371067737 -0.744629950719280 85.543290412750508 147 145 132
119.310419003694761 -0.676965250555797 82.375967211301145 148 146 133
117.008724423197279 -0.683546761450204 79.042802359041332 147 145 133
110.333874577378538 -0.723465312769392 69.376807896737716 142 140 128
107.916914620582261 -0.871692104861401 65.878525861597524 144 142 130
106.306225173968670 -0.648876830787613 63.542731844553970 144 140 128
98.020404909650580 -0.844759166851075 51.544976744328551 144 140 128
95.545757898588491 -1.148977747577884 47.965038815137945 144 140 128
94.338192385242905 -0.821898176211209 46.211330639865565 144 141 124
67.417114591858635 -0.815608452131402 7.208259092417450 144 141 124
65.979293745065078 -0.861531923097680 5.125108247430887 144 141 124
64.887133427986271 -0.711583409370475 3.539731690640650 145 142 125
63.679777489305508 -0.642179133627813 1.788575636829847 148 145 128
62.414831085535042 -0.619504574855399 -0.045407208354362 147 144 127
61.207513071572620 -0.572962287474387 -1.796346075289335 144 141 124
60.000214849042251 -0.537708049443795 -3.547178216814984 143 140 123
58.504875112364161 -0.694949378986353 -5.712525256319879 145 142 125
56.951933300484299 -0.902686209356247 -7.960654769855381 146 143 126
55.571843072917744 -1.014591607979107 -9.959885675147859 144 141 124
54.479842933920807 -0.954118582997163 -11.544417844429120 142 139 122
53.675947369328469 -0.717204287616756 -12.714300028596000 139 136 117
52.411149648481157 -0.788521837692195 -14.547386495187055 143 140 121
51.203988596739663 -0.833768948791823 -16.297455617920917 145 142 123
49.996848137229051 -0.890265636156490 -18.047418794367644 145 142 123
49.020208973469266 -0.804378674290524 -19.465683087356297 145 142 123
47.813113890322299 -0.882278172975659 -21.215447661811112 145 142 123
46.548416877735150 -1.010362786896628 -23.047997974983105 145 142 123
45.629479058039536 -0.914903298753215 -24.383106043089697 145 142 123
44.249575457963275 -1.143887480801143 -26.381221079600721 144 141 122
42.812058846047464 -1.425483172518915 -28.462091576950201 148 145 126
41.893196064140724 -1.360173705105558 -29.796925193568342 143 140 121
41.204878387481529 -1.142154756316192 -30.800187174019015 143 140 121
40.574232330589382 -0.889892355186090 -31.720532659821401 145 142 123
39.194429334695116 -1.174414578291582 -33.718124144071680 147 144 125
38.102798472604661 -1.266181735190918 -35.301265889488207 147 144 125
37.241725844708114 -1.202509046102935 -36.552870384594769 144 141 122
36.438322847821965 -1.105116418539968 -37.721552044847442 144 141 122
35.404411677284770 -1.182844929657412 -39.221592314769453 144 141 122
34.485802272308973 -1.185727561976555 -40.555845210503577 141 138 119
33.970700064127271 -0.899752820296592 -41.310095725693799 139 136 117
33.398009763034196 -0.661186518350707 -42.147167180665036 141 138 119
32.479515107102202 -0.685935009238539 -43.481249895681657 146 143 124
31.272832018791220 -0.935598251779763 -45.229443516551555 145 142 123
30.584974891600211 -0.804365891971424 -46.232032484330972 145 142 123
29.263041866741602 -1.161600015256025 -48.145701419326741 141 138 119
28.517605889326802 -1.090013241348854 -49.230989785464260 135 132 113
27.368655728732264 -1.335900572081421 -50.895982623498440 133 130 111
27.199813565579660 -0.833304473614956 -51.152959240274271 141 138 119
26.339196697042667 -0.871167304806088 -52.403736612978918 145 142 123
25.593925516387458 -0.826520191289529 -53.488826513863614 143 140 121
25.021668982557500 -0.652249880271838 -54.325443650672554 143 140 121
24.103505207975047 -0.757598968055606 -55.658854995758531 142 139 120
23.358355918821673 -0.733316697797294 -56.743793583557817 141 138 119
22.209600133710225 -1.039856468366922 -58.408255084124420 146 143 124
21.810512622219122 -0.751654250948885 -58.996311791232188 144 141 122
20.431134531966677 -1.263203541920135 -60.991769645226896 145 142 123
19.743790710106865 -1.222192899780812 -61.993675479053820 143 140 121
18.998818216271530 -1.234788173867024 -63.078319046037677 142 139 120
18.369233701808895 -1.158824691238366 -63.997357636766537 141 138 119
17.624343588744324 -1.184394659998357 -65.081907059378523 141 138 119
17.398603191202596 -0.782830758817583 -65.421482665613013 141 138 119
16.480767078533574 -0.964891831706805 -66.754261128035751 139 136 117
15.620638804435856 -1.106591013271422 -68.004203402928084 138 135 116
14.299049285389813 -1.648414594597276 -69.916136597905705 139 135 117
13.958154916140998 -1.364216040897871 -70.421132608150373 140 134 118
12.867347040305305 -1.727515306606142 -72.001873050968271 138 135 118
13.103501821068917 -0.954051675132475 -71.679374798646364 139 136 119
12.358942858671796 -1.030276105943879 -72.763561230778038 139 136 119
11.383623730108170 -1.314884503456265 -74.178643329224855 138 137 119
10.639125863571252 -1.405673170201310 -75.262709072409734 140 140 122
10.817937169327166 -0.687728466322774 -75.023065298909529 140 140 122
147.781693299334790 -1.212854414714330 121.529752578147452 143 142 130
145.007862327311443 -1.160050223161137 117.534973791013670 146 144 132
141.193042852063797 -1.566653812408414 112.047469322118275 147 145 133
138.592609695878366 -1.498051719696361 108.302151653274194 148 146 134
134.951177639680282 -1.896968023800548 103.064196763101450 149 147 135
132.928978104482212 -1.633490418335604 100.148837009650975 151 149 137
130.444096118050794 -1.590329788685578 96.570219708873765 154 152 139
126.744699180004659 -2.104473227523159 91.250322225352647 152 150 137
124.664576404032047 -1.933991753534768 88.252771122722407 150 148 135
125.071269764459856 -0.666673399356818 88.821177463099673 148 146 133
122.181448163991774 -0.891077161149336 84.663023865911327 147 145 132
120.101275042937246 -0.771591834427447 81.666021777157852 149 147 134
117.674073971753927 -0.832365462667856 78.171738856688563 146 144 132
116.056544487939476 -0.537327626078022 75.838473666878798 146 144 132
111.028534626701401 -0.848246071620215 68.602333801590419 144 142 130
109.121783151931936 -0.746645083761855 65.855128138939477 141 139 127
107.446370509260035 -0.550473517847320 63.439712849189959 144 140 128
103.285793407612090 -0.606823773383487 57.448859000567637 144 140 128
97.391888530371801 -0.661054092723253 48.961434849255880 144 140 128
95.195878012475816 -0.835037472165748 45.801152025071531 144 141 124
77.344513420857112 -0.540245996950016 20.082753779173856 143 142 124
70.008852316433632 -0.555420415986587 9.513186720006075 144 143 125
68.044233314112674 -0.894949071284255 6.687346568283516 145 142 125
66.889545056747750 -0.768184819690660 5.021262926134767 145 142 125
65.734877999990374 -0.652188115437464 3.355279977461976 146 143 126
64.406670984685761 -0.652426061124581 1.440937756994629 145 142 125
63.252045079780942 -0.558759566656020 -0.224835022516288 146 143 126
61.808163780525547 -0.654336108458534 -2.304575463816946 145 142 125
60.364296434905754 -0.763363388944450 -4.384184125278694 144 141 124
58.804728430861744 -0.958314954488532 -6.629275296349164 145 142 125
57.534461768485798 -0.985241577413127 -8.460202378172113 146 143 126
56.264214474336057 -1.023981943768177 -10.291017120892235 144 141 124
55.456867418691374 -0.778125731598643 -11.459340167211991 143 140 123
54.533833274175123 -0.614387118953633 -12.793191398894407 141 138 119
52.167092301029868 -0.653323904522841 -16.205764115696269 146 143 124
50.723367382026936 -0.860861612846621 -18.284426896242195 146 143 124
49.453251271731858 -0.966597721063056 -20.114614776041947 146 143 124
48.067421920122314 -1.161465386223319 -22.110246131778155 145 142 123
47.376016333292895 -0.901846200165707 -23.112459078728250 145 142 123
46.568915395197010 -0.727016039812948 -24.280168760007967 145 142 123
45.125284949706185 -0.993983050020359 -26.358265000699248 145 142 123
43.739537037789916 -1.234583011359454 -28.353464571407073 143 140 121
42.469546909385130 -1.407969944919345 -30.183016356581220 141 138 119
41.778308860143909 -1.190107371269596 -31.184879631150977 145 142 123
40.971364556092453 -1.059719656185547 -32.352206777205538 144 141 122
39.990830530487059 -1.059272519010151 -33.767728306600873 148 145 126
39.299713728781384 -0.862285836225857 -34.769434699544234 150 147 128
38.087732541139829 -1.044089724962476 -36.515792238273065 148 145 126
36.875770573903438 -1.237091159405653 -38.262043710014751 141 138 119
35.490182642660258 -1.567075029376870 -40.256399741454061 140 137 118
34.857083362514999 -1.361268056701614 -41.175093424598799 139 136 117
34.281916028864700 -1.118741804513632 -42.011020637442357 139 136 117
33.359483235550059 -1.137887941969700 -43.343277028872166 145 142 123
32.494970576762654 -1.122480022034896 -44.592739011476937 144 141 122
31.746271882531914 -1.028409250599477 -45.676697944154938 146 143 124
31.113396851775974 -0.854038455385498 -46.595175319072069 146 143 124
29.901645334793898 -1.123728197031242 -48.340738078223126 142 139 120
28.979379826359306 -1.184060848510728 -49.672650544686974 136 133 114
28.230833687643781 -1.119703128993777 -50.756376608030621 134 131 112
27.192840613696063 -1.285404693675871 -52.253558558518449 141 138 119
26.444369008223063 -1.236016598048382 -53.337166188450993 144 141 122
25.927544691957422 -1.012639455207256 -54.089948504505571 142 139 120
25.179163782226169 -0.975749308797475 -55.173470875300410 143 140 121
24.257108701128175 -1.082875820863070 -56.505002336766580 142 139 120
23.624619453401692 -0.968346195831994 -57.423048293736315 141 138 119
22.992179548258463 -0.859503571600271 -58.341059316872617 143 140 123
22.475611726913357 -0.663216890597174 -59.093685483485217 143 140 123
21.322054249624856 -0.986718868261242 -60.755675270454446 144 141 124
20.110592277916737 -1.367934925592073 -62.500228550678770 146 143 126
19.188724649875724 -1.523377488465479 -63.831352347662033 144 141 124
18.961923523537010 -1.115318925691568 -64.170487357690320 140 139 123
18.213902628431399 -1.140483965259615 -65.253543193044891 139 137 122
17.755544477346135 -0.931363797373658 -65.923289882990730 138 137 119
16.833833751537497 -1.114112408330919 -67.254207666593828 138 137 118
16.143865438548275 -1.110227535284742 -68.254475798668778 137 135 116
15.627736526121751 -0.965439055967608 -69.006781840943120 138 135 117
14.590256933538882 -1.268966956666874 -70.502790723441194 141 136 119
13.726600879656814 -1.433237593121687 -71.750812981252835 140 137 120
13.094730315325990 -1.405909663684294 -72.668257303379278 138 135 118
13.158214344164776 -0.782584097854330 -72.594185163431206 139 136 119
12.700306815855228 -0.611965229261985 -73.263751116553323 139 138 120
11.083509665674327 -1.459076223900095 -75.585609940577001 140 141 123
11.089279892639127 -0.894190058239104 -75.594185054455863 137 138 120
150.661347970039117 -1.704384670168052 123.593820654690262 141 141 129
146.019302620676029 -1.200738800898998 116.940664164645540 146 144 132
138.241017056128271 -2.098562776458321 105.815920490858645 150 148 136
135.803697009222873 -1.986996926033234 102.324704476860092 151 149 137
133.366344327627104 -1.898329721670552 98.833739782452682 151 149 137
130.638574376394388 -1.958294088251521 94.928945229196017 151 148 139
127.155760424392540 -2.374295087951602 89.947860497789037 151 148 139
127.447980150193160 -1.153096936903130 90.349787601167748 150 148 136
124.023186260186876 -1.590778950998020 85.452028329471489 149 147 135
120.946825344473311 -1.903141185953183 81.051443247282748 150 148 135
119.438576398017076 -1.528768360582314 78.886799757930049 151 149 136
118.453038735907569 -0.927632179163779 77.467488756994584 146 143 134
116.538215277015098 -0.768492353173735 74.723552427713685 145 143 131
114.042570092489143 -0.900450479226056 71.151886789336288 146 144 132
111.546903888430251 -1.055776450052913 67.580471743596632 143 141 129
109.922445910959368 -0.816645165762181 65.251096595631054 141 139 126
104.352048855673999 -0.534647697791994 57.270599759189821 145 142 129
96.227753365050972 -0.758954555453147 45.639299888451205 144 141 124
94.661351970869532 -0.622352964905204 43.394064944605930 144 141 124
92.862608007573840 -0.621552107313229 40.817944214904117 144 141 124
86.016172361852938 -0.598112957354883 31.011665868638346 144 141 124
84.333617162534935 -0.616371157890697 28.601874786812090 144 141 124
76.676134406207325 -0.514055054134221 17.630762289227306 149 148 130
70.759483151633773 -0.566240027402047 9.154198873089086 145 144 126
69.367497544117384 -0.562162604378750 7.159464807342687 145 142 125
67.859333296499216 -0.640246439005405 4.999438162052343 145 142 125
66.467378015310970 -0.662573904131218 3.004961387072910 144 141 124
64.784944768513697 -0.873595905294350 0.597096178214741 144 141 124
63.683516409708190 -0.745996877593271 -0.983616524694497 145 142 125
62.291610389832712 -0.807082350516239 -2.977717910472478 145 142 125
61.306430842116455 -0.629320081694118 -4.392842231739024 144 141 124
58.929437347214431 -0.556688192687540 -7.801658609689866 145 142 125
57.014673905353348 -0.996586977245544 -10.539457445563272 143 140 123
56.029591750273369 -0.861487952139861 -11.954189204933442 142 139 122
55.276964229384134 -0.586214630272746 -13.038133809284830 142 139 120
51.624696254218904 -0.717059031527990 -18.273664231729839 146 143 124
49.709996441139054 -1.243978006714694 -21.010597764856811 146 143 124
48.376406232650012 -1.401919706419693 -22.920741360193034 146 143 124
47.798295711667137 -1.065927694116870 -23.756222652327097 146 143 124
47.162118966828601 -0.774420748651831 -24.674326239783170 146 143 124
45.944840067519436 -0.883566422954830 -26.418897278910777 147 144 125
44.785699334263128 -0.964179621578338 -28.080716231582329 137 134 115
43.335996843169198 -1.255603189547273 -30.155655882835362 143 140 121
42.409372279495571 -1.197731146639591 -31.486699732514722 142 139 120
41.599021361342949 -1.067220647082926 -32.652398429942423 143 140 121
40.556225466411220 -1.107481804363133 -34.148573948463422 146 143 124
39.804070671590409 -0.951760092766321 -35.231514098563480 143 140 121
38.703215341224620 -1.051195831163185 -36.810163953414246 141 138 119
37.253634287525827 -1.410672141146931 -38.884461198840540 141 138 119
36.036568105577388 -1.615810029842496 -40.628145905139320 139 136 117
35.400802624477905 -1.410157358970387 -41.545562498580523 139 136 117
34.881345100717866 -1.125317335861026 -42.297717765498618 140 137 118
33.722499167555142 -1.315299288188911 -43.958551962000371 143 140 121
33.145002278141860 -1.085779253970603 -44.793230843816673 143 140 121
32.567558009094796 -0.861452570796167 -45.627881441264520 145 142 123
31.757622474399042 -0.816547289646880 -46.792897679196727 146 143 124
30.133798205729136 -1.392633463347939 -49.114184548455341 142 139 120
29.207639420711089 -1.454466808457519 -50.444219037353321 138 135 116
27.990806653747484 -1.746623720526770 -52.187119678058565 137 134 115
27.587990480929179 -1.424870336197065 -52.773737965383845 142 139 120
26.545645017019879 -1.600779368755067 -54.268732676838113 142 139 120
26.317378046093282 -1.153495452208411 -54.607570198111603 142 139 120
25.682147152078883 -1.026360965509717 -55.524434309068084 142 139 120
24.930665418538084 -0.996403051090701 -56.606401899434758 143 140 121
24.062920993545177 -1.065257054375136 -57.853450465859169 144 141 122
23.253365544103104 -1.095697821803914 -59.017872960545247 143 140 123
22.792788743774622 -0.854095992925999 -59.686892606352018 143 140 123
21.459891857136967 -1.319052575616303 -61.594207626063877 144 141 124
20.534121029114786 -1.466495039980731 -62.923546494588038 146 143 126
19.375725167813215 -1.811880934185747 -64.582996353083530 145 142 125
19.322483957028197 -1.262381779422117 -64.674041096104673 140 138 123
19.153002861872807 -0.808920260765310 -64.930206283087387 139 138 121
18.227396883970655 -0.983405483451822 -66.259345650647390 137 136 118
17.127299524665446 -1.311734587213786 -67.836002001859555 137 136 118
17.307064439220426 -0.577474032367495 -67.596982378790500 136 135 115
15.054315685660669 -0.742242597207555 -70.841075563152003 141 138 121
14.245293342132285 -0.860497248972747 -72.004849181454460 140 137 120
13.552680643188253 -0.885767427927195 -73.003552140756369 139 136 120
12.278203689513475 -1.421320944037270 -74.827229481529884 141 138 123
11.120101406191139 -1.867203869214458 -76.485785320299101 140 138 123
11.416908290903649 -1.049593492068794 -76.081898366318512 137 135 120
152.624966974245410 -1.372908188515481 124.313903273662618 141 141 129
148.777814134049521 -1.717430367188775 118.841227940582883 141 141 129
146.446926159808243 -1.479355186549222 115.519510733592682 145 143 131
142.949591758247095 -1.744329889371582 110.543817945940020 149 147 135
138.285786358247037 -2.528602822983948 103.914328584765741 151 149 137
135.779808748655512 -2.446075630452709 100.345398137990742 151 149 137
134.848490095190357 -1.715406007577815 99.009674481302540 151 149 137
131.875882174817974 -1.873588860400182 94.779585045785637 152 149 140
129.778079502938851 -1.678304178864798 91.790236632880209 151 148 139
126.455466998764024 -2.042045467691739 87.064550797261717 151 149 137
123.482757241521611 -2.281037812266165 82.835341892848220 150 148 136
121.734821535507649 -1.996993193019498 80.342857981611274 150 148 135
120.453470013400107 -1.517323039432676 78.512019203575193 150 148 135
119.113789547139220 -1.076441716012573 76.598625180481491 148 145 136
116.490944269232614 -1.242975064822994 72.866449761067969 148 146 134
113.634772263339940 -1.543202670081270 68.803837691007800 147 145 133
112.528368443275639 -1.042638204635030 67.221666111097875 145 143 131
110.605391451830528 -0.942356766556140 64.482236262796874 143 141 128
108.799060989239990 -0.803774935639055 61.908326639579712 143 141 126
106.584429702999529 -0.880788442435666 58.755953767532077 145 143 128
105.011399693271287 -0.663152069992407 56.513055798925024 145 143 128
97.319362993477711 -0.653169085964568 45.559424220638874 144 141 124
95.513008173379092 -0.635403634408717 42.986769873655788 144 141 124
93.939980274399929 -0.513309428249126 40.744854358787393 142 139 122
86.772923544782344 -0.641765994280887 30.539229154368940 142 141 123
85.083252733957579 -0.660141918166616 28.132843368482753 141 140 122
66.966478357052651 -0.812478525681278 2.324300998249811 145 142 125
65.276940665857879 -1.024420112215394 -0.080156003006408 144 141 124
64.229203241700318 -0.862353638150405 -1.576050170834037 146 143 126
62.598038415460124 -1.066870266718657 -3.897650094500904 146 143 128
61.900426357269779 -0.711068819263393 -4.897883939160295 145 142 127
60.911116992785480 -0.542841802609059 -6.310934419100164 146 143 128
59.688445541374904 -0.529738475330599 -8.054184050172495 146 143 128
57.707258984883438 -1.005961952167557 -10.870691272301059 144 141 126
56.893073037533654 -0.759604992122042 -12.035747770720263 143 140 123
55.495413633027184 -0.893868656598526 -14.026343497124515 141 138 119
54.681292759122357 -0.665159341235643 -15.191249470384605 143 140 121
53.342031987209040 -0.784617928721158 -17.099076413622072 145 142 123
52.061145003950188 -0.878280625684693 -18.924235822402665 145 142 123
50.488503348082247 -1.175717097458148 -21.162017674629482 145 142 123
49.032584747306871 -1.410306197762051 -23.234568586044787 145 142 123
48.568757721115816 -0.996327327199812 -23.903807698424600 145 142 123
47.754832001983942 -0.821797711176157 -25.068249334196281 145 142 123
46.707506753857430 -0.812626660931308 -26.562766856218929 145 142 123
45.426767745462001 -0.972062049365868 -28.387320024312260 141 138 119
44.262773791948476 -1.063211232483287 -30.046708760866977 142 139 120
43.390622817883113 -0.963558780164247 -31.293383770917387 144 141 122
42.285050291478584 -1.034127328718167 -32.870074079839071 144 141 122
41.296237569298810 -1.033143220040547 -34.281640636487651 141 138 119
40.132354781273108 -1.164518995678469 -35.940668481705757 142 139 120
39.085234066031276 -1.223791719769111 -37.434579325406901 143 140 121
38.154883573898402 -1.209328532989201 -38.763393874519920 142 139 120
37.166196288036957 -1.245267002133102 -40.174640376831405 140 137 118
36.527780975524166 -1.037049511605617 -41.090815700984535 140 137 118
35.655916307416433 -1.004452907706762 -42.336937439289954 140 137 118
34.608960354664049 -1.107996012160760 -43.830471407536635 141 138 119
34.204190891505462 -0.747963050394196 -44.416549278378994 143 140 121
30.888479801992858 -1.267009727353116 -49.143938090737009 140 137 118
29.958444567341118 -1.327890341135787 -50.472127906359702 138 135 116
29.145215789500341 -1.308468228894858 -51.635306357000445 138 135 116
28.390415682558398 -1.251749847105502 -52.715961907840438 141 138 119
27.285318183485245 -1.471345628170913 -54.291345456040062 142 139 120
26.822555005119114 -1.203901617497436 -54.959585152647122 140 137 118
26.301460717010130 -0.985984180001786 -55.710268529318256 140 137 118
25.838821977207033 -0.726930273322501 -56.378481393352104 142 139 120
24.733868588415120 -0.978055420017680 -57.953609335816878 144 141 122
24.037735080732276 -0.915244712540742 -58.951534613098517 143 140 123
23.049638056868758 -1.091457742385475 -60.361619578205421 143 140 123
22.061567094975757 -1.276633675837282 -61.771624751600228 144 141 124
20.431049074034689 -1.988946956440885 -64.088307098670583 146 143 126
19.793456271997471 -1.910772942561483 -65.003537306182523 145 142 125
19.447969770448921 -1.599989342122136 -65.506610109316767 140 139 121
19.803518777101516 -0.716964013741363 -65.020639649155356 139 138 120
14.933868233652248 -0.713892488017746 -72.003193471011429 142 139 122
13.829350414715137 -1.089130258107877 -73.577252235020353 141 138 121
12.958585534331988 -1.272775454064103 -74.821674222526980 143 140 125
11.503452422421546 -1.971112779760615 -76.889827315671795 141 138 121
10.866482290388149 -1.969342242726808 -77.804568947010267 139 136 119
158.986186100661769 -0.530574456480251 131.239346926606004 135 135 124
155.064325114187170 -0.855635545665956 125.691352506936994 140 140 128
151.142403691160951 -1.217183084850196 120.143762573266144 143 143 131
141.777506629083575 -1.523209380020149 106.889625722698071 151 149 137
139.553809268122052 -1.306138256815508 103.738562868889147 151 149 137
135.983043711288190 -1.681794117776920 98.688279706059802 152 150 138
133.642148957584141 -1.562684120114542 95.372574276455509 152 149 140
131.594067796956381 -1.338316684682733 92.469998784523113 152 149 140
127.378938942863570 -2.083260439873171 86.512330346094302 151 149 137
124.100858940028843 -2.452073673327870 81.876251407473831 151 149 137
122.579819000161322 -2.064627384168740 79.717592513794926 150 148 135
121.703037207286712 -1.399937629996164 78.467316658791447 149 147 134
119.947707117594675 -1.144946132727187 75.978669253739753 149 146 137
116.786674504726591 -1.555142021052598 71.508738987260500 150 148 136
115.324171741885536 -1.202795849815920 69.433296296807868 147 145 133
113.217380530163240 -1.167413659090248 66.449893927219250 146 144 132
111.169150096762195 -1.123754957904301 63.549249972651808 144 142 129
108.418040965432823 -1.436527360724987 59.658223083270173 143 141 126
106.955516566933795 -1.150274628195084 57.583471076209236 145 143 128
106.078729006488430 -0.591038396431868 56.334283466473238 145 143 128
96.364600710001994 -0.648470138628325 42.579505423242267 145 142 125
94.784944654827981 -0.526234727352876 40.340759342082919 143 140 123
87.587711031021229 -0.654060155651688 30.149564163789023 140 139 121
69.336004091177941 -0.661299959447982 4.293220629944159 146 143 128
67.229240301972439 -1.101858528738223 1.314704238852471 144 141 126
65.298241631435118 -1.456388936831794 -1.416206458856351 145 142 127
64.539038658990791 -1.120354127950688 -2.497630838232368 146 143 128
63.252558429508099 -1.112475028953704 -4.321159677907502 146 143 128
62.727787859864236 -0.648961469033587 -5.072612378358599 145 142 127
61.324179018825632 -0.733671971567492 -7.060871990308073 147 144 129
59.861995926467131 -0.867780801581863 -9.131460284322003 146 143 128
58.634206298498057 -0.868244141706835 -10.872121748749493 145 142 127
57.230655996357598 -0.991095961293470 -12.860016757770182 143 140 124
55.768528349343555 -1.164144539408014 -14.930230750257977 141 138 119
54.716596806073440 -1.087540281286913 -16.423238760357123 143 140 121
53.664696025211114 -1.020564085607960 -17.916162380603339 145 142 123
52.788623741780540 -0.848840012324449 -19.161703319094840 144 141 122
51.267986165591481 -1.107449411990479 -21.313904526422704 144 141 122
50.157571772980432 -1.109348634665768 -22.888985351015464 144 141 122
49.633211532187943 -0.732035530124158 -23.639747046791967 144 141 122
48.698677753410877 -0.633901045829034 -24.967421596611700 144 141 122
47.471155890500100 -0.741674429896840 -26.707106562735021 146 143 124
45.892021660132002 -1.099167171760758 -28.941164200217912 146 143 124
44.781755269772574 -1.150966826702503 -30.515802178363430 145 142 123
43.788734787377507 -1.132312793071683 -31.925537642362173 145 142 123
42.561308175392639 -1.284952918113210 -33.664806340297986 145 142 123
41.509738367596569 -1.326296980869364 -35.156773302089078 140 137 118
40.282361258142885 -1.500535356439689 -36.895843360223495 141 138 119
39.465304790063996 -1.396331272102989 -38.058063360404020 143 140 121
38.999983149903628 -1.049626775707287 -38.725894965654987 143 140 121
38.300253065428166 -0.874736694750974 -39.723253342222108 140 137 118
37.248860187835106 -0.959302251841554 -41.214860046262118 141 138 119
36.256117352675332 -1.010959291582174 -42.624004588547052 141 138 119
35.204785708944414 -1.114361992601027 -44.115446686471330 142 139 120
34.739715625717380 -0.797225653962943 -44.783094275795349 142 139 120
34.216082511291972 -0.527472745852580 -45.533096655198023 144 141 122
32.930363273538305 -0.828554578016385 -47.353809260634819 143 140 121
31.644658920838211 -1.141354344476585 -49.174408368445910 138 135 116
30.652118687512214 -1.245378905378832 -50.583110789551199 138 135 116
29.894136709764453 -1.180908169768147 -51.662323943176546 140 137 118
29.077566194107220 -1.167884839127362 -52.823837852026884 140 137 118
27.850588141093652 -1.476623563868279 -54.561714337733122 141 138 119
27.385911620446876 -1.209059685507896 -55.229039931809808 140 137 118
26.569462729432303 -1.218333808809536 -56.390382506577623 140 137 118
26.280827581007415 -0.823316165623025 -56.810660980573147 142 139 120
25.288547926957520 -0.982823128580669 -58.218916953674579 143 140 121
24.354941963158737 -1.105014366977629 -59.544767443653825 143 140 123
22.952185994867179 -1.608079891896832 -61.529128728593150 142 139 122
21.725375953434124 -1.983450849160885 -63.266399711421144 143 140 123
20.850486504095329 -2.087347230638977 -64.509669413886996 143 140 123
20.327557181973702 -1.914833271913247 -65.259007555760689 143 140 123
19.980659052056623 -1.603928296314581 -65.761406290097597 140 139 121
20.161768127526273 -0.864586403821706 -65.523082013763798 139 138 120
19.697720578766777 -0.653441847366865 -66.190127753412440 139 138 120
18.881756890927761 -0.737166072670393 -67.350936095415847 137 136 118
17.015266318045548 -1.122616060031276 -70.001530090245069 138 136 118
16.199404034871577 -1.229325621549650 -71.162150344280093 141 138 119
15.559600677232950 -1.194587006504910 -72.075875927189230 141 138 121
15.447942347691765 -0.716781624103838 -72.249095025740218 142 139 122
14.866947074619389 -0.640688171590336 -73.080520995925099 142 139 123
13.816548261275528 -0.972929573950937 -74.570053804997428 143 140 125
12.824846381693391 -1.263977881888211 -75.977232162279222 141 138 121
11.363652702365485 -1.971656559998513 -78.042389745512367 140 137 120
156.691494048180573 -0.663936897140783 125.908677180176738 138 138 126
152.635501325887049 -1.069806505128218 120.203964955996156 142 143 129
145.758367811153249 -1.489101760103032 110.527788537603840 149 147 135
141.702212311181228 -2.001929022941824 104.824255154578907 151 149 137
139.998469146010905 -1.568497444389922 102.419950853184474 152 150 138
137.059653820173907 -1.673094354274089 98.284002454163755 152 150 138
134.650116300225591 -1.578683813324971 94.890530847638473 151 148 139
132.299366089746172 -1.481203984572606 91.579762884968517 152 149 140
129.713339046871710 -1.508225223086700 87.939396564802252 153 151 139
125.186430899148732 -2.415501019550509 81.578258812403192 152 150 138
124.070695894367574 -1.843859582207835 79.999819608299418 150 148 135
122.366813048666813 -1.547517436506443 77.596993259992075 150 148 135
121.486333702524320 -0.892331898268549 76.348584133466886 149 146 137
119.429548097164968 -0.785995673851629 73.451387772606580 149 147 135
116.196430242963245 -1.244739225592254 68.905583679061095 149 147 135
114.139613913580348 -1.181890940279350 66.008849659671995 149 147 135
111.965154405266915 -1.193756604670819 62.947447032212523 146 144 131
109.908319703892772 -1.169498615981631 60.051119031230314 145 143 128
108.027931571377891 -1.079103262679111 57.402275466156908 142 140 125
107.029816537837078 -0.576275481467113 55.989993374351798 144 142 127
97.274951210433699 -0.631543934119262 42.254681519250568 145 142 125
95.335740350684560 -0.690558193148211 39.524657608534795 143 140 123
70.074297403783802 -0.671821127694746 3.940131939521365 146 143 128
68.194052232717681 -0.972698696946470 1.295247550931379 145 142 127
66.313813335835391 -1.290825768515373 -1.349462281413878 145 142 127
65.198429992939111 -1.165813939963144 -2.923472336427295 145 142 127
64.141910013430703 -1.015325447222422 -4.415045781901057 146 143 128
63.261929072223793 -0.766633261006668 -5.659509103361955 147 144 129
61.911286227399771 -0.815780053567543 -7.562614656560243 147 144 129
60.619503237772406 -0.840787689194101 -9.383268154278142 146 143 128
59.268904773224619 -0.914373509741048 -11.286143375656252 145 142 127
58.153688303079178 -0.852157110282820 -12.859586877124286 144 141 125
56.097044502349007 -1.397050396116071 -15.750147644334533 142 139 120
54.923029096848111 -1.397095834103395 -17.405679929224362 142 139 120
53.984413656224135 -1.256453101061083 -18.731839384765976 144 141 122
53.693120363462313 -0.705024173652723 -19.152456231544875 144 141 122
52.519208281928286 -0.732041947461585 -20.807760306463933 144 141 122
51.227631386895979 -0.847080848436813 -22.627585662087682 144 141 124
50.289163153858723 -0.740296147763520 -23.953467023498177 144 141 124
49.527278303983522 -0.524418461587777 -25.032371564278151 140 137 120
48.000388943987900 -0.828609472189940 -27.181112745242729 145 142 125
46.473512582767114 -1.146733610550022 -29.329716724093146 146 143 126
44.887796057191295 -1.518805887831718 -31.560475339628738 146 143 126
43.831771939239587 -1.542747278099208 -33.050490509159715 147 144 127
42.599214476364011 -1.697953708276197 -34.787278209348557 146 143 126
41.896388167656596 -1.496882327101799 -35.783424860131618 142 139 121
40.663889790038169 -1.672059004462265 -37.520035262718551 139 136 118
40.137724795607340 -1.361938414895019 -38.269241924229362 142 139 121
39.435035015341242 -1.181436078069059 -39.265242162244277 141 138 119
38.850118457034114 -0.923400241160090 -40.096665027376417 143 140 121
37.441165837565237 -1.261237506178001 -42.079762633115564 141 138 119
36.444282070675357 -1.314659309282859 -43.486908002258929 144 141 122
35.741765946410894 -1.163419575127666 -44.482690102040181 144 141 122
34.980430917416541 -1.061470507553399 -45.560684950740921 144 141 122
33.983661885777565 -1.139459541986994 -46.967632325981413 145 142 123
33.163541221946801 -1.095794057734759 -48.127763271194823 142 139 120
32.402337102924847 -1.015665414021425 -49.205596138193187 138 135 116
31.876680811023888 -0.765963918527071 -49.954424237163380 139 136 117
30.880068353168241 -0.875836566444945 -51.361118322714589 141 138 119
29.647971646985425 -1.173259458063030 -53.096662541844864 140 137 118
28.710295616918060 -1.257275425863524 -54.420958883310078 139 136 117
27.772654074947226 -1.349724729273110 -55.745184915202515 139 136 117
26.776161734386989 -1.496065225250009 -57.151561082576166 139 136 117
26.486341324299161 -1.102571063661269 -57.571256849493523 140 137 118
25.902154790917805 -0.941523031413410 -58.402030611851956 144 141 122
25.376917654611958 -0.739331046418524 -59.150570194163805 143 140 123
23.850558782364047 -1.333159358401640 -61.296583776404134 142 139 122
23.207619491797686 -1.238446142858697 -62.209426488441267 142 139 122
21.975757309495037 -1.620436723393848 -63.944212405286748 142 139 122
21.097302853980509 -1.729316607999963 -65.185725323316774 142 139 122
20.277785374998246 -1.798405569095361 -66.344984191945258 142 141 121
20.282972785921046 -1.203833052308643 -66.353586065152598 141 140 122
19.817009791831168 -0.994483059708976 -67.019696989973511 141 140 122
19.233296057736467 -0.886087368977347 -67.850154960888574 139 138 120
17.707045876763601 -1.562811812244903 -69.995367249139576 138 137 119
16.946663864592637 -1.616091002421854 -71.072220175384899 139 136 118
15.891736826191959 -1.922626026097755 -72.559851305781137 141 138 119
16.309828428297976 -0.999204802029118 -71.993357939233562 141 138 121
16.197765200154976 -0.520171208556948 -72.166395978274920 142 139 122
13.976393741444852 -0.708839041404186 -75.314395060848085 142 139 122
12.980639988922007 -1.005636245593770 -76.719575839726559 142 139 122
160.860404593356066 -0.703837336320766 129.679357396323553 135 135 124
158.086724561786440 -0.565286596970013 125.794482652422687 140 140 128
148.229991819150598 -0.928724098305606 112.000217073504871 149 147 135
143.389176742992902 -1.750933298998938 105.234081261879595 151 149 137
140.556226451275080 -1.781626908626685 101.268444439456772 152 150 138
138.136642577907338 -1.664431417443111 97.879544437032393 152 150 138
135.008341980445181 -1.871169264915609 93.502719875676405 150 147 138
132.824934214808025 -1.700289711819006 90.443716975521681 152 149 140
130.287156231853828 -1.703617225270640 86.890883463979236 154 152 140
127.631237031244993 -1.782239131531136 83.173625579177383 152 150 138
124.089404855394235 -2.278573921252360 78.221601879819190 150 148 135
123.618641294398202 -1.430220749276955 77.551209949018244 150 148 136
122.616347421607216 -0.827116111780091 76.139894799529969 150 147 138
119.960361532191698 -0.990084012744534 72.423537034119988 150 148 136
116.536562739114899 -1.532378768849869 67.637237427890483 150 148 136
113.703348689121839 -1.830467112903217 63.674479214851516 149 147 135
112.582911376966038 -1.347280030524356 62.099200083588869 145 143 130
110.812794980128899 -1.183662288528316 59.618566953157455 143 141 126
109.574243389615972 -0.780930935203851 57.878903689194772 140 138 123
107.981319673883931 -0.561537120788881 55.645504711116843 142 140 125
98.185729253495353 -0.614637298985670 41.929653281767656 145 142 125
95.529627249950181 -1.036494885119921 38.216015946543735 143 140 123
94.291123805915191 -0.749675310834637 36.477522787641675 144 141 124
70.694409784493004 -0.751534756484625 3.422575064742261 147 144 129
68.806331711241754 -1.052777917881047 0.781441672932317 146 143 128
67.154575618128945 -1.230709340612427 -1.530581114122583 145 142 127
65.916389890300692 -1.175846562685394 -3.266838619538845 144 141 126
64.737310099248774 -1.096591691763002 -4.920764397657024 144 141 126
