ply
format ascii 1.0
element vertex 686
property double x
property double y
property double z
property uchar red
property uchar green
property uchar blue
end_header
28.420277583425857 -1.107324480962753 -25.017013151585587 145 144 126
27.052451675437624 -1.467358942164197 -27.241274918076215 145 144 126
26.475547418025059 -1.227727361930695 -28.187200281153480 143 142 124
25.951393843661620 -0.952712100995377 -29.047866727267433 143 142 124
25.321799906098619 -0.765837124541695 -30.078901362660957 140 139 121
24.217627301822063 -0.960750950021529 -31.876699210970003 140 138 119
23.060715539560178 -1.208850517369749 -33.759578244234717 144 141 122
22.062002818038081 -1.341903737711153 -35.386746731411080 145 142 123
21.590659534205543 -1.059745105508612 -36.161892084885039 147 144 125
20.802913140646282 -1.039080537988763 -37.448132894956530 145 142 123
19.962437639431215 -1.069416786502370 -38.819482188566155 140 137 118
19.069228788756618 -1.151563795181592 -40.275929599287707 141 139 118
18.334252359001582 -1.111862897064837 -41.476752444756244 143 140 121
17.863009187575059 -0.860087777314049 -42.251632938905033 144 141 122
17.286303115410291 -0.701282742081337 -43.196821124894029 140 137 118
16.498631569362217 -0.725938016872433 -44.482631241854676 135 132 115
15.183485603624604 -1.205538810676748 -46.620005270899355 131 128 110
13.815568985380963 -1.743454173970757 -48.842392624429834 139 136 117
13.238901615790212 -1.616520200952171 -49.787271260743552 138 135 116
13.031528728607370 -1.176651887373841 -50.136028107534457 138 135 116
12.876955606940768 -0.692884125555353 -50.399637175319356 140 137 118
10.566938875342629 -0.881001329647425 -54.170387640614649 139 136 119
9.621082198461906 -1.115371834441326 -55.710940483745333 141 138 121
9.097330179826940 -0.981987605486624 -56.570341153381861 144 141 124
8.520839325667296 -0.901167169874719 -57.514829564266847 142 139 122
7.680536797591458 -1.064543189150918 -58.884892162439485 141 138 121
6.787469949140331 -1.284302920071646 -60.339990989657281 143 140 123
6.211026871022668 -1.223503478806257 -61.284296170284506 142 139 122
4.274927518128933 -0.691449439312822 -64.465328317820337 139 138 120
3.751391040826121 -0.607374266442368 -65.324324538806337 139 138 120
1.393567664334768 -0.575546850776549 -69.185327354434577 138 135 116
0.711780670685059 -0.671252090538166 -70.299343155497866 138 135 116
0.188386407259031 -0.619855460918668 -71.158071034453087 139 136 117
136.647241558747339 -1.183802631735174 148.917055179715987 130 130 118
135.010044081363617 -0.640343819828399 146.258065313957189 135 135 123
127.819503096059066 -1.330940845217706 134.628295787139137 136 136 124
125.176630405159543 -1.307018297360068 130.349446530629649 137 137 125
122.480762589102412 -1.334267311615968 125.985617810018141 139 137 125
117.932589076622449 -2.234368648885665 118.636849520630335 142 140 128
116.189136342102657 -1.887296367367140 115.808995541045363 140 138 126
114.974858700095766 -1.311432713174639 113.834219795733446 141 139 127
111.908244893926508 -1.621668380623305 108.874655415318983 142 140 128
109.582482206453875 -1.610315187120821 105.109384512333719 142 140 128
106.515719064365967 -1.979924212109983 100.150502733506585 144 142 130
104.824929167000718 -1.711124935368363 97.409119621419563 145 143 131
103.557504435060793 -1.251496654390933 95.350106845926348 144 142 130
100.384699131036911 -1.752159404550897 90.221586505875337 143 141 129
100.175735809914187 -0.796954076583730 89.868285894457472 141 139 127
98.484794204590727 -0.595879402691849 87.127672482296703 141 139 124
93.567852603181137 -1.040448375759734 79.174620364713803 144 142 127
91.082832719961189 -1.314493276922312 75.155898649484641 141 139 124
89.391717106685391 -1.195094477198775 72.416209212935058 141 139 124
87.594704960319902 -1.149526899086948 69.506222526845391 141 140 126
86.697502752582935 -0.638412341618955 68.045578785125031 141 142 128
66.930499084195262 -0.620519737402822 36.040638446642788 143 141 128
57.154120566914060 -0.618711819640875 20.208712098595697 145 141 126
55.462439551036297 -0.864345634715359 17.473050612793600 144 141 126
50.866472634123724 -0.586427720765919 10.024161695404985 144 141 124
46.638370075065509 -1.028630223838885 3.182712485805467 145 142 127
45.476097215373088 -1.036590100421040 1.299926304702268 146 143 128
44.684509975832412 -0.802240820837622 0.013323378095777 145 142 127
40.670894166085418 -0.543447345423562 -6.494515721250025 146 143 126
38.558172010971859 -0.551045418042996 -9.918073870089728 144 141 124
37.289959165370178 -0.723711975652043 -11.970201086297379 147 144 127
36.074701647825918 -0.870784891748653 -13.937066513220771 145 142 125
35.336122793531416 -0.681543328565160 -15.137705268325988 142 139 121
33.908997321208460 -1.006870557091391 -17.444814470402633 142 139 120
32.640757912890948 -1.228844177245374 -19.496421436733556 139 136 118
31.372509245011187 -1.463674635261567 -21.547891631430787 140 137 120
30.792854924182890 -1.193697659405605 -22.492813733997764 144 141 126
29.948367670522089 -1.129987575616870 -23.863211885131705 145 142 127
28.944973837654402 -1.195875760460380 -25.488832308137006 146 145 127
27.888608852024547 -1.312529717722144 -27.199447840553290 146 145 127
27.150089122227072 -1.194438288577336 -28.399382496542842 144 143 125
26.146705755419063 -1.289631797638489 -30.024706272051333 142 141 123
25.249277678414444 -1.312057354235293 -31.479749962266737 140 139 121
24.351856227217979 -1.343516047289351 -32.934703839634579 140 138 119
23.295503141050844 -1.509963064728817 -34.644812519730721 145 142 123
22.557032929480044 -1.433515732957540 -35.844342201455675 147 144 125
21.818577095037284 -1.364461920034304 -37.043802655945740 147 144 125
21.556986593766197 -0.917595774707157 -37.477552899117342 141 138 119
20.606632912687743 -1.033158358312788 -39.017177340471022 139 136 117
20.080172523156435 -0.811527530888510 -39.876190701323623 140 138 117
19.341787615893750 -0.769556701252340 -41.075406308381162 145 142 123
18.709395712463021 -0.647182925967854 -42.104438463227950 141 138 119
17.759080907507666 -0.796034911276869 -43.643738838250812 139 136 117
16.755776764361585 -0.998852132834035 -45.267992689149395 138 135 118
15.328522980339557 -1.569360339966978 -47.572516736367845 134 131 112
14.378199923199418 -1.749530605513455 -49.111490788782334 135 132 113
13.957845881205770 -1.486767455739650 -49.799970688410895 138 135 116
13.696520021900554 -1.091527613404598 -50.233316119920318 140 137 118
13.170237451333719 -0.927680282383599 -51.091819754199577 143 140 121
12.908990363253778 -0.538671728629886 -51.525138727809519 143 140 121
11.220518778929701 -0.793319155002907 -54.262242813036750 139 136 119
9.899232545331643 -1.355208207740486 -56.395832324596768 142 139 122
9.479066237080815 -1.128788345610182 -57.084027935687430 142 139 122
8.846893214243167 -1.096122743858832 -58.112241390963987 141 138 121
8.479801303013147 -0.831168596987475 -58.715365379495921 140 137 120
7.370552053193805 -1.241354713223175 -60.508518672146266 142 139 122
7.056527635668303 -0.938940124381725 -61.026556681993497 143 140 123
6.477457125881330 -0.882065075999173 -61.969564512568809 142 139 122
4.899460364290789 -0.597325121765986 -64.543353789748295 139 138 120
4.214440024234250 -0.661469588081054 -65.656147639869459 139 138 120
1.527546083536691 -0.934683739352666 -70.021737588975469 138 135 116
0.948676022134947 -0.930223024760759 -70.964301786302769 138 135 116
132.948590018591119 -0.798941153785083 140.594357298316766 134 134 122
130.399784138839038 -0.693833833827457 136.491388895986319 136 136 124
123.866477976103567 -1.206740666139518 125.986536932408740 140 138 126
120.307276327168339 -1.646250735261378 120.266225609597740 143 141 129
117.492322541250388 -1.780501693799847 115.738750863699835 142 140 128
114.996302803513245 -1.795558604169711 111.722625547673687 142 140 128
113.882603163597253 -1.187488322072816 109.921119881754777 144 142 130
110.588933901441365 -1.625117067714196 104.628053834472126 142 140 128
108.145902003391541 -1.688584650118226 100.697936517853890 143 141 129
105.755981083329203 -1.751356888625772 96.853262818812141 145 143 131
103.419174194130022 -1.812613224632583 93.094022830439570 145 143 131
102.730645523043819 -1.082353773979595 91.974730155265888 144 142 130
100.712787160008361 -1.023693474788107 88.726825232596411 142 140 128
99.279791440552444 -0.690422318587033 86.415745052601238 143 141 126
94.658946339867882 -0.971927599443335 78.984516197028114 144 142 127
91.524228474436526 -1.576882151509728 73.949707369736387 140 138 123
90.516487104324312 -1.096710939511666 72.320545929958314 139 137 122
88.604724479507325 -1.106323434680345 69.244305705801565 140 139 124
87.277878040973391 -0.822348969659175 67.104669279110396 140 141 127
85.631940821693817 -0.724440679363613 64.454446751261543 144 142 129
79.047911036078418 -0.501367143508148 53.855426094428736 140 138 123
67.418495891763072 -0.822312267403332 35.144106288975735 142 140 125
66.038186411580043 -0.766937146392341 32.921540601119347 144 142 127
64.711050154651971 -0.693391228589327 30.784208869301295 143 141 126
56.747978273958040 -0.536137781596135 17.963263735100952 147 141 127
55.101597978541960 -0.762063942081644 15.316586564039369 147 141 127
52.659902948363069 -0.709191042514028 11.384632143388728 140 137 120
51.013474564099965 -0.980979592273428 8.738450062478819 138 135 118
50.164984620982835 -0.741146300168113 7.368153859600824 141 138 121
49.156906708501538 -0.616400240519597 5.742811990181963 139 136 119
47.616839291453289 -0.859505100014917 3.267169701338958 143 140 123
46.289555126317083 -0.974099020166064 1.131845346166131 147 144 127
45.441070355304689 -0.775421269916166 -0.238029696361991 148 145 128
42.310421922993513 -0.639133067240987 -5.282415310552494 144 141 124
41.249140193108332 -0.627275147865290 -6.992001526675239 143 140 123
37.110441777916080 -0.610128614163873 -13.659231912800180 146 143 126
35.889537348532443 -0.767517134079247 -15.623289692763421 141 138 119
34.402571448083776 -1.132256850321034 -18.012224631525811 144 141 122
33.234863048243753 -1.276365648490448 -19.891009019608560 142 139 121
32.333218568564675 -1.234517338831051 -21.344697200430858 142 139 122
31.591225811211956 -1.082283267809359 -22.543321819307153 143 140 125
30.689600588959905 -1.057748404135602 -23.996840996819486 145 142 129
29.575115481753699 -1.203701675104077 -25.790209354658515 145 144 126
28.407410628270867 -1.401500230810057 -27.668442783660709 145 144 126
27.665456795941395 -1.283854903069023 -28.866729984824133 144 143 125
26.817077028773298 -1.255967531243163 -30.234897229668604 143 142 124
25.809041992041656 -1.360900099512719 -31.857895413201334 142 141 123
24.960679319666738 -1.350811906631241 -33.225887620245828 140 137 119
24.005878063632636 -1.433177388500397 -34.763726071430682 141 138 119
23.210759369938430 -1.398345361334040 -36.046585831166993 146 143 124
22.362426503596168 -1.413974744075819 -37.414327573390068 147 144 125
21.727018064764394 -1.266888597651906 -38.442171004891350 140 137 118
21.357780604541972 -0.910757230595277 -39.045207103070510 140 137 118
20.935347431914479 -0.601544089206137 -39.733170486828726 142 140 119
20.140318032954070 -0.601727991443805 -41.015712528307716 142 139 120
19.345301874728975 -0.609823927359418 -42.298179461571834 141 138 119
18.284120216793170 -0.846604000977814 -44.005254196005296 138 135 116
17.329411006077152 -1.005152572304124 -45.542352490543976 141 138 121
15.789078853335667 -1.664924371110862 -48.013579168616928 134 131 113
14.994080352974521 -1.710614478329678 -49.295667573651656 134 131 112
14.518545496963370 -1.492738150636162 -50.068146003309920 137 134 115
14.256016059025271 -1.097421017960093 -50.500916442515205 143 140 121
13.514324694325097 -1.116636419124345 -51.697920431057327 145 142 123
12.932389127133590 -1.005005735707771 -52.640121255249142 142 139 120
12.243981770562044 -0.991739215381244 -53.752091598452665 140 137 120
11.715343679285340 -0.845436063299056 -54.609287768651143 141 138 121
10.600962370639863 -1.219950535539294 -56.400353088101838 143 140 123
9.859347488731018 -1.275540808733727 -57.597019240918229 145 142 125
9.224258198898823 -1.243597668182193 -58.623830127404631 141 138 121
8.908735052911069 -0.931678190959065 -59.141248989283724 140 137 120
8.167181332529054 -1.006479256038463 -60.337746655233303 142 139 122
7.106074326186430 -1.378071068346187 -62.043469417783086 144 141 124
6.524326061489532 -1.323565432808041 -62.985171830031362 142 139 122
5.836072559486581 -1.372308517144644 -64.096577480721379 140 137 120
5.520705685049023 -1.084315470453030 -64.613824815605369 139 136 119
5.098845672207332 -0.897915460009254 -65.300798219787652 137 136 118
4.677022969162778 -0.715512035121453 -65.987748333986104 137 136 118
1.711395461954922 -1.243018115737125 -70.771669970320659 137 134 115
1.449555176932648 -0.934140801906384 -71.203880329439642 137 134 115
141.900686668286568 -1.221856775123423 152.612314312576359 125 125 113
139.447057091247103 -0.992030506355380 148.684247868312696 129 129 117
135.391086943256937 -1.470795965541473 142.204263003835592 131 131 119
133.791847911372599 -0.930588099601992 139.638006296400931 134 134 122
130.269790813591527 -1.246485301385351 134.009511623217890 135 135 123
128.136323787171364 -0.984912109412462 130.593107034657322 136 136 124
124.133391612876835 -1.580498637770666 124.199810368234466 140 138 126
119.649645047877186 -2.434146957073453 117.041460053600247 142 140 128
118.370560965090405 -1.869069230769416 114.986939627473220 142 140 128
115.382207843277314 -2.106869231671432 110.210907757054571 143 141 129
112.927922756093992 -2.125690995842735 106.285714365709907 145 143 131
112.289685474541443 -1.312130697210451 105.252363889613264 143 141 129
109.407978630091492 -1.575830023531696 100.647297170265091 143 141 129
106.793284393173465 -1.740124132160541 96.467763731476083 145 143 131
104.445613780344758 -1.800943501687724 92.713716413334680 145 143 131
103.166241993465377 -1.359684349649208 90.660608150645430 144 142 130
101.886844536283860 -0.931561845730141 88.607647390659139 144 142 130
98.844596869732399 -1.402405931369450 83.748938440623363 142 140 125
97.885646627581721 -0.846781453296388 82.206517699018718 140 138 123
93.243232839029105 -1.175544699636249 74.786093679769465 140 138 123
91.215773406060265 -1.221816701117078 71.543861996930730 142 140 125
89.241697010775951 -1.260561178674273 68.386873452180680 140 139 125
87.374429488669591 -1.262493337983250 65.400126750768806 141 142 128
85.827670666798298 -1.111037821217679 62.923624198893918 142 140 127
84.975404891202430 -0.598274451885810 61.552324934938071 141 139 126
70.145109853254070 -0.589052167336687 37.828222309596185 140 138 123
67.956930362664423 -0.992396609131504 34.333977422665441 143 141 126
66.516769096400409 -0.970229894502034 32.029527570004433 142 140 125
65.023159513574612 -0.994932658813976 29.640270774952512 144 142 127
54.676918844492548 -0.705340191736208 13.080272251782077 144 141 124
53.503843108258479 -0.650042031283824 11.202002983033992 145 142 125
51.849789906279611 -0.921146741980820 8.559461549684556 143 140 123
50.623257166699361 -0.927214158186784 6.596538709889529 141 138 121
49.770823065405935 -0.697246478587535 5.228230930469238 142 139 122
48.864952861422339 -0.511641160911886 3.775084558568778 142 139 122
47.531527890382534 -0.623408901854820 1.642668852608892 147 144 127
45.930864362511485 -0.930128204578324 -0.914188534021690 148 145 128
44.971548372172961 -0.814160971511458 -2.451908690059241 145 142 125
43.370861378474856 -1.149933525800882 -5.008455791005105 145 142 125
42.144299861564761 -1.242076051628060 -6.970478849480486 144 141 124
41.452234533411087 -0.972768785974679 -8.083334787633078 144 141 124
40.973989510610565 -0.559802611883184 -8.856524840582580 144 141 124
38.948512335065047 -0.512011844641534 -12.100673063909596 145 142 125
36.762688045804268 -0.621097505525782 -15.599073624537851 143 140 123
35.536137327413485 -0.789605864050135 -17.560315777108968 144 141 124
34.042295292131143 -1.166797402110479 -19.945833023679114 144 141 124
33.243399170926168 -1.044946776807532 -21.227781401187229 143 140 123
32.337597356761009 -1.010706089931616 -22.679402418358507 145 142 125
31.217961273050804 -1.145862925438109 -24.470417699828005 146 143 126
29.937938838120814 -1.413305570489622 -26.515919671101415 148 145 128
28.978688500088097 -1.449833434820301 -28.052101526332450 147 144 127
28.179838385446942 -1.373258827857029 -29.333605864421543 143 140 123
27.487933876239083 -1.222307146163873 -30.445320444324096 142 139 122
26.849515645704358 -1.036786422288491 -31.472119628204979 145 142 125
25.997246293748461 -1.024426260093735 -32.838266279650384 142 139 122
24.770701598471533 -1.314416382172385 -34.798260840839106 142 139 121
24.078859394274531 -1.194165657229150 -35.909689206874589 146 143 125
23.333564641088969 -1.123287883594489 -37.105896721023839 146 143 125
22.802181610917714 -0.888619885031782 -37.962689305619534 140 137 119
22.217351880181468 -0.702229143857456 -38.904275114722594 142 139 120
21.525595043122010 -0.608261868223622 -40.015473771356767 145 143 122
20.726902676485068 -0.608342317099978 -41.296264526552335 141 138 119
19.981704188278670 -0.572453805909099 -42.492157931482240 142 139 120
19.022599619912867 -0.720539435138636 -44.027261202306363 139 136 117
17.796088343046534 -1.100282419194313 -45.986347879451841 140 137 120
16.516082585096612 -1.536974324488890 -48.030115661276142 137 134 116
15.663946388840429 -1.626712563573308 -49.395275063817678 137 134 115
15.079255888539137 -1.498684887229363 -50.336326719938256 136 133 114
14.441102839280774 -1.421882098290776 -51.362133677313295 142 139 120
13.802972785847018 -1.351330902271006 -52.387887285025528 144 141 122
13.271849855572171 -1.194909738817061 -53.243998866538504 142 139 120
12.473288014750437 -1.275296309612804 -54.524025433581471 141 138 121
11.995711806199182 -1.083932990774026 -55.295254375462491 140 137 120
11.411174675210859 -0.990919591536801 -56.236018983392796 142 139 122
10.291673707968741 -1.375093549503567 -58.024535645780503 144 141 124
9.546669071998508 -1.438445780825143 -59.219500254138751 141 138 121
9.069193382311880 -1.270627086090546 -59.990534927256391 143 140 123
8.377733147601646 -1.299268498191284 -61.100613404621498 142 139 122
7.525772088384244 -1.479405783811373 -62.464926069323525 141 138 121
7.155394227881061 -1.231274804696510 -63.066304901669497 143 140 123
6.731547953149160 -1.035401590997235 -63.752425597411843 141 138 121
6.361252539407616 -0.794467871770122 -64.353769786994320 140 137 120
5.883970815958392 -0.655670116947626 -65.124598525781749 138 137 119
3.332916229148111 -0.751176184197654 -69.224426139989447 140 139 121
2.052903692121518 -1.399119816660346 -71.266016158575155 139 136 117
1.575771554796333 -1.294954825506736 -72.036559966417144 137 134 115
0.938084386875474 -1.349117024845364 -73.061241711411611 135 132 113
142.617976062277506 -1.416704246214576 151.384300108692457 125 125 113
139.455465924016579 -1.481470336403685 146.357226578253005 129 129 117
128.789855789016599 -1.189701770470454 129.395696488589721 136 136 124
120.317634650286124 -2.618564884450459 115.947782229411246 141 139 127
118.817954005804538 -2.152910330046705 113.556382315229769 141 139 127
117.586531872427813 -1.579231873313907 111.589830929158040 143 141 129
115.657500958660478 -1.342473855742264 108.519315779790702 144 142 130
111.206378241639641 -2.310533990472087 101.457394911320819 144 142 130
109.330887526967246 -2.100343736982500 98.472398674489767 144 142 130
107.723663857405242 -1.780476786024123 95.912229870078704 145 143 131
105.955418020159883 -1.555090583026532 93.097489401789971 145 143 131
104.670103167738660 -1.111029504104027 91.047195439643929 144 142 130
102.526142499849101 -1.105213426989330 87.638443609657685 144 142 130
99.899156814557216 -1.362744038784056 83.465750087804224 141 139 124
98.721074253716424 -0.914943022448729 81.585835837713944 141 139 124
97.328309417600536 -0.588699716978306 79.366440567147407 140 138 123
94.754858823885414 -0.884978081264711 75.279393775988609 140 138 123
91.752019170408929 -1.430714826707262 70.513461960267762 142 140 125
89.661470301741090 -1.527586441398115 67.191074009532286 141 141 126
88.214904814528239 -1.304107880589441 64.887615710258217 141 142 128
87.144002045564775 -0.894203885075354 63.178534878029467 144 142 129
71.120549225630612 -0.506486625480436 37.693302223539263 141 139 124
69.029631348923431 -0.845436737616800 34.373582640568969 141 139 124
68.065914843751912 -0.534018507208761 32.835955800442093 141 139 124
56.813083232503658 -0.646434176650858 14.940063189443464 146 143 128
55.527223479837915 -0.646887157563218 12.894605512229077 146 143 126
53.170233725895784 -0.546842852445336 9.143360588638899 143 140 123
51.562235034785772 -0.796331771762052 6.589423217872508 141 138 121
50.598482607694137 -0.636160278894693 5.053370421318419 144 141 124
48.295163166454145 -0.597042522117305 1.387935836587445 146 143 126
46.794509988069308 -0.830755639742506 -0.995799877928050 148 145 128
45.669690088583565 -0.823573062127751 -2.785800410783594 146 143 126
44.383791759611498 -0.938182027144913 -4.830064568333796 145 142 125
42.829418048322907 -1.251222720865770 -7.298142890375630 145 142 125
42.295237496748939 -0.869695295142941 -8.155108848180930 145 142 125
41.492599605963505 -0.681725200497030 -9.435947776861013 144 141 124
40.582581133603483 -0.577608099323726 -10.886270832240598 144 141 124
39.135590472528619 -0.864463672693560 -13.184272604183519 143 140 123
38.601476399651261 -0.512024343622600 -14.040970946777975 143 140 123
37.261882392452392 -0.745813041694382 -16.169179383975262 145 142 125
36.351892845178000 -0.681014018623009 -17.619111556287066 145 142 125
35.065995972101874 -0.900175765991273 -19.662300196021363 145 142 125
34.370834247710533 -0.697251603844679 -20.772991514194956 143 140 123
33.460872992009911 -0.660469519256269 -22.222648828676370 146 143 126
32.067568653595927 -0.993478933566305 -24.434999983767995 150 147 130
30.137182164311923 -1.743936322562497 -27.494704726340302 149 146 129
29.173511137280997 -1.782520431939246 -29.028750573144265 146 143 126
28.532105464743367 -1.585330090647506 -30.054240696245444 138 135 118
28.105565810568450 -1.229814096314556 -30.740716171833100 141 138 121
27.732771347369948 -0.837022191848388 -31.342427977309143 144 141 124
26.822879199495119 -0.864908043104374 -32.791452693187466 143 140 123
25.429565367546346 -1.279620870557755 -35.002958292328799 141 138 121
24.788262468689922 -1.116752763581275 -36.028144286006977 144 141 124
24.254418066299650 -0.875150959909792 -36.883830731709196 145 142 125
23.613165593229667 -0.724348411480695 -37.908916652055382 141 138 121
22.757056655823163 -0.752094191572747 -39.272813628370784 142 139 122
22.062125449389200 -0.658299444365591 -40.382491901655186 144 141 122
21.152323636396133 -0.745759100835030 -41.830946610326976 143 140 121
20.135082625889297 -0.929973296422626 -43.448724601943439 143 140 121
19.386475267322297 -0.903520739587044 -44.642890085959010 143 140 121
18.530431264248392 -0.973271915372795 -46.006385743996958 143 140 121
17.620670346381559 -1.096161099627780 -47.454495322829217 138 135 116
17.033302238763540 -0.958239062360778 -48.394367868415003 138 135 116
15.693710009745985 -1.459368182286986 -50.519825287025640 138 135 116
15.052640741894578 -1.382194519170036 -51.544240953015930 140 137 118
14.519066915709871 -1.219705340179682 -52.399242495458878 144 141 122
13.878049657777737 -1.154483958834138 -53.423560011975695 142 139 120
12.914622922343582 -1.373477170732036 -54.955865685520138 141 138 121
12.434866166954322 -1.182567271429663 -55.726046793993191 141 138 121
11.901401789042822 -1.043127397701834 -56.580863438036744 142 139 122
11.206735974475748 -1.050267858470065 -57.689629697079397 144 141 124
10.619583087664580 -0.969336557066599 -58.629018569287553 141 138 121
9.871214071594764 -1.037163726022359 -59.822327606957231 141 138 121
9.176611544462943 -1.064333118353311 -60.930917974637708 142 139 122
8.320773573526495 -1.242990642195773 -62.293391169993612 143 140 123
7.894974413824116 -1.041915585768044 -62.978631157440390 142 139 122
7.092924064653175 -1.186388658363162 -64.256329159489326 140 137 120
6.290885149948224 -1.338709106145475 -65.533951854772681 139 136 119
5.703896975930945 -1.301515185120701 -66.472969314188845 139 138 120
5.278222279050539 -1.121122332644391 -67.158055951907926 139 138 120
5.013880248594845 -0.795051686917603 -67.589246464189216 139 138 120
4.319460746165944 -0.872634172130656 -68.697405462969840 140 139 121
3.786365535141016 -0.805628723408027 -69.551653111262056 140 139 121
2.769364673034133 -1.200142100259092 -71.167381273931881 140 137 118
2.074993038631177 -1.298742271741200 -72.275346827008946 137 134 115
1.434414269076001 -1.352800511194574 -73.298646309804468 134 131 112
135.255037872890512 -1.286168212694082 137.389657010051678 133 133 121
131.164218757045944 -0.639720709458789 130.914761390063262 137 137 125
122.491379943895723 -2.127389613149163 117.230850601440949 141 139 127
121.739433736774899 -1.314346442967311 116.030185638796524 141 139 127
119.855466332584712 -1.027150255548357 113.048451960412592 143 141 129
117.108966396033864 -1.158151528608530 108.709913446813431 145 143 131
114.739745788844559 -1.140458377573680 104.965367403291538 145 141 129
109.890759879444275 -2.318977448634621 97.319937087408960 146 142 130
109.569885646835701 -1.383070138895313 96.798655146802588 144 142 129
106.715330021299394 -1.673713815428750 92.291735614045621 145 143 130
105.154521172130003 -1.362114352319101 89.820306104981597 143 142 129
103.054588827516127 -1.332012117797741 86.501100171358758 143 142 129
101.170254426185679 -1.215810167797153 83.521302192734709 142 140 126
99.447616034304644 -1.037361241309649 80.796085312799761 142 140 125
97.886680423072789 -0.794223621949079 78.325421158421989 139 137 122
94.546624832045197 -1.479274102244285 73.057093008081267 140 138 123
92.500402734084616 -1.527944020523461 69.823862002823773 142 140 125
91.963715154329961 -0.808000673672777 68.964611913624992 141 141 127
89.755697789113583 -0.975801741635885 65.477432831643483 140 141 127
88.464189401158151 -0.677479422073591 63.431601997930215 143 141 128
57.616311593548190 -0.622816789085675 14.666417274042033 146 143 128
52.449209741971941 -0.700713397033653 6.496689965045277 144 141 124
51.481026096172741 -0.539628360292160 4.962747644765955 142 139 122
48.843519251206402 -0.714794735058871 0.794239593169294 144 141 124
47.228109068663372 -1.021765910608508 -1.755560451760061 147 144 127
45.828433577923192 -1.198634338318148 -3.966470907030811 146 143 126
44.860257197167456 -1.094819873276681 -5.499827188117308 146 143 126
43.622392672770573 -1.186178015564132 -7.456451000608240 146 143 126
42.816048746949093 -0.990898304147101 -8.735592216387744 143 140 123
41.901836908699494 -0.878929549734446 -10.183990000910512 144 141 124
40.771866842486702 -0.927716789523550 -11.970950586209767 144 141 124
39.426126350138375 -1.140498906303413 -14.096434797273957 141 138 121
39.105323174824008 -0.636048834578108 -14.613309525349877 142 139 122
37.813537024543038 -0.831791910942207 -16.653921815201272 143 140 123
37.061212524583851 -0.650439539444408 -17.847903493123454 145 142 125
35.877325305800241 -0.790669077666627 -19.718987920851362 144 141 124
35.125028734159741 -0.626375643158920 -20.912807363377340 145 142 125
34.049051499952924 -0.708367804403776 -22.614397254578535 147 144 127
32.487519712628810 -1.161747397271786 -25.077606598791760 150 147 130
30.872019268523488 -1.671027186330245 -27.625280998709059 148 145 128
29.634173482994228 -1.912057996264424 -29.580373119852851 148 145 128
28.989826002913418 -1.715586822026491 -30.604448489561292 139 136 119
28.669237944008060 -1.278478241494680 -31.120732948791584 140 137 120
28.294732068297790 -0.885877513469458 -31.721624052513079 141 138 121
27.056927927594160 -1.164146825075239 -33.676352781794037 145 142 125
25.927039435999788 -1.370747050197438 -35.461727943774605 143 140 123
25.390724282959425 -1.123833423462960 -36.316287068098035 144 141 124
25.016326991606633 -0.754588879240743 -36.916989701270921 143 140 123
24.156293887878178 -0.774030396608395 -38.279094849816744 140 137 120
23.458170907321886 -0.672758355335327 -39.387323156845582 139 136 119
22.814037404639663 -0.534988161314611 -40.410896653929825 137 134 115
21.148060345387506 -0.585425967198442 -43.050005190135977 144 141 122
20.234138296986913 -0.689135765324739 -44.496321521440336 144 141 122
19.536117703327363 -0.624159925260714 -45.604225194976976 142 139 120
18.622222982689962 -0.744759811321099 -47.050380741629652 137 134 115
17.762314298677211 -0.829380250138471 -48.411874492759438 139 136 117
16.578553955767589 -1.193851550082349 -50.280711384367748 140 137 118
15.502744904877417 -1.479008867062954 -51.980290452881746 142 139 120
15.020723368754886 -1.271188695936490 -52.749562163937838 141 138 119
13.998912793710261 -1.528513761629537 -54.364401524628846 143 140 121
13.462961518289902 -1.378963037980605 -55.218132521486041 144 141 124
12.927042726984638 -1.234558434476271 -56.071826087032747 144 141 124
12.499132121830030 -1.001549792204111 -56.756384674653759 144 141 124
11.855303253050707 -0.961166749175809 -57.779101452684671 144 141 124
11.373474319736673 -0.784750146875785 -58.548142051554436 142 139 122
10.621715570474819 -0.851375654911277 -59.739841821783557 143 140 123
9.707988930693674 -1.069210912741659 -61.185076885213221 143 140 123
9.010257004388905 -1.103035063203071 -62.292101658287550 143 140 123
8.096549454530930 -1.337673822642235 -63.737172887387629 143 140 123
7.182846678750693 -1.581259858502032 -65.182154301579175 141 138 121
6.377154574143105 -1.735665637858988 -66.458007857969704 141 138 121
5.949511842927450 -1.552553236068083 -67.142180988495937 140 137 120
5.737940182253112 -1.174987640270475 -67.488287843268409 140 137 120
4.986330603908328 -1.298090422010007 -68.679477627402974 142 139 122
4.450783787850710 -1.227829246934579 -69.532585949077799 142 139 122
3.861255677296555 -1.213088535725019 -70.470157189392751 140 137 120
3.811919513989864 -0.696837363163606 -70.562727855559018 142 137 118
2.525008624100693 -0.792497886198390 -72.606702653269451 137 132 113
135.277388082063055 -1.763520923347798 135.166700679436360 132 132 120
134.251394586683659 -0.992254425180899 133.543274603808868 136 136 124
127.431538915463264 -2.754891072545420 122.855794384916152 137 137 125
126.080528398692991 -2.176733482665783 120.724689795736651 142 140 127
123.971394188018650 -1.950061740058285 117.407862614600958 142 140 127
123.757453283252119 -0.890838748587733 117.055872556072160 140 138 125
119.482222182139395 -1.683984712649103 110.351440801711732 142 140 127
118.672561989489097 -0.924075835700915 109.068074064969721 145 143 130
114.234720632519711 -1.861436724040166 102.110342321531306 147 143 131
113.100071563939252 -1.289124341359349 100.319226864498745 148 144 132
109.745129296702942 -1.784094194255888 95.056063853642883 146 144 131
107.527339662996567 -1.766346620573626 91.571649846030482 144 142 129
106.067663725928625 -1.402860977906366 89.273022377801141 142 141 128
104.391341965395981 -1.160380179829697 86.635847552888606 141 142 128
101.794346860612322 -1.390968089786824 82.559388190274774 144 142 129
100.388734829850051 -1.051394037550566 80.346001753517271 142 140 127
97.304241901515013 -1.574597432441844 75.508041752587303 140 138 125
95.411150288956549 -1.520589693903824 72.533073390059798 141 139 126
93.572184758907895 -1.457717366664487 69.642978932444038 142 140 127
91.949824061789329 -1.300607318863297 67.091726968696946 140 139 126
90.977351316843055 -0.818365719916353 65.556530712917748 139 139 127
89.300791708305823 -0.719394015636619 62.920946884870659 138 139 125
87.461726730936149 -0.724269429531508 60.031597364045467 141 142 128
80.701002406635368 -0.597596420082665 49.407240182986840 138 137 122
69.613777728764560 -0.589080153546095 31.985171394147869 138 136 121
65.341682395718124 -0.533041203012858 25.270498412173140 143 141 126
59.771839551620673 -0.578657868835589 16.517096545414290 144 142 127
58.474167128481554 -0.565105756124533 14.477145847799761 145 143 128
54.526953227217973 -0.637069798863416 8.273521611096299 144 141 124
52.795844315636231 -0.957228873535328 5.557489421386805 144 141 124
51.660685600148852 -0.904367592318408 3.771964748824786 143 140 123
49.607099352056636 -0.688468714143172 0.539533388218189 143 140 123
48.417772044503877 -0.704706873919239 -1.330224825235888 145 142 125
46.686621859894970 -1.098369176888423 -4.045480664416942 145 142 125
45.822388979067313 -0.919977125967786 -5.407613054295553 145 142 125
44.633063197225681 -0.972759913520154 -7.276995825432493 145 142 125
43.931407521520725 -0.701019450996794 -8.385288820307181 144 141 124
42.579535497531126 -0.887909340311981 -10.508106249355762 144 141 124
41.606971065797453 -0.822844485107760 -12.038964432695195 144 141 124
40.363474898056097 -0.958320582279126 -13.992439958041189 142 139 122
39.824441571465073 -0.606254544254921 -14.846781104048603 140 137 120
38.743530607121258 -0.646708308978406 -16.546438291246176 142 139 122
37.716817657630955 -0.658869448692954 -18.161455968256149 145 142 125
36.635920591821204 -0.720448444851849 -19.860902351845198 145 142 125
35.555029887498989 -0.792718409985793 -21.560241731233731 144 141 124
34.636730424346240 -0.756261110872229 -23.005906732671036 146 143 126
33.284874957044494 -1.049464131526998 -25.127637747914321 146 143 126
31.824619106533632 -1.436744526546102 -27.418259775561978 148 145 128
30.255955175981555 -1.919723960471766 -29.877752440868136 147 144 127
29.662870482357235 -1.682270335943825 -30.815914719931328 143 140 123
29.340818476312009 -1.244813382336112 -31.331502417847020 136 133 116
28.368379737421918 -1.307587089863983 -32.861104825665166 141 138 121
27.504358480882402 -1.296532958100564 -34.221615962612617 145 142 125
26.640352668148850 -1.293963896238830 -35.582047146736869 146 143 126
26.426837078254323 -0.792957124512053 -35.928494674468993 144 141 124
25.562878401724703 -0.804089205634740 -37.288807375644012 143 140 123
24.644726317140140 -0.866478398633304 -38.733525405883626 144 141 124
23.618166097867487 -1.023992526755970 -40.347119957177455 143 140 123
23.242154644449883 -0.671650623659094 -40.946876393375135 131 128 109
20.111993698226399 -0.630399119127011 -45.879658073842165 141 138 119
19.410831488344556 -0.572130374415886 -46.985989769444842 135 132 113
18.438588340859241 -0.745471755093273 -48.514547618916424 141 138 119
17.412130433773953 -0.973571421289222 -50.127464543607516 141 138 119
16.331452346574011 -1.257244290995027 -51.824729562002119 140 137 118
15.467678405254063 -1.368414738281519 -53.184100894710355 143 140 121
14.549689987090503 -1.534063583673246 -54.627834318929445 142 139 120
13.957087665535255 -1.430739183209685 -55.564846703653075 143 140 123
13.635671732542789 -1.100121790380465 -56.079638943466222 143 140 123
13.151605094067932 -0.913069958692553 -56.847718505616029 144 141 124
12.342167098580433 -1.013466778798097 -58.122335981998788 142 139 122
11.858165280476001 -0.837226484498647 -58.890335265406037 143 140 123
11.482678963514545 -0.570183091097833 -59.489464904673724 144 141 124
10.727554663366703 -0.642366904421222 -60.679497392466516 143 140 123
9.918206771795425 -0.770094944927352 -61.953876640272341 142 139 122
9.325851827420735 -0.711624811807577 -62.890545661884602 142 139 122
8.082568055387156 -1.244249166496890 -64.840034750084470 140 137 120
6.839264953655757 -1.789111244300040 -66.789388621991321 140 137 120
6.572455703984929 -1.458168927367026 -67.219448971616117 140 137 120
6.522713642060225 -0.931131953022925 -67.311936480950891 141 138 121
5.984748731670294 -0.853206416247473 -68.163966887710927 143 140 123
5.175531416539428 -1.031170238072688 -69.437891500704865 141 138 121
4.637624085254785 -0.964786453992756 -70.289830648052970 140 137 120
135.289791740223023 -2.240794053263126 132.948501925567030 132 132 120
132.629964072617213 -0.978844209630491 128.775879119830535 138 138 126
127.845966141566009 -1.882586257850891 121.318248129774531 142 140 127
127.359046825479695 -0.928604122794201 120.543638879930569 142 140 127
124.424320865234805 -1.077338468656305 115.962752931547215 140 138 125
123.067012881504013 -0.540269205553069 113.835083971764163 140 138 125
119.642602989731060 -0.964411583875060 108.493566086674718 144 142 129
116.326912536701840 -1.372433055061198 103.321589023994534 147 143 132
113.990311920087819 -1.355087776172571 99.672300154536572 148 144 133
111.871256809760695 -1.258196556769718 96.361554993910318 146 144 132
108.446581664539764 -1.806981361211722 91.021447012268169 146 144 132
107.034624173444868 -1.417369968487863 88.810581162501080 143 142 130
105.568242158566662 -1.068531267820390 86.515312627241627 142 142 130
103.285821978587421 -1.136875237371530 82.951844950013879 144 142 129
100.404942911869185 -1.526171891512482 78.458533945946698 142 140 127
98.231237208146169 -1.588461557508774 75.064713085772979 140 138 125
96.601521689491804 -1.396108149773359 72.516616865829860 141 139 126
95.080588720977033 -1.164277562988600 70.137790858180665 142 140 127
92.417149710797631 -1.539509331047047 65.983748039131314 140 139 127
91.113781272120448 -1.230055938847177 63.943476435308014 136 136 124
89.592777414119411 -1.048570091165367 61.565202564636706 137 138 124
87.582101304849473 -1.143250976623218 58.426298979150630 139 140 126
86.659528653130494 -0.672774643567869 56.978210680527383 140 141 127
73.456843132826350 -0.604825602301458 36.354921709130878 140 137 120
71.337122452023934 -0.943807539807818 33.048981616506438 141 138 121
70.360058621530243 -0.632642737170722 31.517742699722277 141 138 121
64.438432953972224 -0.708145836002712 22.267786856442171 148 145 129
63.243695215791774 -0.588955525471516 20.399222941176646 147 144 127
56.508115610216890 -0.656510307909274 9.875694782022492 145 142 123
54.769149891431368 -0.961692490726761 7.163267097276787 144 141 122
52.812476745003153 -1.424952378443095 4.113181533222843 144 141 123
52.053107745531634 -1.127156786310131 2.921371311154758 143 140 122
51.620303974669866 -0.622405649700461 2.236356415229778 143 141 123
49.285261165488535 -0.605442330776445 -1.413673772258505 147 144 127
47.382973442970922 -1.107808922391596 -4.378515706824430 144 141 124
46.460377427424618 -0.966141885382108 -5.823208229008998 144 141 124
45.537794042837859 -0.833588218882627 -7.267812985300424 144 141 124
44.615223593672340 -0.710142507033462 -8.712330177100398 144 141 124
43.257214786421258 -0.896899671978427 -10.832213156270427 146 143 126
42.008068177676449 -1.021263908449515 -12.783099909972805 144 141 124
41.139957218022303 -0.890717124277701 -14.142884544867741 143 140 123
40.380731121664766 -0.691819369612364 -15.333745126172573 142 139 122
37.232171266728884 -0.768023672082473 -20.256515800151647 145 142 125
35.710865493521226 -1.156691795699738 -22.628776354375645 144 141 124
34.842829683374561 -1.082758703758370 -23.988014187362978 145 142 125
34.029251664034803 -0.977270046688414 -25.262770373170127 144 141 124
32.943480624431174 -1.081466595614512 -26.959446380522934 146 143 126
31.748829482851079 -1.277564383897641 -28.824806304517011 146 143 126
30.663070083286570 -1.403645873286995 -30.521262607738379 145 142 125
30.067332300168573 -1.169991810529671 -31.458116547083819 133 130 113
29.036044900098290 -1.273535090580987 -33.070005180339308 142 139 122
28.440355873172564 -1.053611012444243 -34.006741114851025 145 142 125
27.790246750254795 -0.881428720381136 -35.027810116709588 146 143 126
26.272300521561291 -0.726034697835109 -37.407278170497392 142 139 122
25.132182228294141 -0.958899602791667 -39.187489074878783 142 139 122
23.937610980875746 -1.246001064109542 -41.051950473443043 143 140 123
23.559893382789625 -0.894930618159834 -41.650877608132333 131 128 109
23.236676924837198 -0.503830671243277 -42.165431060289421 144 141 122
20.851269317573056 -0.503372434473485 -45.902055890829388 143 140 121
19.602302494745842 -0.891041766888965 -47.850318321872777 136 133 114
18.789058607265602 -0.931295741962444 -49.123734153088776 139 136 117
17.649026319290329 -1.250825116319536 -50.903094121186996 141 138 119
16.563461974674055 -1.536009456462222 -52.598006012457802 142 139 120
15.859197164237401 -1.511374816970072 -53.702507221848464 144 141 122
14.773646354584258 -1.815871617694326 -55.397226795340742 142 139 120
14.505215877639870 -1.436154132351095 -55.827013622705920 140 137 120
13.855502805110390 -1.385013932279272 -56.847026146653491 143 140 123
13.260296003879859 -1.293238877086879 -57.782673674015086 142 139 122
12.447200151774950 -1.395710111673724 -59.055519891339799 142 139 122
12.069977355609197 -1.126729862253003 -59.653838741940348 144 141 124
11.583833563192641 -0.956610115461914 -60.420750310308506 146 143 126
10.661841808944203 -1.174759758413475 -61.862028135183465 143 140 123
10.611664916852320 -0.630083484837789 -61.954489193424962 141 138 121
10.016660566597650 -0.570686052843564 -62.889900293498783 141 138 121
8.227312316598045 -1.008497740061931 -65.687718810812868 140 137 120
7.959357776477148 -0.673067354401881 -66.117277455358078 137 134 117
7.473466998923982 -0.538415830246761 -66.883944972936320 139 136 119
6.120286566450744 -0.633832646423997 -69.007078042145139 141 138 121
5.361975518136020 -0.766878306433999 -70.194959518975850 140 137 120
5.039741843820821 -0.501521810951570 -70.708688790942546 138 135 118
3.741291499590631 -0.594539863938392 -72.747170353521824 136 133 116
145.831802814827199 -0.784409273468503 147.068835753544761 128 128 116
137.423130120675893 -1.819669930614273 134.029904128170244 133 133 121
133.713026898262399 -0.995189277229343 128.257913824462349 138 138 126
130.109433833636785 -1.373977233080516 122.669073044461072 141 139 126
128.527452321641022 -0.896358127571300 120.206063541139031 143 141 128
123.614851057210316 -0.777900676657140 112.577716162161948 144 142 129
120.393480166960089 -1.104522409554781 107.581496825391895 145 143 130
116.680256143457015 -1.690076088681510 101.825513693952900 148 144 133
115.480548178982701 -1.140903403098339 99.954901493318943 147 143 132
113.734378932119711 -0.861225483112103 97.239899692867198 146 144 132
110.949930734016931 -1.093277474294318 92.920555663323853 146 144 132
108.547944258802218 -1.169094724226738 89.192647248286079 144 143 131
106.473787415657867 -1.109540213705604 85.971666120959270 140 140 128
104.454240317189601 -1.043861518165827 82.835355724573503 143 141 128
101.396366522826455 -1.513154336088121 78.094965177463479 142 140 127
99.376739950138358 -1.492912780880097 74.959160508583153 140 138 125
97.848914468427637 -1.244077827210860 72.583456821130795 141 139 126
95.719931504197319 -1.317483435796108 69.279214062582184 141 139 126
93.973461176129092 -1.214850338541605 66.566178709647147 139 138 125
91.735116512667346 -1.385660362324265 63.093539075886781 138 138 126
90.261847083872482 -1.176684943778551 60.803005138861153 138 139 125
88.679259084484784 -1.040381023132012 58.343799105688390 139 140 126
87.424565207451082 -0.744292346405250 56.391238213068078 141 142 128
85.732641279000248 -0.696956565319204 53.763536137500211 137 138 122
74.380598116301371 -0.553883093561004 36.134193884410621 139 136 119
72.743204600072033 -0.606935762337198 33.592296880216367 140 137 120
71.379091801835486 -0.516428330766309 31.472480005633344 143 140 123
64.066493034799166 -0.566628196099025 20.116228343381323 145 142 125
62.647684025316209 -0.593264799931366 17.912924886259731 146 143 126
61.283534419548928 -0.600091147836594 15.794127525761667 145 142 123
60.028711737897012 -0.552169440961395 13.844182760118201 144 141 122
57.300402946490962 -0.632196088521072 9.607275842528594 144 141 122
55.444239407765380 -1.006818702105208 6.729912208518499 143 140 121
53.642726834550118 -1.364574551914518 3.937089006783935 143 140 121
52.606565238499655 -1.243507474870139 2.325220144937873 143 140 121
52.117111654572966 -0.775235833422639 1.556822942252779 143 142 124
50.044851354355444 -0.578779270244869 -1.666474686311091 143 142 124
48.133973121351588 -1.080709838028776 -4.627211438318568 143 142 124
47.316546899955469 -0.865019594330004 -5.901261017744247 141 140 122
46.171090988340183 -0.879922860281297 -7.681162012448510 140 139 121
45.299019176403135 -0.719276086039526 -9.039361623506693 143 141 126
44.044228048226429 -0.830630654045340 -10.987681973513673 144 142 127
42.734761963704571 -0.992230991295643 -13.020187691791534 143 141 126
42.026760603278959 -0.746783023032787 -14.125174290995432 143 141 126
41.154743698550348 -0.623594715390257 -15.483014590659707 141 139 124
38.101334936900813 -0.619308432909333 -20.230415981701213 146 143 124
36.299751767043801 -1.204387290420402 -23.020865460328793 145 142 124
35.318424753625592 -1.210213414067105 -24.546801938168016 146 143 124
34.282424537435332 -1.265707908455419 -26.156930566634372 144 141 123
33.738622483966793 -0.968279070792837 -27.008427961898718 145 142 125
32.812031893421960 -0.960382497620128 -28.449832526511415 146 143 126
31.721387117166529 -1.084174755918238 -30.143975246475151 145 142 125
30.630750420065112 -1.218632098020902 -31.838012050413226 136 133 116
29.266659225863677 -1.570869801237800 -33.953281862204136 135 132 115
28.996437927821134 -1.102577679576948 -34.383123710122049 145 142 125
28.343397875132453 -0.930566755912743 -35.402788801243588 146 143 126
26.654519597297892 -0.903029272427736 -38.031744111803619 142 139 122
25.454564590621374 -1.179633732493758 -39.893737989299893 139 136 119
23.981107117706955 -1.683222976727988 -42.176847180627590 142 139 122
23.656379291343129 -1.291457499260882 -42.690684449957416 143 140 121
23.331698200354694 -0.902717235294756 -43.204512937288399 140 137 118
22.135412643757292 -0.575676169050163 -45.074475893772501 145 142 123
20.990237304944856 -0.864858985462347 -46.851687816344878 142 139 120
20.228031634551684 -0.852422506785228 -48.039203640060322 139 136 117
19.411137844466623 -0.892292102283819 -49.310877326993108 140 137 118
18.375411755667116 -1.120965298549984 -50.919354481687577 142 139 120
17.284977163530101 -1.405207127281297 -52.611946164981703 143 140 121
16.413410520067970 -1.516967029652373 -53.967583428138965 144 141 122
15.596577484879688 -1.591108322929725 -55.238933404204261 142 139 120
15.326962608567854 -1.209937562555609 -55.668168578261742 140 137 120
14.783793380691634 -1.064141586116731 -56.518407881905915 141 138 121
14.076490071302459 -1.064080708992976 -57.621202533731946 142 139 122
13.259761461150177 -1.165071407767174 -58.892326091957756 142 139 122
12.443050722700406 -1.273926486484279 -60.163377247931265 144 141 124
11.845274782101981 -1.199899119213675 -61.097613021958097 146 143 126
11.247531756689796 -1.131539931875549 -62.031806197073735 142 139 122
8.418972201551981 -1.307152535887358 -66.441487348497873 138 135 118
8.642502238640688 -0.529289259494109 -66.112994749831245 137 134 117
7.935483915386456 -0.592135947085800 -67.215278198881720 137 134 117
6.143076203755712 -0.518491455400488 -70.016897755621358 141 138 121
4.779128709190985 -1.215117546541536 -72.128691350143157 139 136 119
4.072212633242003 -1.313278482407957 -73.230660206656211 137 134 117
2.927254937746127 -1.828249969089848 -75.005652092835561 137 134 117
145.762093812471846 -1.296346853666403 144.668558463767056 128 128 116
142.856014290116121 -1.252473751081624 140.182844437385114 133 133 121
133.862930704815966 -1.412324056070243 126.305893091415385 137 138 124
130.297948809294155 -1.771632929682958 120.809239237404427 142 140 125
127.830606045066290 -1.684067732825593 117.000056384486300 143 141 126
