ply
format ascii 1.0
element vertex 676
property double x
property double y
property double z
property uchar red
property uchar green
property uchar blue
end_header
76.901930735719233 -3.671095732727326 -100.731191105326417 137 134 115
77.195521310284335 -2.917748996877840 -100.546821751493695 136 133 114
76.085498127332826 -2.943231385726629 -101.456693666547238 132 129 111
76.116634860476708 -2.336753331333107 -101.477832156237753 132 129 110
71.702246472918304 -3.656399422973124 -105.006223233676423 140 137 118
71.207101825918215 -3.362176162670576 -105.437529629111651 141 138 119
70.360901049700885 -3.271744930628866 -106.142229781607625 141 138 119
220.391050846398912 -2.681284451236276 13.752794937128812 127 127 121
215.079671849382294 -3.332424471458632 9.538050974601930 130 130 122
211.689825931730923 -3.404760238478181 6.836989718676847 134 134 124
208.125165044809251 -3.554379418110489 3.998637091984023 136 136 126
205.870863618788263 -3.300708471847242 2.192144996678309 136 136 126
204.228175004674256 -2.860516574568984 0.867151669184011 138 138 126
198.741082350428911 -3.702721967781607 -3.483282519994333 142 140 127
194.127439652330651 -4.287323988677429 -7.145634965972988 140 138 125
194.931405924177767 -3.073891928638872 -6.545010176144530 143 141 128
193.550993068079208 -2.598680862324092 -7.663259142404968 145 143 130
189.374047724991101 -3.092422439765200 -10.981166953733663 144 142 129
188.780308008272812 -2.370319311820135 -11.480569073117778 143 141 128
185.826818767265081 -2.476997489098746 -13.835733939160377 143 144 130
181.474665072584145 -3.095506076652156 -17.290256155979364 144 144 131
179.045426391355818 -3.056629454698361 -19.232565651986050 146 144 131
177.402971810217281 -2.750286001216477 -20.556293170781885 146 143 130
175.848025410867706 -2.422377823154174 -21.811247395415478 145 142 129
170.620923246501093 -3.445680313701252 -25.951619365619393 139 137 124
167.754302431939209 -3.631766808717180 -28.236665514487385 138 136 121
165.587158023889003 -3.575715860109726 -29.971960141608946 136 135 117
165.956136957057026 -2.582673108381660 -29.715264746706083 137 135 119
165.363426689088726 -1.950557833272186 -30.214233060668278 139 137 122
160.397682353569962 -2.988185212176290 -34.146913612299869 137 135 121
158.143140787288075 -3.015260318463863 -35.950400965174254 138 135 120
157.463182122801925 -2.446483365815489 -36.517836857053709 139 136 121
156.870920500908710 -1.847554040853051 -37.016678202104373 139 136 121
154.879021810281557 -1.802998383336083 -38.613973683102188 138 135 120
152.099648198633986 -2.083144288831710 -40.828931509102091 138 135 120
149.495168334277537 -2.310616304093691 -42.906382333292783 139 135 123
148.290794235562771 -1.990039964118617 -43.885538134914270 140 137 122
145.511196240758181 -2.316551606253066 -46.099911350961577 138 135 120
142.906520035519748 -2.588735251457901 -48.176808007079131 134 131 114
140.564338579217917 -2.768829501311126 -50.047652518977941 137 134 117
138.659798323067548 -2.781581444934801 -51.575291194741908 136 133 118
136.492612180987294 -2.916062473325226 -53.308604615092236 137 134 119
130.210177465745744 -4.799873420597226 -58.265558083553117 132 129 112
132.595923217441594 -3.039269969356551 -56.431823556434466 137 134 117
130.778918956286873 -3.062705085519328 -57.890370299973910 137 134 115
127.998523410063527 -3.512827976721847 -60.103089577472645 138 135 116
126.093848208130808 -3.599808281021522 -61.629899625831314 137 134 117
124.013958560174046 -3.775222031277542 -63.293695163753540 137 134 117
122.547261904356844 -3.693268346699399 -64.477477145119366 138 135 118
121.431089587216618 -3.464740285742127 -65.387021992618259 134 131 114
119.351178696844784 -3.673810579744782 -67.050460924529546 135 132 115
120.250738627393218 -2.554510596433931 -66.383739979682019 139 136 117
116.593432487811711 -3.494989638600984 -69.280489602125215 141 138 119
112.497461523478691 -4.658531043190582 -72.519381807673597 138 135 116
112.258073662605895 -4.075088176753592 -72.743441800867146 138 135 116
113.597073898662032 -2.762453501792920 -71.734643258401036 138 135 116
111.341838983000557 -3.115804584195159 -73.534440392779743 138 135 118
110.489520847060504 -2.825032305038719 -74.238276232393588 140 137 120
108.234180529565748 -3.201972156202055 -76.037780131849729 139 136 119
106.943516434075633 -3.134272562630965 -77.083910992326565 139 136 119
106.091537210067287 -2.864514213426217 -77.787692659309414 139 136 119
103.836038979150473 -3.276013784577848 -79.586765272966517 139 136 119
102.896515086472547 -3.063372812761512 -80.358936817597538 141 138 121
99.500071049473362 -4.055576706700579 -83.047372891110683 141 138 121
99.174908280525514 -3.560240431183167 -83.340350421812104 142 139 122
98.235632772477615 -3.370302980730188 -84.112407094048052 141 138 121
96.857582938813607 -3.404355312616312 -85.226544418151747 139 136 119
93.372426388634551 -4.502015402271253 -87.982314100762011 139 136 119
92.081987914136960 -4.515487983928179 -89.027717351571340 139 136 119
91.142891636529043 -4.358677464011164 -89.799518774897905 138 135 118
90.379612831066297 -4.117803639011439 -90.434578210234918 138 135 118
88.562384562075707 -4.422639199825886 -91.890121193053233 138 135 118
87.623639724638153 -4.284841084676532 -92.661895039919415 137 134 117
86.597172371843769 -4.198293011023480 -93.502034078624035 138 135 118
85.219293018442471 -4.301745922853625 -94.615538584867835 139 136 119
82.610878823090928 -5.061156141184465 -96.685631731449206 139 136 119
85.364605753680678 -2.998176822838766 -94.587615105998282 139 136 119
85.921520715114013 -2.087273065536205 -94.198264395053087 138 135 120
84.808248889886158 -2.067302586941624 -95.107050039975150 139 136 121
77.568010491103763 -4.765835539902138 -100.816854900545820 137 134 117
76.454213958475336 -4.782421091998487 -101.725013237657919 137 134 115
77.452337986654967 -3.647257003782034 -100.994749431548485 137 134 115
75.987019121973560 -3.864556011328796 -102.176110185179368 136 133 114
77.778511190537799 -2.283458358868543 -100.832251184062187 134 131 112
77.370127688318590 -1.918388020722499 -101.194934193410489 132 129 110
77.050126625889533 -1.505925761497904 -101.489528002935600 133 130 111
74.176486975056292 -2.536854915630110 -103.762519974687166 137 134 115
72.095060736997851 -3.136018395295968 -105.421218544333300 143 140 121
69.660952929443042 -3.949534059636165 -107.352424564987444 142 139 120
217.743252177204766 -3.797130500506173 10.485764426775660 124 125 119
217.410025169915656 -2.889299229266248 10.192398781844133 131 131 123
214.010772460819908 -2.956977156960543 7.495789757222184 134 134 124
209.209628245823353 -3.495232520272679 3.700942554956271 134 134 124
204.057760267846589 -4.176847146556877 -0.368079472050965 135 135 125
202.498092049149591 -3.716247736300861 -1.622140652005100 137 137 125
201.990047031841812 -2.918217883148091 -2.052461488854789 140 138 125
193.420068383073499 -4.808769749042320 -8.797323400831374 139 137 124
193.437817340216498 -3.865170205691348 -8.815527385213699 143 141 128
193.368207199299860 -2.950973762536999 -8.902495300565477 145 143 130
191.545916743344549 -2.637317616848956 -10.361982996330198 144 142 129
189.022464725036315 -2.577207341375425 -12.370298608397206 143 141 128
186.411329974045401 -2.563278328253038 -14.447050619687616 143 144 130
183.098841862952554 -2.812259882374031 -17.072442396363584 145 146 132
179.260200845933412 -3.268531355003631 -20.109143996603791 146 144 131
176.999518849587560 -3.183591724739125 -21.910846812737958 144 142 129
175.089560895430168 -2.985935844083780 -23.438059513780786 144 142 129
171.776641368762057 -3.311180532569356 -26.062459887971045 141 139 126
169.165118999464141 -3.399237703065028 -28.137976668970623 137 135 120
168.746034748728079 -2.691003197861660 -28.499072838069907 135 134 116
168.941142087849784 -1.755704264090910 -28.380321252272012 138 137 121
166.505212627901187 -1.810438746115342 -30.318466316553526 140 138 123
163.981522551958392 -1.913573093289799 -32.324987683756120 137 135 121
159.264634113361296 -2.872461478353399 -36.044953888725587 138 135 120
158.232105008077212 -2.437781519408189 -36.885776502198866 140 137 122
158.252605357336677 -1.599409031885767 -36.904213588191482 138 135 120
155.553309265587814 -1.828119124798767 -39.047150794965745 138 135 120
151.274359378075985 -2.698418865838588 -42.423242764460412 138 135 120
148.574727584787013 -2.965617882780527 -44.565623186938382 138 134 122
146.752654168414495 -2.896885578710039 -46.022693589554621 139 135 123
144.667284053690850 -2.945997769961164 -47.685167376356304 140 137 122
143.547496219045797 -2.613912568106765 -48.594048538347721 135 132 117
141.901113969791027 -2.505198991955600 -49.913862770571626 137 134 119
139.815796638519686 -2.588482073148943 -51.576010070659834 139 136 121
137.203620200711612 -2.904598168562209 -53.648866422444911 137 134 119
132.571616811017293 -4.086514626787650 -57.296286718930759 134 131 114
131.188488934629902 -3.920455842654326 -58.410054569046054 137 134 117
132.089008311103782 -2.787924690200302 -57.743928814911328 136 133 114
128.861679195837041 -3.424735936419966 -60.295209352519748 136 133 114
125.107006777854991 -4.310027816963442 -63.256806235218590 138 135 118
125.481121342010127 -3.417126184567870 -63.001536905728642 137 134 117
125.064893505313535 -2.868983035053228 -63.362351672766380 133 130 113
124.209579844693167 -2.517568815170770 -64.065378681600805 134 131 114
120.190732431151545 -3.581483534301852 -67.231333152091452 136 133 116
118.544455121070982 -3.605358066871114 -68.549832790846978 137 134 115
118.568288366639123 -2.884361544477664 -68.568656113235789 139 136 117
116.218952181480603 -3.243235464561328 -70.434237558416982 138 135 116
114.133234039345837 -3.495815165115488 -72.094450456811614 138 135 116
113.190497738236701 -3.233788203934295 -72.865593551058282 139 136 117
114.974009851241931 -1.710693058751362 -71.517319917609314 138 135 118
108.491179198459420 -4.043082011970959 -76.595504987529893 140 137 120
106.317196898745834 -4.386811184084340 -78.323413253103126 140 137 120
106.782147951528273 -3.492848170651232 -78.000751828818807 139 136 119
106.543760792366598 -2.931352773661598 -78.225064637952329 139 136 119
106.129726815686382 -2.455465377016295 -78.586185175339523 140 137 120
104.043973141892138 -2.790308140587276 -80.245534300476976 141 138 121
101.254004935755830 -3.480802466649789 -82.451199786354465 141 138 121
98.551753632451423 -4.145665234964470 -84.588233691457958 140 137 120
98.754337553508648 -3.395072522962139 -84.471157602901258 139 136 119
97.196462359634964 -3.516473378766446 -85.720085738674527 139 136 119
95.902754215803398 -3.515508722111857 -86.764073400628547 140 137 120
94.344900365880932 -3.655174032017023 -88.012823742073579 141 138 121
92.434708678165237 -3.982579771583541 -89.534519902758063 139 136 119
89.026811402070109 -5.083941052900142 -92.216353174121849 137 134 117
88.702081968585929 -4.627830800675890 -92.509134237860536 139 136 119
88.025201814302491 -4.354898778532576 -93.074997597979291 138 135 118
87.260415299310935 -4.131507873900684 -93.709155789763741 139 136 119
85.966962407735792 -4.188385218023967 -94.752670166750960 139 136 119
85.555129204554618 -3.790506493147585 -95.114040564189793 140 137 120
84.438235391019518 -3.767133719939261 -96.021128483848457 140 137 120
85.085129460512434 -2.813734420902550 -95.564402012814895 139 136 121
84.321491668566338 -2.609516699892529 -96.198912390555961 139 136 120
81.970234077667712 -3.263130976407531 -98.060540731263586 136 133 116
78.471722198385265 -4.551658742835660 -100.807956573328312 137 134 117
75.325482845172687 -5.670541768973837 -103.282209083227798 137 134 115
76.326679154155670 -4.540253863651394 -102.553364852723661 137 134 115
77.505206073339167 -3.305626191795780 -101.688711230092792 137 134 115
80.097172540769350 -1.280828291150983 -99.734633702862652 138 135 116
80.041468556144878 -0.712870615396570 -99.824690266150014 136 133 114
73.804039176922771 -3.605649113059237 -104.681929438318832 135 132 113
75.603146248776625 -2.013046827989170 -103.341831851636215 135 132 113
72.367501161042753 -3.259421538030295 -105.882859513569628 141 138 119
69.131151139706304 -4.526529488158857 -108.423336520028215 143 140 121
218.501813602610468 -3.849155587564080 9.901688991507825 123 124 118
217.201507645448856 -3.244564311882663 8.854644268809892 131 131 122
215.462037374869226 -2.786989777621470 7.464913140893742 133 133 123
208.187199968268345 -4.109955644184990 1.757500924022111 133 133 123
205.744634679194888 -3.917962965406554 -0.180009268962948 134 134 123
204.180812741187253 -3.454606131118623 -1.432111707387492 136 136 124
202.089814768523354 -3.174320847379258 -3.095283799926420 139 137 124
192.616548212836250 -5.359087479635223 -10.513576222258678 139 137 124
194.568117776240626 -3.772114351916178 -9.024640455350749 144 142 129
191.070704463523157 -4.016759648653903 -11.783327054556622 145 143 130
190.034367645147768 -3.442563534848865 -12.623764181007573 144 142 129
187.679599105200339 -3.329027872969745 -14.491609555423707 143 141 128
185.412736931563529 -3.199437688343168 -16.290815406512252 142 143 129
184.200888696150116 -2.713671886138062 -17.268095984875146 143 144 130
183.077104214513895 -2.204131289272216 -18.176891802172122 143 144 130
178.612162501124033 -2.894450467624417 -21.687576319880520 143 141 128
176.081494955582571 -2.915734165558394 -23.691602219394753 143 141 128
173.199019751867127 -3.080433975937737 -25.969283826724677 140 138 125
171.459766094185142 -2.844043350894887 -27.356841824417700 137 135 120
169.720575318101027 -2.618303930121233 -28.744320266255386 135 134 116
168.421246909232821 -2.239325693179293 -29.789510296360135 135 133 117
166.858144192955194 -1.967392707190437 -31.039986386161331 135 133 118
163.183771845694707 -2.504945122456451 -33.932719119532663 138 135 121
159.509164363299732 -3.065325565220764 -36.825104384706776 140 137 122
158.385925922687136 -2.665877238919069 -37.733028191111231 141 138 123
157.526816140803987 -2.170711059217465 -38.435718859682765 138 135 120
155.347889037725508 -2.197238106422676 -40.164526669095977 136 133 118
151.496795325803816 -2.896807220127105 -43.192766557937261 137 134 119
149.757759937036326 -2.780477214770245 -44.579193130459061 140 134 122
149.779212859083998 -1.969347916029209 -44.597805496180541 141 135 123
145.927698814716877 -2.721962863726967 -47.625298272003477 143 138 125
143.660534020582134 -2.853659580931518 -49.421669793143337 134 131 116
142.273763804950107 -2.638276614007396 -50.534202879240667 134 131 116
140.094615104708225 -2.758781540259413 -52.261937315811025 137 134 119
138.531844771071292 -2.636074693440301 -53.511036356712964 136 133 117
137.937893476154983 -2.116533760139443 -54.008252183384371 134 131 114
136.023027339949266 -2.158712297933883 -55.530648090807603 138 135 118
132.258361940633392 -3.000170705532099 -58.487915565446457 137 134 115
129.814738539710163 -3.298426734859523 -60.419873185117211 138 135 116
127.547200618912939 -3.535690039884192 -62.214979553820172 137 134 117
126.336905972411586 -3.326893603281690 -63.190152378975654 134 131 114
127.329728530446900 -2.159911806780183 -62.457679883376329 133 130 113
125.150473295165355 -2.386601821503624 -64.184270337490432 134 131 114
120.591406020475631 -3.684606768832301 -67.754529179333701 135 132 115
121.232449619054051 -2.683055576104634 -67.295499514699600 136 133 114
118.788509808070273 -3.067951328677911 -69.226413938686562 136 133 114
116.344415326244231 -3.468004111572680 -71.157098349745354 137 134 115
115.399154462675000 -3.198059917487503 -71.927115198020175 137 134 115
114.189502494754052 -3.055472448868571 -72.901913956237649 139 136 117
112.715369577792458 -3.042773293099454 -74.081425584105858 138 135 118
113.799264804357435 -1.845736039760651 -73.281972431955438 139 136 119
109.326153897416461 -3.251464124430985 -76.781384772207360 140 137 120
107.587415419056725 -3.392252908928371 -78.165306732781204 140 137 120
108.319309390603976 -2.367823702716541 -77.639116185131627 140 137 120
107.022059432929993 -2.310650186638098 -78.681988041510721 140 137 120
104.400993360294024 -2.899758446466573 -80.747781576977445 140 137 120
102.750648891755816 -3.033909538186817 -82.063200369046399 140 137 120
98.010409129522586 -4.687723979141497 -85.764842157835858 139 136 119
101.392364615820256 -2.377460238796506 -83.193901148385692 139 136 119
100.007128103931663 -2.404622194789623 -84.304671316361123 138 135 118
97.915397928767703 -2.792061655978306 -85.960619899498141 139 136 119
95.470199395544100 -3.369547053760179 -87.888949733113208 139 136 119
93.554794620974832 -3.694977050407596 -89.408172308230291 139 136 119
91.109148986556562 -4.301290478622283 -91.335991508767165 139 136 119
89.723629305636436 -4.381393826095823 -92.446081257310567 139 136 119
91.077897844376821 -3.062184745049397 -91.444654692177750 140 137 120
90.841927771627610 -2.556199632899085 -91.669552431918135 141 138 121
86.628065498247494 -4.120486506054791 -94.958779649811248 140 137 120
85.950133205886843 -3.860706858768387 -95.524004286678689 141 138 121
85.537729362785910 -3.465083386431941 -95.885078477488548 141 138 121
85.302533204706151 -2.977865848847814 -96.110153271281007 141 138 123
82.148509585663945 -4.047065974868527 -98.581193226139305 141 138 122
80.409522295883747 -4.377455604603060 -99.963044499435142 137 134 117
79.466823447061245 -4.289179330300552 -100.732417007622502 138 135 118
79.940331356219644 -3.438408867975717 -100.413404551471274 138 135 116
79.440749011189723 -3.115135183140148 -100.842886997993560 136 133 114
80.977746240115593 -1.677090727723662 -99.708382674269188 136 133 114
78.796671104586167 -2.281003723964787 -101.430219548693458 136 133 114
80.600736823210838 -0.686175036198863 -100.092517079110593 136 133 114
74.345070016218259 -3.579322475030043 -104.941027730649836 138 135 116
70.656939288473779 -5.070314067821677 -107.817364273536441 136 133 114
73.879769164091471 -2.681804078836324 -105.392821315159637 139 136 117
71.786495211845988 -3.291319061474597 -107.045745425729024 143 140 121
214.678935112313525 -5.318876590023940 5.759289748432252 123 124 118
215.665707841681865 -4.012655877832755 6.493223205221966 127 127 117
214.450073048734424 -3.395567936912515 5.516402338259837 130 130 118
208.564398594663061 -4.274846158484781 0.913594385458282 134 133 121
207.701271988784924 -3.573583408432033 0.210703896184839 136 134 122
205.075791919120434 -3.450367880192075 -1.860310304824765 137 135 122
202.185893058874797 -3.430071650510288 -4.136344717491198 137 134 124
197.445053020090029 -4.040665044154089 -7.848437734345225 140 137 127
191.910642306353395 -4.945855635087360 -12.175586787774506 143 141 129
191.841025029567390 -4.041217177745308 -12.262452904201382 144 142 130
190.713845806493907 -3.497016561135869 -13.169981461825898 144 142 129
187.735472093718926 -3.595824067104857 -15.513322698645538 141 139 126
185.462331975953248 -3.468436047303755 -17.309502534793012 142 140 127
183.012851650561629 -3.416706519590766 -19.242260799030220 143 141 128
182.944120623524498 -2.539731104074915 -19.329266144712960 144 142 129
182.082041052817971 -1.945511155335887 -20.031555686695981 144 142 129
177.339841492845977 -2.750110455860104 -23.741001313014408 143 141 128
174.537582633781994 -2.881216604583742 -25.946545056181890 141 137 125
171.558835573489887 -3.094058865261867 -28.288533867812760 140 136 124
169.373842877830413 -3.032757243326671 -30.015343983139104 134 130 118
167.629917420492973 -2.820969403327646 -31.400413759064719 138 135 120
166.062492816633636 -2.553716526188057 -32.648774097949570 137 134 119
163.789332388616458 -2.562676112499349 -34.443540723337492 137 134 119
160.457334625605938 -2.988938260204835 -37.057774311201655 138 135 120
158.537003165971100 -2.893613880915229 -38.578971013231012 139 136 121
157.499177906867629 -2.468392460994488 -39.417162603377051 138 135 120
155.049429206635239 -2.600465581420282 -41.347900505018515 135 132 117
153.305714713800853 -2.469862175052126 -42.732235533480321 137 134 119
152.091666538437778 -2.139915784056385 -43.706859740635480 141 135 121
150.524642198193277 -1.958384847733175 -44.954529185261833 140 135 120
149.752257364188068 -1.466398263551328 -45.587817157535454 138 133 119
145.448369988514429 -2.412232070431425 -48.951201608087359 135 132 117
142.910082135696030 -2.662638345927081 -50.949223504928341 138 135 120
140.371685859495244 -2.928705834463647 -52.947032323661517 138 135 120
139.687826755248096 -2.440407260315611 -53.511773854150135 137 134 118
139.357492544252864 -1.808275840352167 -53.803685485844085 136 133 116
136.995786929728808 -2.034065008447539 -55.664719346623968 136 133 116
132.690470746674549 -3.099533350496608 -59.026188802252790 136 133 114
132.272094472637207 -2.529317177634660 -59.386202972948837 138 135 117
130.351892263443233 -2.608465710660289 -60.905665570611916 137 134 117
130.464133915383854 -1.817458213846226 -60.856644944780442 135 132 115
128.809226936706438 -1.797836082128893 -62.171463912675591 135 132 115
126.093716982207155 -2.255165493098309 -64.304291169597263 136 133 116
122.936034803656071 -2.925246658562431 -66.777689214088127 138 135 118
120.220079818513298 -3.417635418774153 -68.909942686381356 137 134 115
119.095374047114490 -3.211413678778252 -69.815175548445751 137 134 115
116.202314179977193 -3.812491854244852 -72.083301627346316 137 134 115
113.485857161116698 -4.350932934743608 -74.214840888762410 137 134 115
113.776267404446116 -3.526125195895400 -74.029685659370585 139 136 117
113.271038286139330 -3.066888225460893 -74.457866247313490 138 135 118
112.323756055077268 -2.816203023815813 -75.226717837824253 139 136 119
110.845790421439546 -2.819736022424613 -76.404228821452762 140 137 120
109.190893241848457 -2.915687988434169 -77.717862814949854 140 137 120
107.978474380649359 -2.811731387143863 -78.690940253983314 140 137 120
106.500632861287500 -2.841915927914679 -79.868236275743868 140 137 120
99.977240779070044 -5.307588162107454 -84.925644945088834 139 136 119
97.702040551232400 -5.757592330991642 -86.714895843784348 139 136 119
99.942285717363006 -4.021666796367851 -85.033018082913600 138 135 118
100.589561509585295 -3.052465555699254 -84.576636884048781 137 134 117
101.148858532125573 -2.122303750565034 -84.188623975732838 137 134 117
99.228556259774180 -2.419795255567256 -85.705791189627803 138 135 118
98.016867976367777 -2.374905105833201 -86.678610133914731 140 137 120
94.856018350166408 -3.317662622329365 -89.147686087644814 140 137 120
95.682369661212547 -2.262094924621584 -88.556145246653983 141 138 121
94.205070801983098 -2.374139227230975 -89.732858251510351 141 138 121
93.436902816857028 -2.131806382821738 -90.365593738474871 140 137 120
91.782407927505929 -2.350954281566504 -91.678152068619937 142 139 122
86.935832512951265 -4.236056692715160 -95.437401367481129 142 139 122
85.724137539111126 -4.254430243695102 -96.409565906035084 141 138 121
86.907268959864638 -3.022696815312143 -95.547085269270383 141 138 121
84.808993335055732 -3.516445327930680 -97.198808239261751 139 136 121
80.669867109461521 -5.107620464627451 -100.412653266917289 140 137 121
79.546926521052882 -5.112329610262681 -101.316559368905246 138 135 118
80.909131885366037 -3.787452086370399 -100.318988102051065 139 136 119
82.272251876722848 -2.453067869296222 -99.321952246808166 138 135 116
82.215785779007163 -1.882022382425610 -99.411676002196060 136 133 114
81.360597126079867 -1.748057863765708 -100.112524495270293 136 133 114
81.127283960226933 -1.276833039337411 -100.338335485059162 136 133 114
77.163551055525829 -2.871930192394491 -103.414329935106338 137 134 115
75.508852648911812 -3.206179189105952 -104.725606109867215 137 134 115
75.009235894944752 -2.903731841708169 -105.154857719318386 137 134 115
72.821241339005084 -3.554918118502107 -106.872897759111424 139 136 117
72.588603883817555 -3.112196961336250 -107.098738604000289 141 138 119
221.944326726525702 -4.375135072618456 10.255676612611779 116 117 111
216.484373556131089 -5.042964839927601 6.001322936389840 120 121 113
213.674870074213629 -4.918157265800988 3.796610747453599 122 122 112
209.186410472129126 -5.339203649603367 0.294405346938760 128 128 116
209.381289266847375 -4.298900895209719 0.412185410520920 134 133 121
207.985734992560083 -3.767836082044410 -0.699394883853302 136 134 122
204.999470639300569 -3.760850638438366 -3.040050245287830 137 135 122
202.101524067313875 -3.743308703348417 -5.312206308904706 136 134 124
195.844685097919808 -4.853014423903554 -10.178514063499307 139 136 126
193.565177242468053 -4.675269670988469 -11.972165942915581 141 139 127
192.434894378837868 -4.124790249878023 -12.878274360425081 143 141 129
191.835205762642317 -3.400983842685406 -13.374848079399356 145 143 130
190.174786411812590 -3.044238342640653 -14.690500127538115 141 139 126
186.303987638576757 -3.461924073318398 -17.712214749857537 141 139 126
184.378317024838594 -3.224825407415798 -19.232316572818377 143 141 128
184.575025403595077 -2.252486137939590 -19.114712193676610 143 141 128
182.384282575811994 -2.126478137579772 -20.839437520763710 143 141 128
178.159362515294845 -2.742454529747349 -24.133136167364455 143 141 128
174.287955079695848 -3.256737071566609 -27.153565288192453 140 136 124
172.362328148399286 -3.085878722957801 -28.673006163821469 138 134 122
169.375192200968883 -3.316854672626358 -31.010795101429636 133 129 117
168.334243010872399 -2.844996681369749 -31.847972267353470 137 134 119
167.735836275341455 -2.214058535112664 -32.344203293980939 136 133 118
164.483197441025794 -2.586677059113229 -34.886095217159664 135 132 117
161.761315456366589 -2.777677175445510 -37.018615577916393 138 135 120
159.216325220500806 -2.917640112594693 -39.014567926444983 138 135 120
156.936767794378284 -2.970736552860047 -40.805819927056206 138 135 120
155.453767567662055 -2.727793368578433 -41.983459481782489 136 133 118
154.501965982810248 -2.285486611989796 -42.752121485858822 136 133 118
153.461818769301715 -1.883826482599323 -43.588959732776829 138 135 118
150.297043166323107 -2.335083001198876 -46.061216779353998 137 134 117
147.840389970159094 -2.521419052553582 -47.988093038201015 134 131 114
146.623331895394273 -2.221141882621123 -48.960971919602542 135 132 115
144.432282433799173 -2.325435405082142 -50.683179944857017 137 134 117
140.469891468374868 -3.171039059670305 -53.767531287147420 138 135 118
139.695748340542167 -2.721014620634127 -54.399546160240931 137 134 117
140.693442060199430 -1.536464864974753 -53.669584847493610 135 132 115
137.085015890146224 -2.281268470120620 -56.480873780464378 136 133 116
135.514018623675639 -2.185710685975138 -57.725757625957613 135 132 115
134.651935169698959 -1.797361724084433 -58.425926176709226 136 133 117
131.574645786772692 -2.365817483341718 -60.827971055501422 137 134 119
130.624105781219811 -2.032920233599555 -61.596110387773365 135 132 115
130.648720336295440 -1.280696676013523 -61.615628921512808 137 134 117
129.255420094008514 -1.150480342539208 -62.724161402299387 137 134 116
124.316082941845664 -2.596330243193369 -66.554414135521938 137 134 115
120.617339322437900 -3.520440827990678 -69.431508698406645 138 135 118
119.667010862101407 -3.235219089131449 -70.199258485201369 139 136 119
117.297935599790662 -3.596158778034663 -72.055375559536657 137 134 117
114.928709567200755 -3.971707400237705 -73.911270128797867 139 136 119
113.623757117322270 -3.874691580528630 -74.950867256154538 140 137 120
114.093148371826857 -2.967920494006786 -74.630461849084867 139 136 119
112.167508671657245 -3.169105024961077 -76.146066991871123 140 137 120
111.129145562348356 -2.967639210639246 -76.981698047468825 141 138 121
110.090929100872970 -2.772324621160381 -77.817335941240032 140 137 120
108.520322555484981 -2.835225961413310 -79.060775606989438 143 140 123
104.286709289385101 -4.176512601855991 -82.342849471087135 139 136 119
101.206545038072605 -4.990846952610952 -84.740988070836494 139 136 119
100.079372564251926 -4.881423547487519 -85.644044477029240 139 136 119
101.349962230889361 -3.613770112191589 -84.712914423068980 138 135 118
102.887745176559662 -2.207183067287819 -83.578462176612675 137 134 117
100.606852652198512 -2.669995270098735 -85.364858060635441 136 133 116
99.924845641449991 -2.354907111598783 -85.928702684483682 138 135 116
98.265720490058087 -2.530816232480728 -87.239490991601457 140 137 120
94.918155721187162 -3.563719351104995 -89.840032916957369 140 137 120
98.680147345998620 -1.028994175316076 -87.009774848150130 142 139 123
94.532546480605518 -2.487314018856035 -90.220933183447727 141 138 123
95.007082539658654 -1.609409330362587 -89.902691896903036 143 140 123
91.392083390705523 -2.830893857542688 -92.705929623103913 142 139 122
88.132147307760292 -3.891139916211342 -95.237252471902394 142 139 122
86.739456497443697 -3.999742944451023 -96.343618215191924 141 138 121
88.371323873361078 -2.533026696685679 -95.143935692842291 140 137 120
86.178391644993795 -3.070521806918740 -96.860783847361830 142 139 122
81.226642966031747 -5.083548772881707 -100.679260710248286 142 139 122
81.791767569564939 -4.186404730155116 -100.293695828288918 141 138 120
82.802618641170397 -3.046288490982933 -99.569571571107303 141 138 119
81.321418836208736 -3.243716320475494 -100.743539481361552 138 135 116
82.155382635131133 -2.193917208637199 -100.155581049525011 137 134 115
82.188561374561360 -1.575497267447382 -100.177819351863405 136 133 114
78.035593497884520 -3.254458337565016 -103.384138956373647 137 134 115
77.356272586055383 -3.041494157140314 -103.948217387328725 137 134 115
77.568291973329195 -2.337482810608879 -103.835175708072740 137 134 115
76.533113600087944 -2.328249329320805 -104.670351586515693 138 135 116
75.587190022852781 -2.275054492889015 -105.437820284820418 140 137 118
72.947363408603096 -3.184246007238395 -107.491344063750148 142 139 120
224.391183750355765 -3.912844647508441 10.964951055603024 113 114 108
220.422323853193575 -4.112131579777208 7.877041565377965 119 120 113
214.415229758522003 -4.969398910751315 3.221234898373154 117 119 108
210.287190836616389 -4.294484521970505 -0.021240255234204 133 133 121
207.381280620927640 -4.245442598686006 -2.289910784203869 135 134 122
202.791293337177052 -4.758502854508631 -5.853457429729360 136 135 121
200.151077848782592 -4.663554652769026 -7.917131287135390 136 134 124
197.333542959273501 -4.643168710297662 -10.116926413897573 138 135 124
193.914667291166154 -3.910507759826887 -12.812386172318924 141 139 127
191.806377430821328 -3.694858482872185 -14.466620554174767 143 141 128
189.698114754317885 -3.492070821567684 -16.120735549616114 141 139 126
187.146515721294918 -3.455020172858445 -18.115348362000987 141 139 126
185.836377614116770 -3.001673436259700 -19.156132581813324 142 140 127
184.703740235211455 -2.493963969966894 -20.060674354655049 141 139 126
182.152207930390773 -2.495491842943629 -22.054921981479310 142 140 127
178.891054947830497 -2.766077751433704 -24.593791038290107 143 141 128
176.871600663065749 -2.609323568665991 -26.179058933289326 141 137 125
172.545711634088377 -3.302924910098294 -29.534514223793593 139 135 123
170.792285268075545 -3.080449732608048 -30.915148807708931 134 131 116
170.103599363056844 -2.475189681184824 -31.478785156495348 136 133 118
167.906722026450609 -2.436003174448820 -33.199682058339505 133 130 115
165.354884865955739 -2.543593344667186 -35.192692090747471 134 131 116
163.512931017712390 -2.397878867031378 -36.641044179086180 137 134 119
161.848519580145251 -2.195574419870679 -37.953196687271657 138 135 120
157.787690515168180 -2.926012921291539 -41.102499917849542 138 135 120
157.543468989772578 -2.200182308584753 -41.325713171105633 136 133 118
156.323039319844440 -1.857558530178875 -42.297414987852022 137 134 119
154.392497607367261 -1.802289435837768 -43.813314830749363 137 134 117
150.863768595022918 -2.393888446095807 -46.553448737727138 136 133 116
148.222735889336832 -2.651638888268395 -48.613101136859598 134 131 114
146.736044242585365 -2.459672825112891 -49.788449995777768 136 133 116
143.917242099028954 -2.818475570405434 -51.983735692896346 137 134 117
140.565347999748553 -3.413008145555140 -54.586718849646445 138 135 118
140.322215774255483 -2.744522864627597 -54.809862935934262 137 134 117
140.168234902241977 -2.040239915710934 -54.965166322600794 137 134 117
140.014588778424780 -1.336548139577534 -55.120623766418589 138 135 118
137.462184757722582 -1.646362553556387 -57.111281019116660 134 131 114
133.132356691892539 -2.727768482806802 -60.460860020453794 136 133 117
130.223997993918090 -3.226852957494907 -62.722717063521259 139 136 121
130.070773250253438 -2.554848599150567 -62.878049919649953 137 134 117
130.273459583568695 -1.728862395260349 -62.761798887852905 138 135 118
129.587555914237043 -1.290351799962709 -63.325049812735671 138 135 116
126.412382111247311 -1.953286961068437 -65.790153481464074 138 135 116
121.814169121028542 -3.267526829957837 -69.341518032975159 138 135 118
121.128271636055359 -2.860985664283860 -69.904442839034630 138 135 118
117.774384653342338 -3.659599638928329 -72.504371894814909 138 135 118
116.643893979380394 -3.470939679796282 -73.406656507089423 139 136 119
115.424570571061025 -3.329608761117279 -74.376815547071402 140 137 120
113.849466554831636 -3.359113781964500 -75.618447403278907 139 136 119
112.096417663755176 -3.480502913438666 -76.995723001835159 140 137 120
111.411264450798626 -3.115134757710095 -77.558580050601307 141 138 121
110.815350306897457 -2.711917991577416 -78.053659473957538 139 136 119
107.727254462373821 -3.488550617495819 -80.448391709495382 144 141 124
104.371701253510224 -4.411277410642549 -83.046246092806797 140 137 120
102.529347650965036 -4.630939194986354 -84.490645938643922 139 136 119
102.289828049564150 -4.090195014187465 -84.714203388599145 138 135 118
103.564717841194181 -2.816847700050011 -83.785189109651043 139 136 119
102.168141845699481 -2.838032234720331 -84.890596036138277 139 136 119
101.751562274242886 -2.386660672165894 -85.250246415914035 138 135 118
99.642414010927510 -2.773617660264964 -86.897867211721518 139 136 117
100.206456013838377 -1.844692028703423 -86.512111561194899 141 138 121
99.879852168468901 -1.357418318817327 -86.804316693837507 143 140 123
96.522917777513683 -2.397187885368768 -89.400305544306690 143 140 124
96.909773780886752 -1.561497734265231 -89.150542769147052 143 140 125
92.303993980230459 -3.267453202021820 -92.694255259041540 144 141 124
91.710269129790561 -2.944726705586965 -93.189553506104573 142 139 122
91.027620084219592 -2.671267456326106 -93.752662475419072 143 140 123
88.860067496686938 -2.555131935134498 -95.488380311564867 141 138 121
86.839498844445060 -2.998923865738542 -97.066933374149244 139 136 117
85.264979998199451 -3.219341984119790 -98.306880009251785 139 136 117
86.546859928079840 -1.930656208252290 -97.381367674974399 141 138 119
83.097842230971864 -3.163720516484283 -100.042173392456704 142 139 120
78.397993532009878 -5.091112794841653 -103.649463168431623 141 138 119
80.305947225570975 -3.472043788908532 -102.250850982811869 138 135 116
81.232464996288783 -2.374730976662082 -101.596800251300493 137 134 115
76.620584302496169 -4.303273955032560 -105.135302889765569 139 136 117
77.279669549249093 -3.358230971337446 -104.684322620393687 137 134 115
76.688237853364896 -3.101155156745699 -105.180042129287614 134 131 112
76.991001710164880 -2.349376701461347 -105.000045099132933 140 137 118
75.595614675701000 -2.546478590021486 -106.104210014805062 143 140 121
73.574215065574776 -3.104665566456819 -107.681188024311979 141 138 119
224.378383357656844 -3.180849308787947 9.744092189724597 117 118 110
218.976677268044625 -3.835700615296159 5.572598600814246 116 118 107
215.885253837763571 -3.800356218515013 3.171100183499902 123 125 112
210.305254355633508 -4.570665655936469 -1.135627758866832 132 132 120
211.835321958412578 -3.105448553623313 0.001911972548555 134 134 122
207.232742624846708 -3.607257582059975 -3.555726494042830 135 136 122
197.601789365599302 -3.897060739000617 -11.028946833816406 141 139 127
195.043252141948699 -3.814807887220168 -13.020705728571016 142 140 128
193.107085973386575 -3.537993246013388 -14.536195330565192 141 139 126
189.481483760890399 -3.848664157200412 -17.343736049614222 139 137 124
188.968125237421816 -3.111367436159894 -17.770889766691226 139 137 124
187.476751738648062 -2.716382551268190 -18.946088618369998 140 138 125
185.807609640309124 -2.392649607821337 -20.257227919170305 141 139 126
182.626483786210002 -2.612911732891268 -22.724040802989634 141 139 126
180.779495743097641 -2.377430286104419 -24.170908566267258 142 140 127
175.996943989810063 -3.207789347812745 -27.860784683456785 143 139 126
175.128456837275962 -2.649244848477717 -28.559641634934337 138 135 120
173.103536667421196 -2.518472042336042 -30.142027229880341 135 132 117
170.633745075534307 -2.563952226491329 -32.064068025449217 133 130 113
167.985931382346479 -2.690642648051166 -34.121825490035235 131 128 111
165.071056751430490 -2.933552392983751 -36.383202268302739 132 129 114
164.114041741860660 -2.454659313604687 -37.149746789263929 138 135 120
163.246217145116987 -1.947518659804228 -37.848391579555368 140 137 122
160.865349150028209 -2.026461282922098 -39.701769788413088 138 135 120
158.751492334093058 -2.016573338621106 -41.351222953033783 137 134 119
157.082770206733926 -1.845892091376643 -42.660987728515721 137 134 119
154.345662915033955 -2.105416315207208 -44.785519001510039 136 133 116
151.875561872502146 -2.275839975320920 -46.706125650986820 135 132 115
150.206851828958378 -2.141261711941699 -48.015524581175072 134 131 114
146.935093265281409 -2.661987330403019 -50.546745150638429 137 134 117
143.395881153875536 -3.311209548423465 -53.281270834333299 139 136 119
141.548845023155849 -3.290578413848868 -54.725904030469280 138 135 118
142.107151461886303 -2.290732959816196 -54.338134519058400 138 135 118
142.487741137682974 -1.360935887374763 -54.086342644081981 137 134 117
139.661038216965210 -1.769054394394558 -56.277341004578602 137 134 117
135.943018578232284 -2.569741168723056 -59.146484449174693 135 132 115
132.313742926356042 -3.355591611408068 -61.947376545788387 133 130 115
131.358026598951398 -3.021425920343833 -62.713052600133182 138 135 120
130.669908356143026 -2.577786716906916 -63.275296871995550 135 132 115
130.427774064675191 -1.944860291537527 -63.498552341336932 136 133 116
128.759421094166555 -1.935809123318549 -64.806829980591345 136 133 115
124.772691676588025 -2.956151016013987 -67.877739222330632 136 133 114
123.639201716935773 -2.737685651925089 -68.778895788617717 138 135 118
120.900440378646934 -3.241741261868988 -70.900118686994205 138 135 118
119.856236627222117 -3.001739903639146 -71.733352265135750 138 135 118
117.206407355866574 -3.493839765990780 -73.786384141095169 139 136 119
115.091673871162229 -3.758577403270927 -75.432591051310396 140 137 120
112.887602036340951 -4.077143020720952 -77.146363607535676 140 137 120
113.092931142859698 -3.297420296194780 -77.030900656146628 140 137 120
113.030955949505525 -2.640311697917013 -77.118874769904750 140 137 120
111.362617378480408 -2.734506631207545 -78.426096533833515 139 136 119
108.176581618027015 -3.553273298092666 -80.884399827370913 145 142 125
103.232060803541927 -4.568587852854294 -84.716604430904312 140 137 120
104.421191908902500 -3.341060207102144 -83.856950730457015 138 135 118
105.432418841173202 -2.191779120175068 -83.133100622111272 137 134 117
102.156256379862796 -3.121066912692675 -85.658008846340522 138 135 118
101.649396769691194 -2.714994383961671 -86.084862164258141 139 136 118
101.321549526834573 -2.223591386340555 -86.376514964637892 140 137 118
97.419116075514083 -3.505950280791575 -89.374195150147017 142 139 122
99.773032792699169 -1.691358258500994 -87.636648338423043 142 139 122
97.568711150214327 -2.149891313799873 -89.348860632366950 141 138 122
96.437137211728498 -2.080024685009379 -90.249404215180419 143 140 125
93.338286731601002 -3.016786886871933 -92.637343175741790 142 139 122
91.938305528469172 -3.103848141748969 -93.740442960392784 140 137 120
87.648974578781846 -3.462201624016679 -97.116838385347279 140 137 120
85.712042379742599 -3.864625377484860 -98.624969778970438 140 137 118
84.938603148942875 -3.665595166239191 -99.254737784316461 139 136 117
84.344430469147881 -3.376009274956407 -99.749480658453791 141 138 119
78.557007857130927 -5.859805915796803 -104.161058071743668 141 138 119
79.305863703490289 -4.872724707778175 -103.642597585156352 141 138 119
79.159708603505990 -4.363575632897839 -103.799636183344859 140 137 118
75.609524438696397 -5.702821198115498 -106.521810117349787 138 135 116
76.628509181469099 -4.569319412597839 -105.801508894680381 139 136 117
77.020988780334619 -3.773040987954605 -105.554030743629056 138 135 116
75.173092888501998 -4.211283675009618 -106.993529214231188 135 132 113
75.656098173537686 -3.366033363860649 -106.679003448456285 138 135 116
73.897917611184695 -3.769345126829424 -108.050922101792025 143 140 121
70.973556362842189 -4.838550462228956 -110.299255039192104 140 137 118
213.508506772337654 -4.824919203705775 0.216895432237834 121 123 110
211.477855092795437 -4.481195919506491 -1.364940234367509 129 130 117
210.338593360877013 -3.866039757158079 -2.267418942253272 132 132 120
209.645189056288530 -3.114440346136731 -2.830304369401745 133 134 120
206.990809768196186 -3.003243946610046 -4.887369564443929 132 129 120
202.464232541931892 -3.521425307496634 -8.370339765091842 135 132 121
199.720510709967186 -3.477819023347013 -10.494826939294626 137 135 123
196.976738443586839 -3.450931145083099 -12.619117894895481 139 137 125
195.392102494206711 -3.050402072768539 -13.860616263907843 140 138 125
192.915821164910085 -2.962457870344363 -15.780925795582533 140 138 125
189.280167199192533 -3.287115919647623 -18.583513813705821 140 138 125
188.141559723740158 -2.770056297473961 -19.485295758674852 141 139 126
186.557145637824107 -2.415438825686945 -20.726427675239734 142 140 127
183.724030983782654 -2.510081801874216 -22.917585445607301 144 142 129
177.768606157297143 -3.730982392105331 -27.483508568673159 142 140 127
176.719339544415703 -3.230639613766726 -28.316999916269395 142 139 124
176.384001517626245 -2.478610123371407 -28.607751910709567 140 137 122
175.156678258731574 -2.053520301609528 -29.577004722535264 138 135 120
171.877126740949905 -2.389975386097537 -32.106393958642656 135 132 115
167.615747315036799 -3.110262424872959 -35.381576847923526 131 128 111
166.477700661885706 -2.689579787004346 -36.282635031644020 131 128 113
164.893533503670085 -2.443780663653414 -37.522764955648341 136 133 118
163.934287395972888 -1.970200734995635 -38.288187435983417 138 135 120
161.903985512814415 -1.912422093993026 -39.867247072121074 136 133 118
158.802353533406915 -2.280445808793695 -42.259709683918089 136 133 118
156.682678753215498 -2.285358678571046 -43.906227202166349 135 132 117
155.545214535412214 -1.917984767855642 -44.807015287452231 137 134 117
153.068380975727393 -2.086745161561704 -46.724418244636809 136 133 116
150.323528755701489 -2.377318777546646 -48.844924763476115 134 131 114
146.863988198193908 -2.971468645863165 -51.507273047905727 135 132 115
142.868203981049220 -3.803637746020585 -54.575787461653192 137 134 117
142.356085029166991 -3.240497243320884 -55.001741508084251 138 135 118
142.737668181297039 -2.313315378580960 -54.750397989133745 137 134 117
142.583581967987215 -1.605170183589357 -54.905690736924242 136 133 116
139.302193894024015 -2.201235447057414 -57.431529072860428 136 133 116
135.573668365592766 -3.005095111730561 -60.295613875681795 136 133 116
132.827931242163316 -3.416055562439725 -62.414457857599103 132 129 114
130.171389173696355 -3.805750602056993 -64.465332458714045 133 130 115
130.196618693379037 -3.060690192086305 -64.485071455536712 136 133 116
130.132828534582245 -2.353710462785359 -64.572690644652965 136 133 116
128.459890362536072 -2.347438443761303 -65.878746132029846 137 134 115
125.445556011681987 -2.939415558044055 -68.199807480329724 136 133 114
122.162623668060817 -3.668405182808364 -70.723538785728522 136 133 116
123.083401509391422 -2.548285618587602 -70.066976853028336 139 136 119
121.499949204251678 -2.543469854898694 -71.304968197513148 138 135 118
118.842896563743977 -3.032238383535420 -73.354578729521194 137 134 117
112.427456989768046 -5.243347680498556 -78.244534083132095 139 136 119
112.454201328829939 -4.549554335102083 -78.264470046703394 141 138 121
112.928863292665625 -3.649208782374778 -77.946519987663947 140 137 120
112.956486158879926 -2.952734693853536 -77.966903829849286 139 136 119
110.209270442534262 -3.549909519075969 -80.083123659880670 140 137 120
107.372227974557589 -4.206041041813775 -82.266622693847808 142 139 122
105.967626182777906 -4.202566591649950 -83.368443934220949 142 139 122
103.398793826121448 -4.761358256207574 -85.348679079394543 142 139 122
105.129139404252996 -3.277346902778357 -84.085427333719537 139 136 119
103.456186229449358 -3.422391129660590 -85.389918069694801 137 134 117
102.320780172326010 -3.316816095896776 -86.288995944638259 138 135 118
102.529628430819884 -2.561799481190397 -86.174962231091769 139 136 118
101.753132435741662 -2.289235235557374 -86.804024813641007 142 139 120
100.528680205626770 -2.242656522971655 -87.770754910799411 142 139 122
98.587128734147882 -2.560156837678153 -89.277550619938040 141 138 121
97.093758179333364 -2.665072377702882 -90.446648360650215 140 137 121
95.331362020724910 -2.914505306218858 -91.818134239332295 143 140 125
94.017327028259345 -2.947346288598962 -92.852049628149274 143 140 123
93.510672301179781 -2.576286396566738 -93.278640558777539 142 139 122
87.710972330807309 -4.924133259338079 -97.685743925274352 138 135 118
86.665677926188508 -4.853368979792346 -98.516713696398028 138 135 118
86.069237835400259 -4.555663964070705 -99.010455423114792 140 137 120
86.011636692322199 -3.979775439609427 -99.099686028510746 141 138 119
84.069168851327390 -4.394717465277444 -100.605040333132536 142 139 120
80.330663901388419 -5.771255905134961 -103.458456144589178 141 138 119
81.081740293203609 -4.782639795700439 -102.941073758847864 140 137 118
82.641972701106440 -3.355951709811838 -101.817568168286044 139 136 117
77.195730204719609 -5.690259837489889 -105.950468200106485 138 135 116
78.037944644941803 -4.653941375845438 -105.366318083682444 138 135 116
78.521465667702941 -3.807253824497519 -105.052053839302943 139 136 117
72.263938623746441 -6.649123659057241 -109.789343501074939 140 137 118
77.063068943175111 -3.439571002172928 -106.242747632900659 136 133 114
76.379175088491365 -3.236917427201958 -106.804532251427247 133 130 111
72.997279623103523 -4.541370479804669 -109.385855289359824 142 139 120
71.053913836705192 -5.060742198152639 -110.889705072690816 141 138 119
224.480808808188357 -3.717139265639312 7.483434808800723 116 119 110
212.652928331523640 -4.391325055495450 -1.595439675150203 125 125 115
210.080552107597384 -4.229053910753491 -3.581401708096223 130 130 120
209.921777483452473 -3.308804111380425 -3.736634835458887 134 131 122
206.276728260614789 -3.517449848937430 -6.535922367784536 130 130 118
204.419615554362849 -3.164269291542353 -7.979158062993122 132 130 117
200.327302995485638 -3.559250757424986 -11.116852725791574 136 134 121
198.112511222293392 -3.354387370098527 -12.830884817939335 137 135 122
195.897736137422640 -3.162934315880745 -14.544786854427457 139 136 121
194.845553169440478 -2.590912917680167 -15.377620851782382 139 136 123
191.647098330791437 -2.759093949436472 -17.836679705648635 140 138 126
187.285772603770994 -3.347920289309930 -21.176260703001446 140 138 126
186.502071046041635 -2.718030619387405 -21.805554299174020 142 140 127
183.929488190148760 -2.720931681564452 -23.789717279594299 144 142 128
