ply
format ascii 1.0
element vertex 682
property double x
property double y
property double z
property uchar red
property uchar green
property uchar blue
end_header
-101.238771328433387 -59.963324510370263 -14.153833469018451 9 15 15
-101.228931978758567 -59.325152334105361 -13.832532952215473 8 14 14
-101.222009982350528 -58.707200696588608 -13.620487528366681 8 14 14
-101.218008993137985 -58.110283816898651 -13.517687068279201 8 14 14
-101.225496137921226 -57.602587433824390 -13.851907872555870 10 16 16
-101.230203888209047 -57.073729575053108 -14.076817270411624 10 16 16
-101.234987870617218 -56.545892813220306 -14.301679688418631 10 16 16
-101.234137957293115 -55.972526443935251 -14.307988232113189 11 17 17
-101.224797335431887 -55.328446972029560 -13.986509932395251 12 18 18
-101.226960842256020 -54.777933070523574 -14.102000519209582 11 17 17
-101.223493082722911 -54.179702282453299 -13.998958488590233 10 16 16
-101.222965654224495 -53.605208999259595 -14.005124356540534 11 17 17
-101.213951995545330 -52.956721361474429 -13.683535014222940 11 17 17
-101.202167511876837 -52.281601472419034 -13.252686479303350 12 18 18
-101.196187005289616 -51.654573747699992 -13.040284074676521 12 18 18
-101.198871183127181 -51.102725406014542 -13.155539310325850 11 17 17
-101.204507235167370 -50.577053023312608 -13.379971822099861 13 19 19
-101.210239344545954 -50.052371761909306 -13.604348178262939 12 18 18
-101.207496328382717 -49.449859668312286 -13.501003502528164 13 18 21
-101.204853602548283 -48.846695331151530 -13.397617562114533 13 18 20
-101.216600489723874 -48.376969307836546 -13.840268557164677 11 17 17
-101.211306975507426 -47.746762863924623 -13.627570217895936 13 19 19
-101.203263933414433 -47.087982533947219 -13.305622483781832 11 17 15
-101.189618111843288 -46.372167035743367 -12.765224421962984 9 15 14
-101.201793690874339 -45.904695776435652 -13.207647122880246 11 17 17
-101.216935534372794 -45.467466193425565 -13.759198365198074 12 18 18
-101.215055826550170 -44.862091341778623 -13.655470153519047 8 14 14
-101.219004696921488 -44.313496040887870 -13.770086879412162 10 16 16
-101.220218155727480 -43.736303260426801 -13.775447700124801 13 19 19
-101.227261402496126 -43.217522440686949 -13.999136076444586 12 18 18
-101.228720580065598 -42.640584773150444 -14.004376720137543 7 13 13
-101.224602232920290 -42.003844632753449 -13.791183439590242 3 11 13
-101.226319469751587 -41.426050773352102 -13.796309441829891 33 42 44
-101.228168697863197 -40.848095768492939 -13.801373958644604 26 36 38
-101.247250210480274 -40.453853965096052 -14.461456866869867 6 16 17
-101.266456625635925 -40.062729189651201 -15.121447937014153 6 16 15
-101.288636838305933 -39.705912683489920 -15.890522085290684 6 16 16
-101.293863796762381 -39.163943661333960 -16.004459170609039 5 15 16
-101.302076862427114 -38.654082821947043 -16.227496091739908 24 34 36
-101.304742752179877 -38.081097261544684 -16.232118767436560 19 29 30
-101.313242105065797 -37.572501918347662 -16.455005703354090 17 25 28
-101.319045509320816 -37.032240865488291 -16.568649437992349 15 23 25
-101.324999341480364 -36.492326244875052 -16.682217642435489 12 20 22
-101.319753601488429 -35.820292544594146 -16.359068112183024 8 16 18
-101.317512848254495 -35.179786952269360 -16.145015356832744 8 17 16
-101.326779599014799 -34.672622040455579 -16.367520448088783 10 18 17
-101.341869596381699 -34.234211876453372 -16.808249760810980 12 18 18
-101.337294253514898 -33.558268238633339 -16.484819761823047 9 15 13
-101.327242150135859 -32.811457694126261 -15.943021525121537 8 14 12
-101.328691531165461 -32.200713772362441 -15.837755955282688 6 12 10
-101.344445939125166 -31.764374873180337 -16.278146095685344 6 12 8
-101.343425404763593 -31.118087553665259 -16.063569106031508 6 12 10
-101.342595779695003 -30.470437261750185 -15.848914815785946 5 11 9
-101.353232699840419 -29.964888574147469 -16.070747786096945 4 10 8
-101.358416654376100 -29.387882511646307 -16.074207213280488 5 11 9
-101.360978549014675 -28.774176796527549 -15.968439907971344 5 11 9
-101.360929451857373 -28.122936136103757 -15.753449173315147 7 13 11
-101.361088590466537 -27.470296798869015 -15.538373216665036 8 14 12
-101.364264393139337 -26.853500071437534 -15.432344037199186 9 15 15
-101.384460560342916 -26.460996355663085 -15.981016922561395 8 14 14
-101.407632180549726 -26.108748135604035 -16.638710876286382 8 14 14
-101.405815975766203 -25.416787158112669 -16.314125789620618 7 13 14
-101.395855029121066 -24.607766107976417 -15.662065422915845 7 13 11
-101.397306436628611 -23.949617237230385 -15.446427961650500 8 14 12
-101.415704898075319 -23.523481682626130 -15.885448167776644 6 12 10
-101.423171009456510 -22.942459206494714 -15.887857161911001 5 11 9
-101.439198749754496 -22.479476970017451 -16.217531909394751 6 12 10
-101.430463973289122 -21.660093829439802 -15.564991609281321 7 13 11
-101.441403447924159 -21.117156803311431 -15.676205810591853 5 11 9
-101.441506438619555 -20.413187903528005 -15.350826190963858 4 10 8
-101.441875416486624 -19.707155295284718 -15.025340566772570 3 9 5
-101.461822361375766 -19.285056080959272 -15.463578435649367 3 9 5
-101.462706898151566 -18.576817303185756 -15.137868879054565 3 9 5
-101.472118845133153 -17.990733374805981 -15.139399092178138 3 9 5
-101.470808463726598 -17.237438881676958 -14.704344473109956 3 9 5
-101.497196436032851 -16.901220152524949 -15.360334735412891 2 8 4
-101.485498774264357 -15.976344547770209 -14.488579986560239 1 7 3
-101.482339274578379 -15.174137736987088 -13.944054573475256 3 9 5
-101.468603549559063 -14.197402879741118 -12.962949755513193 0 6 2
-101.504196528661964 -13.990855270468769 -13.945778258899992 0 5 1
-101.529117799710207 -13.615365224182600 -14.492015540532321 0 5 1
-101.554269703708840 -13.242185170478674 -15.038118710237597 3 9 5
-101.590467475069957 -13.047059166304836 -16.020540314762087 4 10 6
-101.621458795088984 -12.768042381357830 -16.784598427871146 8 14 10
-101.617672443233488 -11.913934908156579 -16.130048253385837 10 16 12
-101.608886949705223 -10.966346485164520 -15.257134127677205 8 14 10
-101.611222204925639 -10.193956213256502 -14.820532010986739 3 9 5
-101.643320100588269 -9.917563447486035 -15.584033731753351 3 9 5
-101.670308762440555 -9.553296612556824 -16.129166454558828 5 11 10
-101.737444859655966 -9.879964535144113 -18.310863917152687 12 18 18
-101.759530746107075 -9.432042402824171 -18.637485447064734 12 18 18
-101.776606414490146 -8.892265178856189 -18.745731588888333 12 18 18
-101.775523926098714 -8.025106214940656 -18.090022240940357 8 14 14
-101.788018631440380 -7.389152936894259 -17.979732118379133 12 18 18
-101.816610337258851 -7.035984862918356 -18.523983705323900 13 19 17
-101.837619420393892 -6.542168129039004 -18.740733905520187 12 18 16
-101.879813155850258 -6.432042185141203 -19.830270997973713 0 5 3
-101.919598468045550 -6.278766008055157 -20.810545553966477 19 25 23
-101.949222027574891 -5.936062934921183 -21.354195784122084 25 31 29
-101.917099710890284 -4.425333191264945 -19.278794877005851 26 30 31
-101.903692375702434 -3.246331344248523 -17.967038339448521 12 17 17
-101.924235718335865 -2.701032124877597 -18.073682398469629 8 15 17
-102.009094857502134 -3.396023882385639 -20.908263185803662 11 21 21
-102.019941903445513 -2.657941099607733 -20.578094798307632 13 22 23
-102.018528714892469 -1.666404429432522 -19.702106168554963 34 43 43
-102.020186839286339 -0.719963516379421 -18.935042924854343 12 22 21
-102.092962639045652 -1.190257294247131 -21.223422844923107 16 27 23
-102.148153142720474 -1.314461753127567 -22.747765787138661 12 22 20
-102.158449211334244 -0.521675822402055 -22.307565187370329 61 72 67
-101.189176162776008 -151.920690053077124 -11.457254108598335 195 198 203
-101.223480115263641 -151.036233087253635 -13.001971764061238 201 202 205
-101.220772007124353 -150.440072694696084 -13.120262777038789 128 129 131
-101.212429818315499 -149.887160491881531 -13.019086169712665 130 131 132
-101.201300767077967 -149.354820644172861 -12.808172141313634 151 153 152
-101.236117605944756 -148.489219334437649 -14.352450342950362 145 147 146
-101.256734884950674 -147.733785420962960 -15.348093132397111 78 80 79
-101.277473039245194 -146.983325516468653 -16.343626895547004 70 72 71
-101.269583928895571 -146.437319772358364 -16.242162445390022 53 55 54
-101.273270190192520 -145.812130745990288 -16.579410990098864 56 58 55
-101.262644972720452 -145.285657316995525 -16.368195543358553 54 56 53
-101.263605636500429 -144.681629681536407 -16.595671294829202 50 52 49
-101.255991064790280 -144.135327252748340 -16.494078560252632 48 50 47
-101.259981764931524 -143.514188587072738 -16.831139770064539 39 41 38
-101.252496261816574 -142.967996589852902 -16.729484152786739 28 30 27
-101.242177855930990 -142.439354994526184 -16.518144246460366 21 23 20
-101.229018510700513 -141.927445448724825 -16.197132319466931 18 20 17
-101.218799943149776 -141.396452899325425 -15.985768850374711 18 20 17
-101.211527098174059 -140.847191892115006 -15.884043089033582 20 22 19
-101.210103732548504 -140.263522596792313 -16.001590908457501 25 27 24
-101.205837627259413 -139.697122267679106 -16.009462041727488 23 25 22
-101.207430185698485 -139.097942346964686 -16.236585596996065 22 24 21
-101.206176788068930 -138.516027796428631 -16.354034041843647 22 24 21
-101.207883878988028 -137.918828434676641 -16.581082418278072 21 23 18
-101.192193058489096 -137.416318245256576 -16.150325903158375 21 23 18
-101.185266000664996 -136.865699735432628 -16.048448691885568 20 22 17
-101.175467523556065 -136.329620446136033 -15.836936613334984 20 22 17
-101.174449356948415 -135.748149475683164 -15.954267958475413 20 22 19
-101.164727731622051 -135.210771770352267 -15.742732479543974 22 24 21
-101.152121395358733 -134.686569599648692 -15.421582529119661 21 23 20
-101.151224766509927 -134.104912392873473 -15.538857648036839 20 22 19
-101.141604155513448 -133.564897457463502 -15.327300990530290 19 21 18
-101.134937392309013 -133.010400766442160 -15.225339175270989 19 21 18
-101.122451821086699 -132.481678183067430 -14.904177982143466 18 20 17
-101.115845127628006 -131.925596292081138 -14.802203746983253 21 23 18
-101.109268470595651 -131.368992000054988 -14.700220519835938 21 23 18
-101.099789855555073 -130.824195918489579 -14.488645146690061 21 23 18
-101.093268081432328 -130.266271886112207 -14.386649248497378 23 25 20
-101.083838683673918 -129.719610465018746 -14.175069530849186 26 28 25
-101.074431427113680 -129.171879068874091 -13.963490234718449 25 27 24
-101.053294903396250 -128.668054734750058 -13.313634682662808 26 28 25
-101.038043686210059 -128.139039064692753 -12.882940697052561 26 28 25
-101.022804999213264 -127.607863811297449 -12.452262946718804 23 25 22
-101.022290560385471 -127.022382381038028 -12.569394591893399 24 26 23
-101.012970601356940 -126.467929710751505 -12.357842718373945 20 22 19
-101.009558375440605 -125.892630958283945 -12.365396954620593 15 19 16
-101.003220468410632 -125.326957647589964 -12.263392862255614 17 18 13
-101.002797998844798 -124.742067345117633 -12.380474424875246 19 15 10
-100.996497389333740 -124.175871562711237 -12.278457867568846 26 16 9
-100.981356134399391 -123.635537966378067 -11.847827777495013 25 11 4
-100.978035006783330 -123.058931590163610 -11.855351892655221 17 0 0
-100.968820507150156 -122.498844105381437 -11.643807569698765 12 0 0
-100.968486396200703 -121.913726990604047 -11.760849196552215 18 5 0
-100.956337487301795 -121.360007904297149 -11.439784246885011 20 7 0
-100.947153826904298 -120.797225280486458 -11.228252912963853 21 8 0
-100.937977883321111 -120.233362206724564 -11.016729008959345 22 9 1
-100.931771840083925 -119.661521580227983 -10.914725316687566 23 10 3
-100.928539540320500 -119.082518120011244 -10.922231611297377 24 13 10
-100.928284815358708 -118.497166553381220 -11.039237673497183 25 14 11
-100.928044042158206 -117.912363192053036 -11.156231418269584 24 15 10
-100.927816534320485 -117.328107688016289 -11.273213177567612 26 18 15
-100.918690297736148 -116.761014257259475 -11.061698745592537 32 25 22
-100.918482883381444 -116.177038429573585 -11.178668013387977 29 26 23
-100.912339985601548 -115.603599138325791 -11.076650568405313 30 27 24
-100.912151749244515 -115.020173565288943 -11.193604997464888 29 26 23
-100.906020952887644 -114.446197262008440 -11.091587290937525 25 24 19
-100.893938187464840 -113.880039871466465 -10.770618732172011 24 24 19
-100.896749527999830 -113.292714816175561 -10.997037198178361 34 34 26
-100.902553334006925 -112.702842610140081 -11.332909182982860 30 28 19
-100.932229570792472 -112.087685474631854 -12.544492028575689 21 16 6
-100.944040412026325 -111.497065392181938 -13.099215736426686 21 12 2
-100.946914662947592 -110.917627998475410 -13.325522914656801 23 12 3
-100.943825423070322 -110.344378394392521 -13.332901542575740 25 11 2
-100.937751699857941 -109.773408434628834 -13.230825586647597 30 11 3
-100.937657609620800 -109.197884211124702 -13.347653643966112 33 13 7
-100.940560532403737 -108.621170283679433 -13.573919071669422 43 23 13
-100.952449608505816 -108.041155814513985 -14.128496183322284 56 34 22
-100.961361739787449 -107.465050692238506 -14.573598329381241 71 48 34
-100.961301422593792 -106.893878879445651 -14.690365428241591 85 59 47
-100.955252233389416 -106.324547351063103 -14.588260870130824 97 67 56
-100.952200305002719 -105.754297441173804 -14.595590771001326 100 70 60
-100.970148651181745 -105.183317094037335 -15.368893925703361 105 72 63
-100.976113821307749 -104.615472594879847 -15.704461972213835 99 66 58
-100.997102626478167 -104.051453393862900 -16.587097812102655 100 66 58
-100.994082673916395 -103.486097815678562 -16.594362036033203 104 72 61
-101.006091982306103 -102.925654155849145 -17.148680176799729 109 76 65
-101.012102841080079 -102.365420414115690 -17.484148024668144 109 73 61
-101.033166082058912 -101.814445306641815 -18.366613985313762 113 74 63
-101.060273561588886 -101.271412251542685 -19.467824421260531 117 73 64
-101.081388355719128 -100.729675692444886 -20.350170622035733 120 76 65
-101.087463245045200 -100.180583868913473 -20.685493148546215 115 79 63
-101.090533780512700 -99.630510587391797 -20.911404165364218 118 80 65
-101.087579961341561 -99.075756887720814 -20.918527620845879 125 82 68
-101.096696383967981 -98.533626153749182 -21.363182319179657 124 81 65
-101.102807334844414 -97.990242158214770 -21.698428840427084 122 79 63
-101.105908632338753 -97.444789834343297 -21.924277574958467 125 81 66
-101.096931544773298 -96.884542345848658 -21.712621321881159 128 84 69
-101.100042710009461 -96.340177653775640 -21.938454140178180 128 85 69
-101.094088793654791 -95.783358227141989 -21.836175210513829 128 82 67
-101.094186326072276 -95.235566950156951 -21.952626127060853 131 83 69
-101.088235068610402 -94.678204677888388 -21.850351513174132 130 81 68
-101.094399035504779 -94.141614925302576 -22.185502735184514 127 80 72
-101.088454504092212 -93.584252751190348 -22.083224902568531 120 76 69
-101.094637336331829 -93.049836225513303 -22.418344729346103 106 76 69
-101.106899030781804 -92.529337358022474 -22.972130957672420 126 120 110
-101.158627490469641 -92.094957836463607 -24.947315455065535 50 49 44
-101.161838267521844 -91.563361255708728 -25.172969190827274 76 82 72
-101.152910930679454 -91.005014784340673 -24.961269569050330 85 92 82
-101.107519094056315 -90.358813124512338 -23.437612157522494 77 83 71
-101.092495277738337 -89.780026566968061 -23.007321700863969 75 83 68
-101.071383905532628 -89.183517322759059 -22.358408168751737 54 51 40
-101.080692641182452 -88.664202902908386 -22.802736005411134 80 55 51
-101.086976225736507 -88.138742694893850 -23.137715440749844 97 62 60
-101.099368287347261 -87.632088406417637 -23.691296792666606 118 79 78
-101.096547572861127 -87.083845076432411 -23.698289556817514 131 91 91
-101.093736541917451 -86.535599010023375 -23.705277716562279 137 96 96
-101.087885876180238 -85.977945835618058 -23.602957974341138 142 102 102
-101.075940749818585 -85.400394434981521 -23.282040853790335 144 104 104
-101.057893597066482 -84.801314321436735 -22.742546757764870 147 106 107
-101.052061431609957 -84.240389457009996 -22.640251842221801 149 106 108
-101.043184219547030 -83.668425772738004 -22.428668409735280 148 105 107
-101.049599466510131 -83.149182496222693 -22.763520864229804 142 98 102
-101.046863021319623 -82.598461292770565 -22.770498820234877 133 88 92
-101.053320490500695 -82.081651510628788 -23.105306026584998 114 66 70
-101.053680554051823 -81.543310163697569 -23.221534076260241 105 61 65
-101.035687397872238 -80.934409500107122 -22.682115236314559 109 69 72
-101.008508557912151 -80.286421092572411 -21.814916491026565 117 85 89
-100.990521956166035 -79.671254866657762 -21.275559010042969 119 100 100
-100.981740410224162 -79.091355496158343 -21.064011497216939 88 78 78
-100.960705033858659 -78.458614979521386 -20.415434555643429 52 49 49
-100.902852374814103 -77.664109237108292 -18.455829387591535 14 17 17
-100.866466291690514 -76.954166724330193 -17.261096425840151 18 24 24
-100.851574755526300 -76.334492798365588 -16.831163561032696 15 21 21
-100.848988069806325 -75.768723904147933 -16.838224766060790 13 18 21
-100.843354024376751 -75.188646143438007 -16.736032220958919 15 20 24
-100.843894607581589 -74.637142969138566 -16.852309391951678 17 22 26
-100.826009742819295 -73.997137519695059 -16.313158922949611 16 21 25
-100.823528798318733 -73.429947829765936 -16.320184166704792 24 29 33
-100.824157083436731 -72.878122009855574 -16.436422702556285 20 25 29
-100.827899248127309 -72.342474364021697 -16.661863923941127 13 18 21
-100.825517711574065 -71.776042850784279 -16.668833806981468 15 20 23
-100.813924989409742 -71.160998256262161 -16.348134033750227 11 16 19
-100.820858929684988 -70.643114774541488 -16.682724350091206 10 15 18
-100.834004414970707 -70.160320383572540 -17.235699664793174 9 14 17
-100.837943407427005 -69.629181167107390 -17.461000316921286 8 13 16
-100.823408918089015 -68.995395421404538 -17.031041902185763 10 16 16
-100.805819570489177 -68.341850651240691 -16.491889425815913 10 16 16
-100.791350354059489 -67.703386381797770 -16.061947943139955 10 16 16
-100.783095148536631 -67.098916911305849 -15.850401543243805 9 15 15
-100.759430117523337 -66.401466720477771 -15.092889823703388 10 16 16
-100.754345090982085 -65.812040507118539 -14.990530858166665 11 17 17
-100.749306283915615 -65.222034968469657 -14.888155744677846 13 19 19
-100.750501174926967 -64.669824454495853 -15.004127178061310 11 17 17
-100.739373513903971 -64.040279012504200 -14.683354185681736 9 15 15
-100.737577408615266 -63.468257026418641 -14.690101545957248 10 16 16
-100.732739959378961 -62.876188546271287 -14.587651338465889 10 16 16
-100.731052986537861 -62.303807740273186 -14.594350183666165 10 16 16
-100.726326264386714 -61.710832517034618 -14.491856338278950 11 17 17
-100.737146280337427 -61.221366070691005 -14.935153943436973 9 15 15
-100.729441231006234 -60.607472111302322 -14.723441361703181 9 15 15
-100.718696322885961 -59.971072820197364 -14.402555811758958 10 16 16
-100.704911435053461 -59.311349408990750 -13.972505779653630 9 15 15
-100.694287749656866 -58.671300551733495 -13.651599803991672 8 14 14
-100.699233705875869 -58.140464560144281 -13.876415606861286 10 16 16
-100.701149569601270 -57.588202695060566 -13.992042657952425 10 16 16
-100.706239779788504 -57.059147093728434 -14.216771123766790 10 16 16
-100.708302060183883 -56.508116533327083 -14.332315455187228 10 16 16
-100.713542995029130 -55.980832157669852 -14.556953582726180 10 16 16
-100.703343962989891 -55.336852925696355 -14.235884911675043 11 17 17
-100.693220755638308 -54.691165393851868 -13.914797550742037 10 16 16
-100.680071256186423 -54.019679068840176 -13.484564632594299 9 15 15
-100.679419997828390 -53.443373200467398 -13.490808398174835 10 16 16
-100.681957872513692 -52.891617326924049 -13.606132672929732 11 17 17
-100.675266966745738 -52.265606045002578 -13.394059658079527 12 18 18
-100.665558104087296 -51.613238367195017 -13.072842838163751 12 18 18
-100.662149504517942 -51.010043965718054 -12.969823598586800 11 17 17
-100.665044178750634 -50.457655496865613 -13.084983693282481 13 19 19
-100.668033397744594 -49.905714605218577 -13.200093950951526 12 18 18
-100.668013467480108 -49.327949654119671 -13.206050710407567 12 17 20
-100.671197638625117 -48.776621685204319 -13.321061394514118 11 16 18
-100.680693281813660 -48.279360221472963 -13.654213928171401 13 19 19
-100.677869345767419 -47.675276438722108 -13.550924142417273 15 21 21
-100.662729739684835 -46.961091346384777 -13.011223919401772 14 20 18
-100.647699432458438 -46.244057512544764 -12.471500731715565 10 16 14
-100.651409449535620 -45.691608467904068 -12.586271392726218 13 18 21
-100.667648070747674 -45.252297538940290 -13.137319364684743 16 21 24
-100.677789037316998 -44.758683333459807 -13.470125634787252 8 13 16
-100.681836494355039 -44.209123107111537 -13.584705129619351 10 15 17
-100.676692263846448 -43.572973900036402 -13.371996545383155 12 17 19
-100.684080601738344 -43.052680735672624 -13.595535398615340 10 16 16
-100.691589523353372 -42.533335711381106 -13.819006805325699 7 13 13
-100.693018766870736 -41.955295254155402 -13.824273120934805 5 13 15
-100.700776425462195 -41.437287696383805 -14.047611765513409 29 38 40
-100.699362091685757 -40.829114784305645 -13.943689722327548 19 29 31
-100.729069317086086 -40.526641541100396 -14.930321360849945 4 14 14
-100.743405675586132 -40.074355995715145 -15.371554038093763 8 17 16
-100.757870930044859 -39.624090585589009 -15.812704257685681 14 23 23
-100.750796365709732 -38.955601533812043 -15.490393143882670 7 15 17
-100.759343150820996 -38.443972346043360 -15.713288617272440 13 21 24
-100.771122736498725 -37.965265685124663 -16.045157526765081 15 23 26
-100.783041310242112 -37.488014506987469 -16.376944962828077 14 19 23
-100.785828252912168 -36.914534919769920 -16.381514812490224 16 21 24
-100.779498206078244 -36.242352225373807 -16.058885544585564 14 19 22
-100.770243109547891 -35.535207806848199 -15.627156604098701 11 16 19
-100.764243843863355 -34.859038632342163 -15.304410126468412 6 12 12
-100.780007920367723 -34.416612977632816 -15.744858295504827 6 12 12
-100.795921316059435 -33.976163835408968 -16.185214685517934 9 15 15
-100.796579382235947 -33.366645164148807 -16.080315065873464 10 16 14
-100.791250276234749 -32.687376146449175 -15.757279894390990 7 13 11
-100.798413662813942 -32.145251293294997 -15.870292203179673 5 11 8
-100.808822422367584 -31.638465675942172 -16.092247057075070 4 10 6
-100.810179525942885 -31.026601995201176 -15.987037158695728 6 12 10
-100.805578342461970 -30.342759584208007 -15.663700827809322 6 12 10
-100.816517708009258 -29.836303123019320 -15.885398453446300 7 13 11
-100.809234663431369 -29.113859588419878 -15.452883571552405 5 11 9
-100.811352062144280 -28.498169321535400 -15.347349339558804 6 12 10
-100.819789586201324 -27.955020361675412 -15.459762646990214 6 12 10
-100.831475911632964 -27.449098069621613 -15.681097431107702 8 14 14
-100.837237545669666 -26.869501031170131 -15.684307168615106 9 15 15
-100.861519641697427 -26.514707319119864 -16.341496076541517 7 13 13
-100.882920720954971 -26.125127927567689 -16.889562434568973 9 14 17
-100.883168104353700 -25.471499162372982 -16.674454446593046 2 7 10
-100.859285424636269 -24.509650726340023 -15.587191778645462 6 12 12
-100.860007578714772 -23.850932163831526 -15.371909053844348 8 14 14
-100.882223198840592 -23.463083721858574 -15.919567920778860 8 14 14
-100.892489524127114 -22.920939459736644 -16.031095994112206 6 12 12
-100.893881535219904 -22.260620314610897 -15.815509287612514 11 17 17
-100.892488951267637 -21.559090175910946 -15.490820042376555 10 16 16
-100.903442340752491 -21.015575277461870 -15.602033535200775 6 12 12
-100.905565645212704 -20.351359549306562 -15.386137089947340 5 11 9
-100.913973746814364 -19.766782010311111 -15.388132033237099 4 10 8
-100.919613206118527 -19.140957404798762 -15.281017177367801 1 7 5
-100.916486838997031 -18.390785331859632 -14.846799179001380 4 10 6
-100.919649957627527 -17.720779328939372 -14.630464892420036 4 10 6
-100.926082946996843 -17.090917100709778 -14.523011975766536 4 10 6
-100.944756546569721 -16.627922014965606 -14.851421085506331 3 9 5
-100.957686583214013 -16.081670339059247 -14.961717128130005 1 7 3
-100.952969818075388 -15.280377606761956 -14.417927296430690 3 9 5
-100.936656948062776 -14.304603957880603 -13.438045481599147 5 11 7
-100.947473057894157 -13.711075995207894 -13.438980573212973 3 9 5
-100.979347389012275 -13.420619519598013 -14.202734011321695 1 7 3
-101.020318910945534 -13.264535169605738 -15.293328879496698 2 8 4
-101.043721242554682 -12.850004087369316 -15.729835800625295 1 7 3
-101.067367561356093 -12.437210408529396 -16.166208115151420 6 12 10
-101.076529713305320 -11.803699154295987 -16.057487137732238 9 15 13
-101.091880598300691 -11.258635700015835 -16.166612823840580 7 13 11
-101.101651957543410 -10.623487650636816 -16.057617252095071 3 9 7
-101.111740833729783 -9.987222198515994 -15.948481283319779 3 9 7
-101.119230504593972 -9.304209578108198 -15.730211072627810 6 12 12
-101.156210888586131 -9.078495122928359 -16.601714255324254 12 18 18
-101.210853910785204 -9.133822187031933 -18.127028100426713 20 26 26
-101.236612761467441 -8.731815691550386 -18.562278749044907 12 18 18
-101.265535164225184 -8.378222995789663 -19.106376502552877 13 19 19
-101.274502895668803 -7.697612394011707 -18.887374467561585 12 18 18
-101.324154548997782 -7.677698014746268 -20.194132894556247 21 27 25
-101.325129229822537 -6.854719450402576 -19.647843517779961 24 30 28
-101.358036404122970 -6.555010916974622 -20.300339198409034 4 10 8
-101.362623631262224 -5.776330345884075 -19.862724495281185 26 32 30
-101.376172628119903 -5.140067476609978 -19.751933190050522 27 33 31
-101.381570212726785 -4.356311277180840 -19.313983060680101 28 32 33
-101.359066796336961 -3.079258264643767 -17.785869577253521 15 21 21
-101.365411605179290 -2.286636130948204 -17.347557560570920 4 11 12
-101.403172997559835 -2.036625749088897 -18.108078316789516 10 18 20
-101.463645804809602 -2.189013497639968 -19.740463003242894 11 21 22
-101.468276158430626 -1.345691361406990 -19.192634171736671 33 42 41
-101.487329019955311 -0.751050199807409 -19.189640288289411 26 35 32
-101.545683901346862 -0.866189630864926 -20.712562713937160 12 18 14
-101.609708171132255 -1.090696618007909 -22.453364918254948 40 47 40
-100.642154349030704 -152.078661839668200 -10.941309191859347 195 198 203
-100.723491591412142 -150.886372378497867 -14.018719346056685 205 206 209
-100.708744441709612 -150.378548624246235 -13.698424962175210 132 133 135
-100.687845955641336 -149.911793816758347 -13.158932843384861 143 144 146
-100.679451415222388 -149.358233262146314 -13.057787954700302 161 163 162
-100.714733580190654 -148.513462014751582 -14.490770246708848 133 135 134
-100.743922644450166 -147.716834322860819 -15.704454121568091 103 105 104
-100.760762416161157 -147.007157132585064 -16.479715290777449 94 96 95
-100.762099949610629 -146.401109227231728 -16.707031544743018 73 75 74
-100.769765562956593 -145.756858345565860 -17.153431479244574 56 58 56
-100.755634751620278 -145.250685776720758 -16.832825244720453 49 51 48
-100.754071557339387 -144.666405160720927 -16.950446250324575 38 40 37
-100.746316825286428 -144.120447868784453 -16.848917015308558 33 35 32
-100.751153203298358 -143.499644721135724 -17.185570202070267 29 31 28
-100.740389143474715 -142.972110948873251 -16.974432091680910 28 30 27
-100.726539621792668 -142.461583572852390 -16.653736115368361 18 20 17
-100.706457480419459 -141.985017026060660 -16.113954457235678 15 17 14
-100.702118924033144 -141.418273438916970 -16.121863784189543 21 23 20
-100.700979615058770 -140.834345967864607 -16.239278369417690 23 25 22
-100.699898537442721 -140.251005304900247 -16.356659056653143 28 30 27
-100.689431466668253 -139.718302808595183 -16.145432071993781 30 32 29
-100.697904563860263 -139.086077047889574 -16.591321928380268 32 34 31
-100.700139941732587 -138.488345491604150 -16.818123052292748 30 32 29
-100.696124231267063 -137.923474503568286 -16.825858655261413 30 32 27
-100.676378431717509 -137.436620231905636 -16.286021989073447 29 31 26
-100.672444766318534 -136.870456391977882 -16.293731649937513 28 30 25
-100.665395741057466 -136.319376432191291 -16.191917537404720 23 25 22
-100.661546244436195 -135.753001687121781 -16.199589103166602 20 22 19
-100.648249459597253 -135.230181926825196 -15.878755231129446 20 22 19
-100.638145964052313 -134.691520953613832 -15.667415646922592 19 21 20
-100.637572652883307 -134.109902915257351 -15.784535688589784 19 21 20
-100.630703681688786 -133.556239644398659 -15.682662030127403 21 23 21
-100.627036794770689 -132.988634545657703 -15.690258900681641 24 26 25
-100.617061145351201 -132.447350758273103 -15.478885153270539 24 26 24
-100.610285158800963 -131.892122884682692 -15.376983116514907 28 30 25
-100.603537779272983 -131.336371284472619 -15.275072785239132 27 29 24
-100.593641105611923 -130.792429090346758 -15.063688620411966 26 28 23
-100.599659481657682 -130.187105707015689 -15.399617002375294 25 27 24
-100.592996040487037 -129.630592248257614 -15.297674357469873 29 31 28
-100.589538387190203 -129.062032334345446 -15.305180959769103 28 30 27
-100.570190089622898 -128.549722607414253 -14.765416155784095 28 30 27
-100.560405692240650 -128.001783569536173 -14.554019419890551 29 31 28
-100.541079102869261 -127.484881384788892 -14.014291503254384 28 30 27
-100.534512496344533 -126.923547196500664 -13.912352155177075 28 30 27
-100.515205543973025 -126.402321400632459 -13.372659349368774 31 33 30
-100.508669528954627 -125.838836198568828 -13.270727507884970 29 31 28
-100.508536545126901 -125.255584875022450 -13.387653710686408 34 34 29
-100.511620502069363 -124.663541972124321 -13.613990321113334 40 34 29
-100.501944555821353 -124.108887420147767 -13.402610828729109 42 29 22
-100.476291485475542 -123.597161270868000 -12.644138429531523 73 56 48
-100.457031726471897 -123.064579725179200 -12.104539937015346 95 76 69
-100.444173768273558 -122.512772607677462 -11.783794513247130 96 76 69
-100.444130553627133 -121.927397308175571 -11.900699633931396 87 67 60
-100.437696859874009 -121.358000873931147 -11.798779689587462 79 59 52
-100.424862773849696 -120.802952593599940 -11.478056208370276 73 53 46
-100.418445703187260 -120.231937460263396 -11.376144973679629 56 36 29
-100.412037336006534 -119.660384069046103 -11.274235115831942 48 29 22
-100.405636949271582 -119.088292040837402 -11.172326984627460 34 17 11
-100.396032541639229 -118.522017010423326 -10.961032883836879 25 9 2
-100.392857336051662 -117.942490674560489 -10.968517247010396 25 11 4
-100.389691048339316 -117.362968092462111 -10.975997305263519 25 12 6
-100.380101524614858 -116.794530788440653 -10.764718341430864 30 17 11
-100.380165436373858 -116.209202253686684 -10.881571731836971 33 22 19
-100.380239353951836 -115.624420034890619 -10.998414711988943 35 25 21
-100.377102517829655 -115.044909736853896 -11.005880554256265 35 27 22
-100.370749965121490 -114.469856081905647 -10.903980024929183 34 25 19
-100.364399881414656 -113.894261348115137 -10.802083884036620 33 25 19
-100.370950056474001 -113.302482222119650 -11.137618437330019 44 36 27
-100.380739450948610 -112.708696051416837 -11.582482903598077 32 22 10
-100.406681935659549 -112.100248059306978 -12.574065132960811 21 10 0
-100.419738380078400 -111.509074957140470 -13.128198641027467 40 25 12
-100.426351676192340 -110.926268322398514 -13.463610639064740 49 30 17
-100.436208274241849 -110.342540836002357 -13.908339416282331 83 63 49
-100.439612228636193 -109.765549521246740 -14.134368007467174 100 74 63
-100.452728308794804 -109.183619144302000 -14.688377845986423 98 71 60
-100.452915744589802 -108.611356088094752 -14.805037653382840 96 69 55
-100.466058178032640 -108.033774891354909 -15.358990116284588 100 71 57
-100.479216277129922 -107.458911551870017 -15.912907108520869 99 70 54
-100.489149229600841 -106.887688321615258 -16.357470645454924 100 69 52
-100.489368430394435 -106.320591377233455 -16.474062079200650 105 72 56
-100.486347580068482 -105.754417701086837 -16.481335153711797 109 75 60
-100.506041510915935 -105.187494064566110 -17.253761468931543 110 74 60
-100.519263210079970 -104.624046005989982 -17.807530531892922 110 72 61
-100.545490763843205 -104.065059923331873 -18.798467248916694 115 77 67
-100.548999544750572 -103.506010611626209 -19.024261005406345 114 76 64
-100.562266200636330 -102.950987166885341 -19.577921842443772 118 78 66
-100.569042906988471 -102.396179139378248 -19.912967461853697 118 78 66
-100.585589014462528 -101.847570350575680 -20.575852276136800 121 79 65
-100.598897315598862 -101.300428058799071 -21.129412065562519 125 81 68
-100.602450460460929 -100.749804993733562 -21.355097862898646 125 81 68
-100.599493412117255 -100.195593885701527 -21.362217278037065 126 84 70
-100.599795777805483 -99.643993084780107 -21.478609416393027 126 84 70
-100.596840275135520 -99.090055322871677 -21.485725278397467 125 82 69
-100.597147291783841 -98.539271182617497 -21.602106785451582 124 80 67
-100.600721312961596 -97.992455655461299 -21.827743402729396 124 80 67
-100.594506009731560 -97.435639138705724 -21.725589489697455 123 81 64
-100.588288498205586 -96.878280020020327 -21.623442218380944 130 85 69
-100.585337091298783 -96.324617747896312 -21.630553285231628 133 87 71
-100.585656362393621 -95.775467284548270 -21.746912113543459 134 86 70
-100.582708903522857 -95.222077934454262 -21.754018482343639 132 86 70
-100.583035541251235 -94.673743611975382 -21.870365385535251 134 88 72
-100.589914799987795 -94.136605408915585 -22.205180059856417 130 88 74
-100.586978982182941 -93.584304105565266 -22.212269659798835 123 85 73
-100.593876104744567 -93.049611572889205 -22.547050613613436 111 80 70
-100.607341284503534 -92.528831549326071 -23.100263992773847 113 102 90
-100.640502170221922 -92.049245250596869 -24.308784295533655 47 51 36
-100.644168563580408 -91.515475059302219 -24.534242440081385 86 94 83
-100.637997260345173 -90.961922803759961 -24.432033876922276 85 91 81
-100.608839929653016 -90.357231961007173 -23.565335951233692 76 84 71
-100.605947965577016 -89.808189889596221 -23.572371022790918 39 45 33
-100.576766993647070 -89.196977652771153 -22.705751534974695 60 56 46
-100.587028348370666 -88.677931839873395 -23.149620877028212 87 65 60
-100.594018091171122 -88.152743648556779 -23.484259688677838 109 70 73
-100.594441399438182 -87.612011638407196 -23.600482090595250 128 89 92
-100.575120317158252 -87.018674092505051 -23.061538326955571 140 101 104
-100.565675298000926 -86.450006369869357 -22.850192604447926 137 98 101
-100.566119691830323 -85.908453203218912 -22.966413371680972 142 103 106
-100.569873345604279 -85.377113569433448 -23.191804752195594 143 107 107
-100.550556161518188 -84.777245712962070 -22.652926343440583 143 108 107
-100.541134695696002 -84.205306337123702 -22.441603029868105 144 109 110
-100.521816857112498 -83.600812654487839 -21.902772550175001 144 109 112
-100.525613738666635 -83.068915023296185 -22.128148994415312 142 108 112
-100.526125865928037 -82.527068092680992 -22.244340382066696 146 112 118
-100.533264918410296 -82.008365227616565 -22.578841007755301 126 100 103
-100.527201637427979 -81.444988123748402 -22.476681899220068 113 94 95
-100.497997445656452 -80.798136900129464 -21.610440369691048 96 85 86
-100.458861278825481 -80.110577532983882 -20.416792637596387 49 48 47
-100.423023783743986 -79.429423016182213 -19.332359788822089 19 24 22
-100.413672126089821 -78.844117848925748 -19.121140660066715 17 25 26
-100.391082732897075 -78.205984330962792 -18.473362667688491 18 26 28
-100.368498296101137 -77.564580660019899 -17.825615965514373 17 24 27
-100.342604357687961 -76.906429417542157 -17.068766023816579 17 24 30
-100.336616628092131 -76.326952756249696 -16.966736492589263 14 21 27
-100.327332004102288 -75.732900570670282 -16.755575332612409 11 18 26
-100.321386676184972 -75.152040342290761 -16.653539758318544 11 22 28
-100.315464851484549 -74.570622850298818 -16.551498676360524 13 24 30
-100.312889589600999 -74.003482417845376 -16.558568534196525 16 26 32
-100.300373154278233 -73.391005224122182 -16.238284234627884 13 24 30
-100.297851914677864 -72.823017129011518 -16.245336973806332 12 22 28
-100.298686819111154 -72.270661843907661 -16.361482113736741 12 22 27
-100.296229159120642 -71.702908938716590 -16.368502015719770 13 22 25
-100.283820868083566 -71.086553665926544 -16.048205899311540 12 22 24
-100.288085041422349 -70.550876158800662 -16.273397700925727 11 20 23
-100.302379704677719 -70.066476794993008 -16.825839773617730 12 21 23
-100.310059736466229 -69.550752922432480 -17.160050932394171 9 18 21
-100.301122571389044 -68.950228173329748 -16.948790174612355 8 16 18
-100.275553270978406 -68.260823597597351 -16.192106633466381 7 15 17
-100.263347762757050 -67.638885902485924 -15.871770969131546 8 17 18
-100.254513708132919 -67.033384880200316 -15.660512106942150 8 17 19
-100.245719201886061 -66.426765700231698 -15.449245834703390 9 18 20
-100.233628277181680 -65.800385946144672 -15.128901078351305 9 17 19
-100.228255034041453 -65.210166314547536 -15.026688161700093 8 16 18
-100.229606812567866 -64.657736649650502 -15.142586796464656 7 15 17
-100.224329316436382 -64.066900517214023 -15.040334420725515 9 15 15
-100.209077350122612 -63.416295805234476 -14.610892370584907 8 14 14
-100.193871012150083 -62.763474449519308 -14.181451309029768 11 17 17
-100.195426979276178 -62.209797314713839 -14.297265101502575 11 15 16
-100.200384317197447 -61.677164274181038 -14.522093957332373 11 15 16
-100.208746924674330 -61.166389607908492 -14.855927629572591 11 15 18
-100.203791841746778 -60.572843868002721 -14.753548903812685 10 14 17
-100.188857694958998 -59.914620819690533 -14.324033229263250 9 14 17
-100.177327015125002 -59.275801090428502 -14.003548504599280 9 14 17
-100.162508959299984 -58.613388351698269 -13.574020419119392 9 15 15
-100.167840326565297 -58.081804912321125 -13.798659536521114 9 15 15
-100.176590675128821 -57.573700197718338 -14.132280231600703 11 17 17
-100.178715411531343 -57.021723381326431 -14.247804424569694 11 17 17
-100.177562580977849 -56.447232744393901 -14.254269455480170 11 17 17
-100.183183417273099 -55.919208064588688 -14.478733459790135 10 15 17
-100.182179266645065 -55.345126036726136 -14.485123156715474 10 16 18
-100.157792747598137 -54.604294735953566 -13.728403138134752 10 15 17
-100.140182354302027 -53.907742194623694 -13.189703430547723 10 15 17
-100.136057045516395 -53.305811369428653 -13.087014055577754 10 15 17
-100.142070864858638 -52.777140244450401 -13.311296712329977 9 15 15
-100.134759878614204 -52.149872156108358 -13.099533278794155 10 16 15
-100.140946051746596 -51.622121395659576 -13.323724008309483 11 17 17
-100.137162354629837 -51.019033458482298 -13.220883118222986 11 17 17
-100.130115622634563 -50.389589134086279 -13.009015667451109 12 18 18
-100.129867805389438 -49.810941260180734 -13.015090535625546 12 18 19
-100.133068211250404 -49.258458613958318 -13.130105338773234 9 14 18
-100.143072479654620 -48.759493168143493 -13.463032087814355 12 17 20
-100.143115172479710 -48.181629932402075 -13.468959900292219 11 16 19
-100.139905377665102 -47.576575232133557 -13.365864702191999 16 21 24
-100.120032503723664 -46.834084420054594 -12.717861338368323 16 22 22
-100.110326214984937 -46.171087419475391 -12.396752700057192 11 17 18
-100.114140559446994 -45.617938619207109 -12.511480654140769 17 25 27
-100.134827627799226 -45.206085769942760 -13.170976749347830 19 24 27
-100.145566298905905 -44.712039544839435 -13.503501526643390 7 12 15
-100.139657409975356 -44.075895812166024 -13.291158696024411 6 11 14
-100.137218178967657 -43.467518291741136 -13.187729066297408 6 11 14
-100.134898792157912 -42.858454826297056 -13.084249164293567 6 12 12
-100.152804547277341 -42.425948328077240 -13.634429543681364 4 10 10
-100.160778396814393 -41.906584940734746 -13.857678719487524 4 12 14
-100.172224598723915 -41.418252408923948 -14.189806202556866 30 39 41
-100.170400644030764 -40.809958124861865 -14.086081369956275 38 48 50
-100.182099379747726 -40.323498768506319 -14.418068760181768 10 20 21
-100.200619598633523 -39.900336244836140 -14.967858999985935 8 17 16
-100.209228055080729 -39.386193353668325 -15.190750844831825 13 22 21
-100.207935060078327 -38.778600981600867 -15.086764777802387 6 14 16
-100.220159566005094 -38.297207616344735 -15.418448494570384 14 22 25
-100.239205388220583 -37.881286795799895 -15.967912745055003 23 30 35
-100.245017622180342 -37.338801703305641 -16.081575148749948 20 25 29
-100.244293570578407 -36.731564855891264 -15.977313241554043 15 20 24
-100.243721689154825 -36.123581711080256 -15.872986218680438 14 19 22
-100.243304844427257 -35.514846741358205 -15.768592765694365 16 21 24
-100.229701122420892 -34.771844384009910 -15.228454411586654 13 19 19
-100.239613232350010 -34.261446501076250 -15.450684043824339 7 13 13
-100.249679769577767 -33.751928003294324 -15.672830746618502 8 14 14
-100.253240344427184 -33.174880065489184 -15.677067224122965 10 16 14
-100.246978359990877 -32.494170514693046 -15.354493166617090 11 17 15
-100.247551917361847 -31.881077637609469 -15.249670766791525 9 15 13
-100.261604532138293 -31.407300631288287 -15.580401523543458 6 12 8
-100.259201281945948 -30.758413247966512 -15.366512784166446 8 14 14
-100.266949110287243 -30.214903563621831 -15.479259752782554 12 18 18
-100.264914998939346 -29.564122257353127 -15.265213913747942 11 17 17
-100.256439354033319 -28.839711181740540 -14.833289820651174 7 13 13
-100.254799169033390 -28.185629548772020 -14.619089500522676 9 15 15
-100.279857937021632 -27.823613871763989 -15.275981190558696 7 13 13
-100.295150251571528 -27.353750625107303 -15.606078592893994 11 17 17
-100.304008498219090 -26.810782777699924 -15.718288763798768 10 16 16
-100.316364655618514 -26.305577013143804 -15.939295727021374 9 14 17
-100.332213098941011 -25.838956446874512 -16.269093700719907 11 16 19
-100.331755714657845 -25.183363329774132 -16.054343091248228 9 14 17
-100.311744688048762 -24.296298063427304 -15.186176226832004 9 14 17
-100.321627634462729 -23.752028551697528 -15.297909583565684 16 21 24
-100.331719665174703 -23.207975227320649 -15.409540689762906 11 16 19
-100.338737898214873 -22.624958812053027 -15.412184471977611 6 11 14
-100.349260678733444 -22.081038650497245 -15.523608138231992 15 20 23
-100.376396454566617 -21.735949207784376 -16.179331964601801 12 18 18
-100.387340838570452 -21.193799113609455 -16.290535717001234 10 16 16
-100.388694880147554 -20.530979054081094 -16.074992918155971 10 16 16
-100.380496715301391 -19.744977099269491 -15.532711180489429 8 14 12
-100.395422647152500 -19.241677119498988 -15.752469155222542 3 9 7
-100.387758704514539 -18.451258981795384 -15.209977305471767 8 14 11
-100.390149322549135 -17.781833635662608 -14.994006603535610 10 16 12
-100.392808086352332 -17.110871194505055 -14.777923443674098 5 11 7
-100.408725238887897 -16.606183804391616 -14.997221503141077 3 9 5
-100.421640929409165 -16.059938985814259 -15.107524338314931 1 7 3
-100.421861001812744 -15.343745681953445 -14.782214539131218 0 6 2
-100.390053357399751 -14.197469457678348 -13.368064900240967 7 13 9
-100.394145875785171 -13.517263248106273 -13.151390987853745 4 10 6
-100.437201422017040 -13.355713543687800 -14.241045123586446 5 11 7
-100.483649620298735 -13.242918172857701 -15.439433258280303 2 8 4
-100.485300309875640 -12.520972508201918 -15.113498268684026 1 7 3
-100.503300306583782 -12.017819553728147 -15.331784107921322 7 13 11
-100.515167136482887 -11.426315832412950 -15.332195702123130 13 19 17
-100.549690970572129 -11.147603636289819 -16.094560737323661 12 18 16
-100.558920345334968 -10.511961897016825 -15.985829530893625 7 13 11
-100.584377098680960 -10.101826574921549 -16.421308375937883 5 11 9
-100.571972805206983 -9.146115310580440 -15.550209084205648 11 17 17
-100.607532052285237 -8.873643602717157 -16.312014544900705 6 12 12
-100.662297459611125 -8.881577287576015 -17.726898800318480 18 24 24
-100.698267230906623 -8.617550158499320 -18.488420943343527 9 15 15
-100.731313210492260 -8.310150794559133 -19.140929385581956 19 25 25
-100.742598850912060 -7.676390870655986 -19.031195098238982 17 23 23
-100.782451706708201 -7.467193847223147 -19.901154078047824 14 20 18
-100.769333796417115 -6.452876969016525 -18.920140550258793 1 6 4
-100.769172421234444 -5.624291135335640 -18.374452377222497 0 5 3
-100.781885335101762 -4.984834602184346 -18.264093925215207 10 16 14
-100.816703839447285 -4.683248421184966 -18.915694559671948 24 30 28
-100.851781190139249 -4.384401093742291 -19.567143170528226 31 35 34
-100.846953109975217 -3.451067966382483 -18.803047979832314 22 28 28
-100.814871380125936 -2.069287942717223 -17.058876966627935 6 12 12
-100.817232174169163 -1.223093677832955 -16.512163448907359 11 19 21
-100.866020055895149 -1.121432044117375 -17.598458796991508 13 21 23
-100.915014031286532 -1.024754190751323 -18.684604250017770 15 21 20
-100.955074982663632 -0.781701166933997 -19.443953289513246 26 32 28
-100.190387095262381 -150.977067283187978 -13.829385601788374 205 206 210
-100.178363041944408 -150.446662395258443 -13.618879821803716 142 143 146
-100.176480513229208 -149.851304491347094 -13.736767619995902 142 143 145
-100.181400676629721 -149.214484021231272 -14.073545598461436 158 159 161
-100.230113397098407 -148.309374620186787 -15.833300504442889 137 139 138
-100.235246208080355 -147.679505126864854 -16.169905203138399 119 121 120
-100.250565066461022 -146.990663477772159 -16.834820616459041 77 79 79
-100.249139750760691 -146.404913152145383 -16.952390789882372 56 58 57
-100.257900806143411 -145.760729782310449 -17.398265973735192 44 46 45
-100.243135318732527 -145.254635842315395 -17.077962556703397 30 32 29
-100.238548077712366 -144.689559713925462 -17.085973689543096 33 35 32
-100.234024719059875 -144.124538325011372 -17.093953697816147 39 41 38
-100.232943202558900 -143.540978547012998 -17.211336850473742 35 37 34
-100.218399314095734 -143.031288966108690 -16.890964433003177 20 22 19
-100.203901698768803 -142.520015261502834 -16.570586184803830 29 31 28
-100.192834906901766 -141.989380962493357 -16.359624815665740 41 43 40
-100.198755564840155 -141.370189914775523 -16.695742692472805 44 46 43
-100.201352506110226 -140.769904511601197 -16.922397133724104 42 44 41
-100.193834037058181 -140.221623924806607 -16.820778786139329 39 41 38
-100.182968671077589 -139.689525123778878 -16.609736130402638 33 35 32
-100.189124346759314 -139.074302712364812 -16.945700724359739 33 35 32
-100.185146162974775 -138.509175915294918 -16.953421007863739 31 33 30
-100.181214429415959 -137.944083290435998 -16.961118717987233 25 27 22
-100.163721511844884 -137.441418526981209 -16.531225911037978 23 25 20
-100.163274324208786 -136.859975063731952 -16.648283818650071 21 23 20
-100.156062574537998 -136.309215092574362 -16.546544259113460 20 22 19
-100.148888017600598 -135.757939607833805 -16.444792213140971 19 21 18
-100.141749339313037 -135.206147273724184 -16.343028323135570 21 23 22
-100.138055840512635 -134.639597398661067 -16.350627062775686 24 26 25
-100.127574460362325 -134.101006929742795 -16.139467531532716 25 27 26
-100.120535729738108 -133.547656461871810 -16.037671865561265 25 27 26
-100.110112009215200 -133.007208123133296 -15.826503874137529 28 30 29
-100.106549509607220 -132.439389100117438 -15.834053008190466 27 29 28
-100.092761200568319 -131.910230549301474 -15.513519528000842 27 29 24
-100.082414301612829 -131.366851308922151 -15.302344954645548 28 30 25
-100.078935267160404 -130.797729087743505 -15.309867573727473 29 31 28
-100.085757077961162 -130.192428698071893 -15.645411358572716 31 33 30
-100.092615820930462 -129.588774561354654 -15.980920529486468 34 36 33
-100.092655357988704 -129.009808455278261 -16.097720088991224 33 35 34
