ply
format ascii 1.0
element vertex 679
property double x
property double y
property double z
property uchar red
property uchar green
property uchar blue
end_header
102.632138200004050 -1.601434104716975 -66.611865445637619 140 137 120
100.650488247252525 -1.890066672430210 -68.321493098844201 139 136 119
96.918099503851167 -3.065366847631615 -71.512482983856785 139 136 119
94.852810636347613 -3.427542318626207 -73.292199937808419 142 139 122
93.704646488543119 -3.339328827531094 -74.295854559741173 143 140 123
95.141666325998287 -1.942519298990313 -73.113096942814025 139 136 119
91.658798496749782 -3.056623191963499 -76.091510047185096 139 136 119
90.177317570746709 -3.161509383913909 -77.377154932581362 140 137 120
89.279766439295344 -2.972908090373551 -78.169158649827608 138 135 118
88.382358391175970 -2.789916836509064 -78.961173070692780 137 134 117
88.069119205202639 -2.305563163802351 -79.259741753170658 136 133 116
85.419796524771741 -3.058629683160250 -81.532047489433921 141 134 117
84.606142261199579 -2.851976424245821 -82.253514113726851 141 134 118
82.290380011003990 -3.454926861131089 -84.243503697032054 139 134 117
81.309940551096332 -3.353383474830840 -85.105816676209344 138 133 117
80.329621064984636 -3.258002009732630 -85.968123622688950 138 133 118
80.768713007681171 -2.394493416429767 -85.632777806131685 137 134 117
78.870325049580885 -2.810737969201283 -87.270065252991770 139 136 119
75.886241279885738 -3.838838936435111 -89.822826903560468 138 135 118
74.071037174600050 -4.237158006756689 -91.389234851552004 139 136 119
73.508659841599695 -3.947100714198577 -91.899193362980697 138 135 118
74.784342048143159 -2.627117309979010 -90.860179336393713 136 133 116
73.554239520587203 -2.715414757652212 -91.933676887470853 138 135 118
73.577583535979699 -2.098537355063579 -91.951194413415493 137 134 117
71.846318915081710 -2.485184443358502 -93.447019983671680 135 132 115
71.034368842960731 -2.353941014481602 -94.168525656050150 133 130 113
71.643660013097559 -1.405020076125660 -93.693763988840402 136 132 114
69.745359181990381 -1.911713547181737 -95.330162080801756 142 137 118
66.258204239282435 -3.361187421956958 -98.303072113090735 144 138 119
63.690358159432165 -4.292237956821186 -100.501665011989786 141 135 116
66.140574629910233 -2.267941721190253 -98.479769608206084 143 137 119
64.827530270499295 -2.468445567227494 -99.623291959319090 144 138 120
59.916897417709407 -4.832382360056499 -103.790403056144584 139 136 117
63.623974654145997 -2.037873375741829 -100.714830447574002 140 137 118
221.574087034324805 -3.816886200884493 34.816006358712713 120 120 118
216.014094184370435 -3.417021180660811 30.044226578870507 156 155 151
211.025603800814594 -3.945189995652811 25.784606890963147 162 159 154
208.787226017994158 -3.623993573925947 23.858943020770766 158 155 150
206.132151143038641 -3.452320977777556 21.579870310386212 160 157 152
198.404791734336641 -3.959551604988162 14.971957446390576 159 156 147
195.916316643957686 -3.791956473237841 12.834943711351258 159 156 147
193.177771264064006 -3.724803354589379 10.486019990983749 159 156 147
190.689294335070429 -3.590365491791733 8.349348439957453 159 156 147
190.118221214052312 -2.813423862536222 7.838538218642469 158 156 144
187.963304753701323 -2.589382152028473 5.984805685031461 158 156 144
184.140969359685386 -2.963015834351634 2.717735128507286 156 153 144
182.069414866176203 -2.742937217621373 0.935022194735723 158 155 146
180.664934072528126 -2.298424325304596 -0.282255645893059 154 151 142
177.009189214620847 -2.673124669736948 -3.407293794337193 153 150 141
174.437369180415544 -2.678012501517297 -5.613519025061379 154 151 142
172.449274027809309 -2.485730301430881 -7.325013614045588 152 152 142
170.044239945377228 -2.460462390515367 -9.389621310771247 152 151 140
167.639202790026843 -2.450807231775792 -11.454066827522041 153 151 139
165.984793949053881 -2.174373675313018 -12.882626476713938 149 147 135
164.580677744057482 -1.813660909903930 -14.099216138500140 146 142 130
160.757701837464708 -2.387814909297323 -17.363916219646711 142 138 126
158.602899170459523 -2.342911847915658 -19.215859227497305 143 141 128
156.614951691587180 -2.247024273693787 -20.926432224781024 141 139 126
155.294437989990598 -1.902006328678812 -22.071996598037146 142 140 127
154.140886200525557 -1.499406908888041 -23.076309922964811 145 143 130
151.402193696391663 -1.736858275416073 -25.422027812614033 143 141 128
147.244969230498754 -2.562886233363753 -28.967667403195463 143 140 125
143.504739184381265 -3.246837251014309 -32.159963739577648 143 140 125
142.518150803082079 -2.829095446986879 -33.022589884996080 146 143 128
141.281336203801857 -2.520811037393158 -34.096958620249865 144 141 126
140.295007385817740 -2.116404811239532 -34.959571670066225 145 142 127
138.140312452334285 -2.207566449673025 -36.810165634956149 144 141 125
136.903778859171581 -1.925194638810807 -37.884402071177220 144 141 124
134.081322363635536 -2.325277995764085 -40.299232386602341 144 141 124
131.509208359545966 -2.636406798572115 -42.502164690984557 144 141 124
129.604913157975091 -2.675823583092710 -44.140505010337193 142 139 122
128.118092011061606 -2.545895263564789 -45.426012216081972 143 140 123
126.798335713854513 -2.352299625389564 -46.570380263129493 144 143 123
125.729181977335699 -2.056490795390774 -47.503111193186129 142 141 121
124.743664937683690 -1.730298424945071 -48.365307500465974 142 141 121
121.503367688205557 -2.421160731943582 -51.131545522238184 143 142 122
118.262878601224784 -3.133200269977263 -53.897473781729076 143 142 122
116.191581430647062 -3.334529614880374 -55.675972054062782 140 137 120
114.454392205635472 -3.396207583668541 -57.172308384416425 141 138 121
113.051384967366843 -3.314906158721325 -58.386552450792408 139 136 119
112.066183685910360 -3.048468209623150 -59.248284733433678 139 136 119
111.248225335733537 -2.710033482325603 -59.969048790303475 143 140 123
110.848233944894915 -2.179786175309474 -60.337446806488884 142 139 122
108.693550790877453 -2.484693094206380 -62.185846219086670 134 130 118
105.452333934421617 -3.322785136451116 -64.950128794406140 138 135 120
102.628776133932007 -3.981035874770773 -67.361774802767854 140 137 122
101.058870448831144 -4.050321681334725 -68.716342924077765 140 137 122
102.832860715512410 -2.498737249701345 -67.252948441602342 140 137 120
102.768183670890153 -1.838098318562451 -67.339666338464554 141 138 121
100.446286849168146 -2.293488576100914 -69.328240074832962 140 137 120
98.124276126984611 -2.764007004664685 -71.316603599746912 141 138 121
96.303911126585660 -2.998305376891411 -72.882230940648725 141 138 121
95.905322860902373 -2.527450857609901 -73.250688847298392 144 141 124
94.335964938589882 -2.653191305018847 -74.604937900470105 141 138 121
93.268534305816459 -2.532632410683406 -75.536689221826435 138 135 118
92.117555724271995 -2.461821508563937 -76.538818294714474 140 137 120
90.631995122977898 -2.571484906053163 -77.822462303258959 138 135 118
89.146458456961668 -2.690690158029870 -79.106019543256679 137 134 117
88.330437700278480 -2.468574856139538 -79.826513203932734 136 133 116
86.928708391280125 -2.560474607613017 -81.039585780573560 139 132 114
84.773668223349617 -3.061150989573425 -82.885799245509645 139 132 116
83.037064107818708 -3.352370135625875 -84.380052707584071 139 132 116
81.802755263048596 -3.384915717066737 -85.452111852890539 139 132 116
80.233575404053425 -3.606396070034005 -86.805460591999406 139 131 118
80.171757517022115 -3.018052239462902 -86.892802130264698 137 134 117
79.272744118542022 -2.887991159532199 -87.683503720149872 139 136 119
78.038816612258330 -2.947993774718435 -88.755462667439502 139 136 119
76.134756902175624 -3.387079482915873 -90.389801652105120 139 136 119
78.503572918088366 -1.457482374868122 -88.438848649102226 139 136 119
75.845670939858664 -2.329620450508683 -90.705824415360695 137 134 117
75.534011639626883 -1.896080793017357 -91.004625855576563 136 133 116
73.378682419189005 -2.510057093057095 -92.849534785810135 138 135 118
73.235019962574839 -1.990284470324574 -93.007875209557682 136 133 116
71.163402878077861 -2.577558894463019 -94.782247709586272 134 131 114
70.684758273594383 -2.258798722149927 -95.221700239565592 136 133 115
70.961123011352001 -1.504550283986001 -95.029099386124273 139 136 117
65.953897756538126 -3.833192043352908 -99.261223203343178 142 139 120
63.294434977139559 -4.816222144451551 -101.526310820346993 141 138 119
64.829495051348331 -3.339444928665846 -100.280419579285592 143 140 121
60.239920801595176 -5.489645588063850 -104.159888565018434 139 136 117
63.873843145564223 -2.758474182462201 -101.159525826050071 135 132 113
65.326929510819383 -1.312456826670676 -99.984960901836786 134 131 112
213.800967357343580 -4.415750140415041 26.900621658879373 152 151 147
209.466417422436706 -4.742414570791835 23.212955995364496 160 157 152
209.645621126069329 -3.654175562166887 23.337741536846380 157 154 149
208.905508636504749 -2.861595843316818 22.685920429472503 156 153 148
204.905261619689441 -3.137254048797628 19.281235902822772 159 154 148
200.821303173469857 -3.466461376655505 15.806290960158265 158 156 144
197.071637550638286 -3.710955101879492 12.613985016658319 157 155 143
194.492373100117277 -3.586553115523587 10.409990324134498 157 155 143
193.418095938070223 -2.968316046811958 9.476391507453855 158 156 144
191.591413931822757 -2.614681217320638 7.907734308699503 159 156 147
188.594141744033720 -2.677586689365168 5.351346710036267 159 156 147
184.844232046663819 -3.022601279081142 2.160192242714345 157 154 145
181.846835785596909 -3.126865197040368 -0.395710276457578 159 156 147
181.023746154084563 -2.477539070128916 -1.117219707279645 155 152 143
178.360880344885089 -2.493555634606065 -3.390633282609684 154 151 142
175.948902983413063 -2.435988801106050 -5.452251807477978 153 150 141
172.867797518172438 -2.638469008631462 -8.077956025616658 148 148 138
170.874009795441822 -2.460178904517943 -9.786583280892927 152 150 139
169.131206485553861 -2.201451329861515 -11.283531947501785 154 152 140
166.886543900986965 -2.142208923031015 -13.203492765811518 152 150 138
164.474575143819891 -2.160783499699279 -15.264331645164788 148 144 132
162.313582743589336 -2.099191923283534 -17.113485289125833 141 138 126
160.487271057138457 -1.922762248521411 -18.680495585923666 145 143 130
158.577337268247049 -1.790573942265066 -20.317904841836082 145 143 130
157.085820920436788 -1.506948976733697 -21.602747956353454 142 140 127
155.594389200434733 -1.232887618026614 -22.887533113514877 144 142 129
151.341431534162325 -2.067291417192799 -26.498146937359877 142 140 127
147.506688128939004 -2.761537039330559 -29.755981324095416 142 139 124
144.843479218563687 -3.006849219727751 -32.026870506036090 145 142 127
143.686808270089955 -2.655165554085512 -33.029167534550197 146 143 128
142.865075934799478 -2.173231671780844 -33.749603238768060 145 142 127
140.704139440852430 -2.251277346062190 -35.597346271734324 145 142 127
139.045489346866873 -2.133571771770419 -37.022243053164203 145 142 125
136.800847340846815 -2.273122809860515 -38.940167435386400 142 139 122
134.221276654661551 -2.569211282921577 -41.139687306283093 142 139 122
132.144027218747397 -2.667344371512848 -42.916400286190054 142 139 122
130.066770550438292 -2.778895100652145 -44.692971691629452 143 140 123
128.659451076009958 -2.613196585963725 -45.906021540649903 144 141 124
127.335961522316069 -2.419883189748305 -47.048600705332404 143 142 122
126.180074318385834 -2.161235999173103 -48.050315003374351 141 140 120
124.437973845671237 -2.170064219374663 -49.544845818672854 141 140 120
122.277065730590238 -2.377300584342787 -51.391272603312274 142 141 121
118.189327010991647 -3.466023606121064 -54.856590999564588 141 140 120
116.363318467707231 -3.555614025422381 -56.421008040548941 142 139 122
115.794114962264374 -3.082880620081227 -56.929581311476795 142 139 122
114.470974491314905 -2.960537267335405 -58.071596945837939 141 138 121
113.650716231672206 -2.613656749578388 -58.791347670666681 137 134 117
112.411588475518712 -2.467400979490330 -59.862941957418570 142 139 122
111.591624551010710 -2.132094251402683 -60.582714356335600 142 139 124
108.927771480684726 -2.674453000560413 -62.850237724808238 139 135 123
105.928458296020963 -3.393914029880949 -65.398890661386304 143 140 125
102.425920376128559 -4.374270378212508 -68.369270392482832 140 137 122
101.773717397998553 -4.000592282662360 -68.947976259031179 140 137 122
103.050256225647672 -2.692980349327985 -67.909244691280151 140 137 120
101.308460567211583 -2.854548530469663 -69.402349099536707 140 137 120
99.482793050571615 -3.068670770020240 -70.965647417913630 139 136 119
98.328087547986826 -2.961636524574417 -71.966366409620662 139 136 119
97.257362883671945 -2.820007287467959 -72.896758765201497 142 139 122
96.941760289418056 -2.305523269734929 -73.194506948036604 142 139 122
95.787441830231927 -2.217303987762463 -74.195217428108066 142 139 122
95.304473347090195 -1.794472141717550 -74.633672691377143 136 133 116
93.982589082507644 -1.804629519504417 -75.774925393976275 139 136 119
93.416081520695855 -1.433496486834602 -76.283742571420731 138 135 118
91.171140636477730 -1.937346531150324 -78.197774058658268 137 134 117
88.506352378734533 -2.675120925791104 -80.462838525268694 138 132 116
87.268491893685407 -2.679858808796747 -81.533484816649008 141 134 116
85.359019946894605 -3.047870548088680 -83.165966205891522 141 134 118
83.701373984573721 -3.294124529857396 -84.587596941919799 141 134 118
82.295635160752042 -3.416082546212861 -85.798441975592141 141 134 118
80.805930782315812 -3.592304637760791 -87.079418493281366 141 133 120
79.064229857688545 -3.914760527884015 -88.570912123855805 138 135 118
80.430805641582523 -2.552300901506838 -87.464959617288599 139 136 119
81.714053726995758 -1.226227770494963 -86.429627765836329 138 135 118
80.309028672522061 -1.376096632228348 -87.640526963965470 140 137 120
76.634927416934147 -2.795715048691706 -90.746027608042482 138 135 118
74.221028179765824 -3.534996439686232 -92.798524355088375 137 134 117
73.656242291628118 -3.250283574243186 -93.307275609122115 139 136 119
74.352780742261288 -2.255605361654655 -92.763864859532845 136 133 116
74.797629551657181 -1.399148118846613 -92.431200525178781 135 132 115
71.038174470721088 -2.945217264740537 -95.605425455816658 133 130 113
69.801301531072426 -3.064054197720196 -96.675369706691754 135 132 113
68.985065657056879 -2.947270483896612 -97.394676225023346 137 134 115
69.178567018185888 -2.247680415183028 -97.272730075100526 140 137 118
65.333606149136429 -3.911151526562223 -100.515699737306306 141 138 119
63.423506348455376 -4.460487703442336 -102.146014299874139 141 138 119
64.879991679023306 -3.028442558396985 -100.972931606031580 139 136 117
63.896043224506982 -3.039719039248926 -101.832404582647456 133 130 111
65.690628417315651 -1.393123091758918 -100.379840643500273 135 132 113
220.359712786404998 -3.732635795471766 31.183453977666261 138 139 134
210.336430118095365 -3.737518548873933 22.675542119424819 153 150 145
209.091282912724665 -3.107506442339846 21.601847969556189 151 148 143
206.253176512744062 -3.003588005035806 19.189316571116848 156 153 148
203.582748676374337 -2.862937475009129 16.917907990558177 157 154 144
198.648295156334001 -3.490588529635096 12.744320157956480 156 153 143
196.061612111468492 -3.363750551176962 10.543849420647803 156 154 143
195.990713484264944 -2.402724343374947 10.457015870426318 156 153 142
193.320265596467721 -2.329740458510682 8.186313409173209 157 154 145
189.224065634340661 -2.765494786386344 4.718321507554236 158 155 146
185.966430001884078 -2.935969161857996 1.955021494368253 155 153 141
184.050716050198673 -2.656202890555147 0.318858354392745 157 155 144
182.051173188992095 -2.418496625890351 -1.387627262752233 156 154 143
179.632259340616201 -2.343694825481581 -3.446104804234551 155 153 142
176.542253904697191 -2.526747390234215 -6.067751285393911 153 151 140
174.039415540762263 -2.515918166483038 -8.196280009353757 149 149 139
172.543302172322569 -2.151306897635587 -9.479757557663390 150 149 138
170.208286244358760 -2.107302304501690 -11.467195680646682 151 149 137
167.705465188419851 -2.141115156099474 -13.595273161384682 149 147 135
164.783087571187593 -2.349347928046374 -16.075135254060655 149 145 133
163.203239811964124 -2.065664327892484 -17.428580412608852 142 139 127
161.455635146030374 -1.856501753258364 -18.922721929498522 146 144 131
158.784953526405445 -2.015790491110355 -21.190921675457076 146 144 131
156.701708114859912 -1.963084529147303 -22.966318863296834 143 141 128
155.541719307837525 -1.560506454378301 -23.967552521374245 143 141 128
150.688682134704436 -2.630534864811873 -28.064677157989422 143 141 128
148.017789899437958 -2.859156708373540 -30.332062465659931 142 139 124
146.018402496419270 -2.834235209681871 -32.036432152979131 145 142 127
145.278294545674669 -2.310271589216139 -32.685490431267056 145 142 127
143.782754072005929 -2.100529427893629 -33.967647904948080 145 142 127
142.455214460904642 -1.830984655525133 -35.109074223899427 146 143 128
139.616373474907761 -2.199065891775955 -37.516395669154321 145 142 126
136.945378833119975 -2.515067516557471 -39.782832541912114 143 140 123
135.198058721518123 -2.457779798277334 -41.275546864426957 142 139 122
132.275009789182491 -2.912655971745109 -43.752548977823722 143 140 123
130.023750527857487 -3.098005464756650 -45.666836261286363 143 140 123
128.612405987873530 -2.934526136210137 -46.877937689543984 143 140 123
126.613133989170066 -3.036327575500393 -48.581058163031202 145 141 122
125.537934180304788 -2.745218717551430 -49.510848293628158 145 141 122
123.790755142599650 -2.758214641945207 -51.002906640570103 145 141 122
122.547720313183120 -2.557759114957778 -52.073189702190660 145 142 123
119.036086786740512 -3.383634588280668 -55.040808275541622 143 140 121
117.540981850996388 -3.320421251134238 -56.321665814275832 141 138 121
116.634208151192354 -2.998824689878678 -57.110626473536144 141 138 121
114.719036301071611 -3.145522506430662 -58.742659143948572 141 138 121
113.140062324990282 -3.149217340249171 -60.093564186769470 140 137 120
112.233604160758432 -2.850136057405217 -60.882444036094540 141 138 121
111.663562933020955 -2.399149688880889 -61.390392690373375 140 137 121
110.000772129703321 -2.467237162407432 -62.811396109476334 139 135 123
107.076787344235001 -3.145150928942001 -65.285654675952372 138 135 120
104.573040968111101 -3.640966325679261 -67.408533862398315 138 135 120
102.573733827063592 -3.910004112790816 -69.109916076168190 139 136 121
102.004137454196652 -3.498640468768491 -69.617669690884213 140 137 120
101.855307611951375 -2.885364941650493 -69.774500527424806 139 136 119
100.108500398222688 -3.058168616005563 -71.265091772231727 140 137 120
100.044230072542703 -2.409766244999977 -71.351878284981268 141 138 121
98.970644868194114 -2.264198371506011 -72.280942710378071 142 139 122
97.728888900253139 -2.209729352518835 -73.350334862480764 142 139 122
96.571368137868845 -2.120652871061638 -74.349522195263660 143 140 123
95.245624059499988 -2.124355111198130 -75.488994822152392 135 132 115
95.014149344707036 -1.577155391148878 -75.716467368393808 137 134 117
95.540574157846379 -0.641304662223547 -75.312787066727424 138 135 118
91.184572997380812 -2.229536577362684 -78.977204589585966 139 136 119
88.427712874561763 -3.012952993823844 -81.308611260201360 139 136 118
86.933682673288914 -3.152107725858895 -82.587899872025702 140 133 115
86.366036521962002 -2.812042885885223 -83.095852551634181 139 132 116
85.377484646879395 -2.698892298562055 -83.954404057949858 142 135 119
83.378236502447308 -3.131885860435210 -85.654126816344387 143 136 121
80.957648519702744 -3.804239917623724 -87.704112607101990 144 136 123
79.042369159738001 -4.218991851621009 -89.333334629483858 140 137 120
80.581863770326706 -2.766316618177566 -88.089316761614299 139 136 119
80.857962664610184 -1.994758084745953 -87.896766911072604 138 135 118
76.751603807963306 -3.634543045688787 -91.347505140215929 136 133 116
76.100755745575398 -3.386730288403142 -91.925563598654918 137 134 117
73.258096866309472 -4.364461689728561 -94.324783141445465 139 136 119
72.776003541560655 -4.037254084052646 -94.762672769146292 138 135 118
73.727775848308482 -2.904276654374073 -94.010211950009534 137 134 117
73.752422752738866 -2.290580691396198 -94.028320025447783 135 132 115
71.415556592777804 -3.023811708821006 -96.006872527196521 136 133 116
69.500252981609691 -3.530261294905876 -97.635139057887898 137 134 115
67.837927082024947 -3.903048377886105 -99.053228459195083 142 139 120
69.382328070368743 -2.424884553100759 -97.811820152500985 140 137 118
69.239531600501394 -1.921186987556774 -97.970409392700759 140 137 118
67.408796651538978 -2.409208127643134 -99.528464089846125 139 136 117
65.155775174051470 -3.158403176240742 -101.436104389581658 141 137 118
65.097929113238990 -2.618619152910941 -101.524846185405522 140 135 116
65.631653205270823 -1.725560612551706 -101.124217352247626 140 135 116
220.334484652323113 -2.983095855482106 29.857501020351663 146 145 140
215.554369939988959 -3.426454883481438 25.829898790603067 155 154 149
213.801246138566057 -2.938731383007999 24.335530241666675 153 150 145
209.777732151708165 -3.191139573592074 20.941737229649789 149 146 141
207.015521555589032 -3.060519998915329 18.603481575492196 156 153 148
204.421492859594792 -2.892622540495488 16.406102326651023 156 151 143
199.977228534278453 -3.353386204416349 12.661445117294591 155 151 142
196.626169991418266 -3.477734925304364 9.831504624764108 156 152 143
195.461869093487906 -2.886282971003087 8.830389682472344 156 152 143
194.550024719977898 -2.216328257100081 8.040268990666846 154 150 141
189.768973064430270 -2.882013164930866 4.015403503307965 155 151 141
185.828914356258224 -3.286802989697678 0.694113197659505 153 151 138
184.160068454358338 -2.921698002328501 -0.728452550654055 156 154 141
182.743679264348401 -2.478080314042757 -1.940024240497081 156 154 141
179.813009187278510 -2.583610399655539 -4.416976419154764 155 153 140
177.723650911254623 -2.405239576097633 -6.190742765130238 154 152 139
174.961199600221789 -2.484724081717069 -8.526720555252467 150 147 138
173.040156032664925 -2.273726629410432 -10.159626153263019 150 147 138
171.287455267463258 -2.012842186499912 -11.651862112903871 149 146 137
167.515134395155940 -2.516244353779269 -14.830664788051820 147 144 135
165.678291073670636 -2.316040343097441 -16.392881507931463 146 143 134
163.841497560410033 -2.127603820380595 -17.955000927229946 142 140 127
161.752251813717322 -2.047538734639520 -19.727809196507820 146 144 129
158.232105393993947 -2.532992221835447 -22.694859365409599 145 143 129
157.152935227565905 -2.091407851516030 -23.624299010598946 144 142 129
155.821352735277856 -1.755716006480571 -24.764472114096776 144 142 130
151.122416490956141 -2.760566871919803 -28.714271242213528 143 141 129
149.706647894047251 -2.486380611884108 -29.924395778862873 143 139 127
149.132935732793271 -1.882673688254708 -30.432160300524231 144 140 128
146.117565231311403 -2.272185809637789 -32.976527801637957 144 140 127
143.775741128389825 -2.405942659900284 -34.958879129221316 144 141 127
142.360225309780219 -2.173289225079358 -36.168697075908341 144 141 127
140.439489227110101 -2.159371378831104 -37.799721134245289 143 140 124
138.687220951332847 -2.087300196459673 -39.290220445601989 143 140 123
136.176930229396248 -2.346008566842722 -41.412409501177905 145 142 125
133.835045292119958 -2.549327266189018 -43.394015690757044 144 141 124
130.819187574306085 -3.056210925065468 -45.936941945049711 143 140 123
130.414839889433381 -2.456132364268603 -46.303974733276704 142 139 122
128.409910856463171 -2.554079684933854 -48.004428573340590 145 141 122
125.646643016816796 -2.996916870709079 -50.336275567303318 143 138 119
124.821358652744451 -2.602735707742074 -51.054108710303979 141 136 117
123.322065200635635 -2.513229156849072 -52.333233126424005 142 137 118
122.244226653856060 -2.244649421115163 -53.261528990274996 143 138 119
120.660806217097232 -2.210839384755936 -54.610692918018515 140 137 120
117.813058077850201 -2.761300623803744 -57.011875882701048 139 136 119
115.808135891030830 -2.944630388261015 -58.711454113553600 136 133 116
113.297353641251533 -3.373844452030672 -60.831652923137653 139 136 119
112.557018674652980 -2.997911648515571 -61.479078842256030 139 136 119
111.816863613285790 -2.626509603812783 -62.126544190044001 140 137 122
109.643330743128899 -2.934019142160972 -63.965899172982660 137 133 121
107.638397118759983 -3.175631631481933 -65.664871998784974 137 134 119
105.970787093615428 -3.269222172936515 -67.083307402795015 138 135 120
104.640588465510206 -3.211443629505349 -68.221281840949359 139 136 120
103.563534513125646 -3.039730481135604 -69.148955955624132 140 137 120
100.883656818278553 -3.655015666946800 -71.408062530206109 139 136 119
101.156661443173519 -2.840575202962492 -71.214473797048441 140 137 120
100.923753767785499 -2.273671698901117 -71.441463640800094 141 138 121
100.184789945095389 -1.959337202096548 -72.088911448149133 140 137 120
97.758043295276551 -2.493225326901116 -74.137376253089883 140 137 120
94.571476113866169 -3.425034119033588 -76.815979487121353 140 137 120
94.339139197161984 -2.881428033920654 -77.043002567834151 136 133 116
94.613639233747961 -2.080753629551420 -76.849987533536535 137 134 117
93.622034826167919 -1.927468737004900 -77.707491841334047 137 134 117
90.857261907770649 -2.695794256074596 -80.035268395855468 138 135 118
88.852298724515038 -3.087246407575842 -81.732684705871918 141 135 118
88.114161605718294 -2.829275268570552 -82.379947829173460 140 133 115
88.389864263337017 -2.042493281275280 -82.187365123027803 139 132 116
87.652213227582422 -1.790053091721386 -82.834803853949325 142 135 119
83.619597929350221 -3.297278349826745 -86.211326367359561 143 136 121
80.938401441744432 -4.106429475023251 -88.467806476502233 144 136 123
80.031656089966248 -3.976057876299210 -89.254812322758426 140 137 120
80.308355696386158 -3.209285884216827 -89.062500580569122 140 137 120
78.810307822117736 -3.409095590783605 -90.339242799280498 139 136 119
77.312249295011199 -3.618468052379870 -91.615881487469267 138 135 118
74.123091561717828 -4.771608003149343 -94.290967137556464 139 136 119
74.231519183504787 -4.112910717124116 -94.238759957306286 139 136 119
72.225933566300498 -4.634963286673627 -95.934534161344203 138 135 118
71.489005173101248 -4.456525728296220 -96.581556855728792 137 134 117
72.105851089603846 -3.516878129352563 -96.110313898143801 137 134 117
71.369467669048134 -3.342719368679620 -96.757553261758773 135 132 115
70.210147258348911 -3.415110225117422 -97.754217584533365 138 135 116
70.151153551142443 -2.861514117721959 -97.842552524975986 142 139 120
67.637738232615590 -3.728755179384848 -99.956982851561463 141 138 119
70.372956095083723 -1.556582777566741 -97.740376645706476 140 137 118
69.299084929145849 -1.596149260298044 -98.667398587127025 140 137 118
66.954996362886561 -2.390401722285903 -100.641867790075565 142 137 118
66.247397468063213 -1.654138318013238 -101.308663597609495 143 136 118
219.941624400457300 -4.464901469193189 28.286954829081594 120 121 116
220.038665026475456 -3.378849714716671 28.340210534848069 141 140 135
217.437257160368404 -3.138378348616077 26.145614416005401 150 149 144
216.522584979192800 -2.380188383259222 25.355938287925369 150 149 144
213.752570998857294 -2.221668716672876 23.021128556367330 146 143 138
206.343649002904357 -3.580716822006407 16.823938935445710 155 152 147
203.910802914623787 -3.362679341977707 14.770652132972344 156 152 143
201.899721352182951 -3.021183697600817 13.068618234721782 153 149 140
197.273699515651288 -3.563329363538788 9.190033131706741 153 149 140
194.587729856067909 -3.482980317521149 6.926680419568299 155 151 142
193.926430440687199 -2.732616380094434 6.348448840819543 154 150 141
192.927834757743739 -2.102009520204930 5.489375820395935 154 151 139
188.470217817734721 -2.674254320502447 1.752253987479577 153 151 138
184.265534657041428 -3.186887395879994 -1.773907457146464 154 152 139
183.267038533533707 -2.596821372683099 -2.632610799264825 155 153 140
181.762389345131908 -2.193087049515543 -3.912407553814745 153 151 138
179.582740967939912 -2.041176772060549 -5.753565938106817 153 151 138
176.137258465070687 -2.361554617711734 -8.647175390489906 150 148 136
173.957587632430716 -2.241690519403721 -10.487993164752027 150 148 136
170.511947395497032 -2.602347349020767 -13.381112545882985 149 147 135
168.501051416088018 -2.451774903476382 -15.081269958022716 147 145 134
166.405779465948910 -2.345721929149686 -16.851462818620377 145 142 131
163.804051919416167 -2.444650484546584 -19.042412389551345 140 138 126
161.877628767931895 -2.302670761215737 -20.672033978894774 145 143 129
158.516061672283257 -2.725125070123660 -23.493878665218688 144 142 129
157.349474596504479 -2.317675164777352 -24.492005882339555 144 142 129
156.098578075926582 -1.950613744786822 -25.560242896008418 143 141 128
151.639175873370391 -2.856982432053365 -29.293071360423511 143 141 129
151.401621518628758 -2.113254476692870 -29.519658391606129 142 138 126
149.982035925151706 -1.844777046009771 -30.727898126332377 144 140 128
145.691138313692164 -2.745717904828101 -34.319676711066762 143 139 127
142.751299493855583 -3.123921841685797 -36.789435825682233 144 140 128
141.754021798753001 -2.723384034941877 -37.646771150630457 144 140 128
140.841355793230235 -2.294129611316872 -38.434021127492059 145 142 127
139.253042360486518 -2.152429978828525 -39.781954824540264 141 138 123
137.580311173177591 -2.056341079419910 -41.199892747896314 144 141 126
134.640326589817903 -2.507703000002513 -43.668829077864075 145 142 127
132.883112217613302 -2.473129478784880 -45.156576211380241 144 141 126
132.646913640061854 -1.795643309323532 -45.383129981744133 142 139 124
130.720866131485820 -1.851731126193125 -47.010892468675451 143 142 124
128.203244945844801 -2.178387100850740 -49.128875236717136 142 139 122
127.037824228689274 -1.926498881248032 -50.125959161226604 140 135 119
126.464191815318529 -1.419793383922903 -50.632763349591670 143 136 120
124.115618629661213 -1.708766036448757 -52.610288224901751 143 136 120
122.105126445380250 -1.860813731515331 -54.307523790116051 138 135 118
117.981000046249250 -2.982769733228892 -57.755092361449243 138 135 118
115.885739066547643 -3.206071603747703 -59.521900255394911 138 135 118
113.874992552140185 -3.403971996503697 -61.218542165096721 139 136 119
112.456172638370418 -3.340942103302805 -62.425033423659244 139 136 119
112.052294362369054 -2.814160995720206 -62.791536287973855 138 135 118
109.280402800649441 -3.400532011603067 -65.117780257037936 138 135 119
107.607977512559913 -3.485429467474588 -66.534001538057367 138 135 118
106.527735828253000 -3.299364568165509 -67.460298382489242 140 137 120
106.885874430112196 -2.431361979552570 -67.197129909032071 140 137 120
105.298337965860782 -2.498783318952149 -68.543282717926786 140 137 120
101.849195903449655 -3.479849753391026 -71.428340650023102 140 137 118
100.684664645312097 -3.366875057138608 -72.424420181997959 140 137 118
101.128318774129767 -2.470221704893061 -72.091598075297497 140 137 118
99.794857806195864 -2.450343095723387 -73.227621698197481 139 136 117
97.784237628011837 -2.776414798932155 -74.923004715029322 140 137 119
95.096246511376151 -3.455178160720844 -77.177576443684075 141 138 120
94.270790086341137 -3.210773726946307 -77.893785546195033 138 135 118
93.699538839018075 -2.842308824102949 -78.400305896350204 139 136 119
92.112240603442970 -2.996995900532816 -79.745674402957263 137 134 117
89.593259705690954 -3.641377735289752 -81.859736177496018 138 135 118
88.344683707858792 -3.643866487780671 -82.925279355720903 139 134 116
88.451655141975024 -2.947601597496643 -82.872762242503399 139 134 115
88.982642180870727 -2.027919067079571 -82.471098066611461 142 136 120
86.971996682068664 -2.446072321680724 -84.165521128480094 141 135 119
83.859521543747476 -3.462329174971040 -86.767841590722156 142 136 121
81.933265363773003 -3.864772026836510 -88.391939043602633 144 136 123
80.939349477628483 -3.778238227798465 -89.247650445439660 141 138 121
82.319354981525095 -2.413678168706503 -88.148144291697577 140 137 120
80.138925548590024 -2.977559827689767 -89.981561015614659 139 136 119
77.788710859876758 -3.648421071747624 -91.954369630372412 138 135 118
77.388923854476133 -3.260038209315729 -92.321405141856076 139 136 119
75.632245235915647 -3.625857793719162 -93.805287130702766 139 136 119
74.214812631607970 -3.813807177797496 -95.009858617574423 138 135 118
73.136760094124341 -3.820461173212934 -95.935218989945781 137 134 117
72.483083769275623 -3.594525457020319 -96.511699225943971 137 134 117
72.338832335896882 -3.083550706682623 -96.669667324305948 137 134 117
71.346114022104743 -3.057324805913531 -97.525330861158466 137 134 115
70.693083559836282 -2.842343596815574 -98.102007315356644 141 138 119
71.059147783197176 -2.043069672666816 -97.841922973389472 139 136 117
71.425730211085764 -1.240704504163733 -97.582118358423088 140 137 118
68.310589853011678 -2.468296755869342 -100.180988407249288 140 137 118
67.403500102773847 -2.419676475569493 -100.966987987074049 142 135 117
66.751421470530261 -2.226105656942759 -101.543899405588746 141 134 116
66.184529471509961 -1.985884463882001 -102.051185128260869 143 136 118
222.598650248290966 -3.949921722443426 29.227719524172926 118 119 113
218.805655034218432 -4.062204057589256 26.054781390345880 136 137 131
220.172083353923966 -2.585542934957253 27.159628909904512 147 148 142
214.687396723420449 -3.264309756544447 22.584643562051980 150 149 144
214.616182660910681 -2.250733473252420 22.497419990673905 145 144 139
209.723394165339101 -2.791734156058173 18.413866702296019 153 150 145
205.930162865778641 -3.006176153968184 15.242093091686627 154 150 142
204.167227662944441 -2.577427885146585 13.753025345240786 154 150 141
198.512585150298349 -3.451998837160560 9.039644049282373 153 149 140
194.126776849229714 -3.937551312210165 5.378135726902627 154 150 141
192.109918966894355 -3.649499302766222 3.679415322472153 155 151 142
190.685411672589680 -3.171954252793383 2.471378074519663 155 151 141
190.107197217778491 -2.411608586883284 1.964155073400661 154 152 139
186.905831977966301 -2.568023236308564 -0.715350341650350 151 149 136
183.619765023377710 -2.774716629708209 -3.464676087236342 153 151 138
182.703306501870713 -2.162323889196877 -4.251996872147316 153 151 138
181.617725653335185 -1.616231055657141 -5.179445427102905 151 149 136
178.077702279016108 -1.963070208237666 -8.138413356038626 150 148 136
174.198977819606682 -2.455974156173284 -11.377279868203857 150 148 136
170.235441753661462 -3.004928587852548 -14.685854727646245 149 147 135
169.403930812839064 -2.418363384412742 -15.402689403246569 145 143 131
167.048722922784009 -2.406738261972821 -17.380134462619736 145 143 131
164.185526356186074 -2.601748045545220 -19.777585793005102 140 138 126
162.168945555638288 -2.493086122909075 -21.474592200131639 144 142 129
161.083796987315168 -2.040024044690526 -22.401289944159942 143 141 128
158.474574763773205 -2.183339627200843 -24.588197189331112 143 141 128
155.949989070914341 -2.310342120998417 -26.704903294567885 143 141 128
154.102871138614915 -2.187075855052079 -28.261412716995721 142 140 127
152.171100060836920 -2.109149988656696 -29.887816538204078 142 138 126
151.001648910469214 -1.738834064774055 -30.884191353133133 143 139 127
148.477050713299604 -1.921967140475772 -33.000313696073391 143 139 127
145.613561207214758 -2.258900626120354 -35.396163993250553 144 140 128
142.749971620067157 -2.614215890628006 -37.791777199106178 144 140 128
140.648768490255861 -2.673281905106914 -39.557432950978637 144 141 126
139.225376039207049 -2.463879183225999 -40.763243412437134 143 140 125
137.293671156185269 -2.476545075231467 -42.388746394511372 144 141 126
136.039891205293515 -2.215213141005083 -43.454515658290774 144 141 126
133.854023567992613 -2.358486376507959 -45.289660297678182 143 140 125
132.515640572504594 -2.152309662010750 -46.425246899453867 141 138 123
130.160260947467577 -2.393999722249331 -48.400002300970385 140 139 121
129.839157337038046 -1.765258995462109 -48.696294918226897 143 140 123
127.907662582663292 -1.844596898843883 -50.321212136619380 141 136 120
126.400053672650159 -1.748991292399490 -51.596421246823752 142 136 120
125.062077104159258 -1.587465529664004 -52.731742667204514 143 136 120
121.350050954515297 -2.498553464914351 -55.824334731667648 139 135 118
118.655297019873615 -2.974215357866796 -58.077761776817511 138 135 118
116.045207210849227 -3.428641856336935 -60.261051551121028 138 135 118
114.283104219392754 -3.511433867805523 -61.745251883556563 139 136 119
113.793297545709308 -3.018643571158780 -62.181155897386020 140 137 120
112.794757988504102 -2.765097750583720 -63.036374489473531 139 136 119
110.693512101914436 -3.033551090637023 -64.799854457720443 139 136 119
107.998312235489877 -3.595146096390995 -67.052183617934702 139 136 119
107.169633017574640 -3.288915111152212 -67.767487359131707 140 137 120
108.123133309820290 -2.136934680973442 -67.016048809764442 140 137 120
106.870630778139272 -2.038942332454855 -68.080747850105155 140 137 120
103.920738723094814 -2.770304843369608 -70.542062292842388 140 137 118
101.819425481930097 -3.107177635769033 -72.304805763097477 139 136 117
99.378464794456320 -3.624057517779780 -74.346645695533056 140 137 118
98.380635532723218 -3.444080656038983 -75.201446808288608 139 136 117
96.618764638280766 -3.650051567469556 -76.684490232842990 141 138 119
95.621118867573969 -3.484953397489293 -77.539225973227872 142 139 120
94.878381641980383 -3.197749674083110 -78.184589326882104 139 136 117
92.861800251999583 -3.560637303453102 -79.876741555600972 139 136 117
92.119294351544568 -3.286615035608180 -80.522079891064692 139 136 117
89.507983043083172 -3.976367861524705 -82.702362972118266 139 136 117
88.255853609599839 -3.980819662376096 -83.766185992264838 139 136 118
87.088763794778458 -3.948961768216096 -84.760206543498668 141 138 121
86.346675558718161 -3.702135870817705 -85.405464742273864 141 138 121
85.434783822673083 -3.549242774626514 -86.190240401024397 138 135 118
84.353027818598690 -3.491977985066824 -87.114486995836899 139 136 119
82.336215832951154 -3.939764379593986 -88.805655002739996 139 136 119
84.230417999557858 -2.303532970024376 -87.289781910083349 140 137 122
83.064186295298157 -2.305477405288777 -88.283865034110875 140 137 122
81.302708209112481 -2.637790490661953 -89.765795873323668 137 134 119
80.476788471069412 -2.470526307707472 -90.480989285126014 139 136 121
79.651034501655218 -2.308261386235659 -91.196210540162326 138 135 120
77.804479813950664 -2.715127216493666 -92.747532500891907 141 139 118
76.808733669325306 -2.660873861361427 -93.602036034519841 141 138 119
75.983312424828910 -2.517589888800383 -94.317221083574026 138 135 116
74.562242406506314 -2.714383974600333 -95.519961401090910 138 135 116
73.141165266955326 -2.920179281963260 -96.722605657741155 138 135 118
71.209232644373927 -3.425644707051597 -98.342927056835464 138 135 116
71.491120316811873 -2.676542685956630 -98.152915381757964 137 134 115
70.751505938447053 -2.513173541223254 -98.798498003294810 139 136 117
70.949049469515302 -1.811811266926442 -98.678503855817809 141 138 119
70.465532491140507 -1.505265130999185 -99.115499733616332 138 135 116
67.340907352685463 -2.747840485796099 -101.709678067412369 142 137 118
66.346195957037324 -2.756615223985300 -102.564027841577087 141 136 117
66.885786189840246 -1.863130593548074 -102.166209736015816 141 136 117
217.149496543994587 -3.830835994761181 23.408074914998110 142 143 137
210.474481462394920 -3.872137365298339 17.843952477036026 145 144 139
209.045826717713965 -3.311313164647936 16.637042120993556 150 149 144
207.532425398254276 -2.787082407774463 15.360192025617550 153 149 140
205.085771006078687 -2.578410457921599 13.313607472503634 153 149 140
201.875444964246242 -2.638150117215939 10.637393750185339 153 149 140
195.440477370423736 -3.796201233431401 5.302505337785220 152 148 139
189.938618547116619 -4.680612363835762 0.737851908286103 153 149 140
190.207315634524804 -3.634471921248194 0.931116348336587 153 150 138
190.476272790215376 -2.586411381745003 1.124236608090087 152 150 137
189.217770006436979 -2.066672820679185 0.058066822152767 152 150 137
185.837438853856412 -2.298182696098951 -2.756766690628780 151 149 136
183.815125595531697 -2.071228168810996 -4.452248354808859 153 151 138
182.726603410703262 -1.524047867324010 -5.378300978417883 152 150 137
178.412360942008831 -2.144811452483151 -8.961795468897265 151 149 137
175.286449432648283 -2.361641484739047 -11.565916919156592 151 149 137
172.075553564129621 -2.629582275250986 -14.239714919506554 151 149 137
170.987179052367139 -2.133589846782605 -15.165311286912555 146 144 132
169.644211460363579 -1.739379438303054 -16.300640158702066 143 141 129
165.753920946357141 -2.311516357672607 -19.533157925215107 141 139 127
162.882475027787450 -2.522163107609636 -21.926501834743362 143 141 128
160.690349680499082 -2.491338722912995 -23.760444881386263 143 141 128
158.583157309774322 -2.441723861315654 -25.524354107789151 142 140 127
156.560911229700054 -2.372492512961367 -27.218244385899908 143 141 128
154.368805818147365 -2.382735597155806 -29.051774241642590 140 138 125
152.686368194548038 -2.205454948424787 -30.465904386611214 143 139 127
150.239435187971793 -2.343545638293918 -32.508786249501611 144 140 128
148.642022421370740 -2.155926439527375 -33.852839529586106 142 138 126
146.280022375971782 -2.288091473381460 -35.825555140811588 144 140 128
143.493149655218730 -2.608753628770403 -38.147367249526894 144 140 128
141.131046028350397 -2.772444421527587 -40.119708797258937 140 137 122
139.618690798331471 -2.598833069522309 -41.393450236567304 139 136 121
138.021423733354936 -2.470283808443336 -42.736965183266733 143 140 125
135.659295561616261 -2.673953085199486 -44.708883470197662 143 140 125
135.167059095026502 -2.099210760770245 -45.144468652820478 141 138 123
132.719956517468944 -2.363296183380386 -47.185972466456263 139 136 121
131.037874271013777 -2.313422008158186 -48.598961163797156 138 137 119
129.950950474046124 -2.015903891883441 -49.523208552388041 143 140 123
128.013925362370117 -2.096918255791900 -51.145462810153731 141 138 121
126.161928231355148 -2.152792773918081 -52.697794054557420 141 136 120
124.820161523183060 -1.994035473235992 -53.831273787935572 141 136 120
123.308396418423726 -1.919724093274511 -55.104275396649143 138 135 118
119.245160732911870 -3.003590987028951 -58.470507062063859 138 135 118
115.521784540907319 -3.959425581576417 -61.557208705323433 138 135 118
113.924720161669498 -3.968160700605453 -62.899407479095316 138 135 118
113.688857741424783 -3.361022366424582 -63.125397940354219 140 137 120
113.793591425630851 -2.597454114977377 -63.072503082556835 140 137 120
111.601280977126564 -2.904220889870814 -64.902882582015593 140 137 120
109.068508225744310 -3.384835825211122 -67.012032116017252 140 137 120
107.131317033403278 -3.600016557904897 -68.632825879528752 140 137 120
105.449421777124314 -3.705976827229463 -70.044299950106790 140 137 120
106.321140710376682 -2.598613481016097 -69.364137097781764 140 137 120
104.894887940212129 -2.594260308398533 -70.566468514361020 140 137 118
103.298414158751314 -2.681605287395406 -71.908140657306149 140 137 118
101.105936839658298 -3.070533702640083 -73.737594595408638 140 137 118
98.232114604271956 -3.808863922769497 -76.124369972073055 140 137 118
97.742610874739384 -3.384067963128873 -76.559719013477661 142 139 120
96.060932334402267 -3.556838272016341 -77.970609050919762 141 138 119
95.827326668899687 -3.013278469896505 -78.197024690142172 140 137 118
93.975390642524900 -3.288700570175584 -79.747125253241933 141 138 119
92.805000164796510 -3.229296505304029 -80.739850325227906 141 138 119
90.612179242561709 -3.700512866044879 -82.568292853604248 140 137 118
87.822673473384128 -4.493051782775328 -84.883988056423590 139 136 118
87.078393099015599 -4.243403636551113 -85.528226594571123 141 138 121
86.675255953637375 -3.820385485256898 -85.894015929000375 141 138 121
86.101884609453450 -3.489046695344049 -86.399139874353438 139 136 119
84.079308534045225 -3.926469622486297 -88.087657036848611 140 137 120
83.762027548400567 -3.470662001305126 -88.383998297369203 139 136 119
84.468424722680496 -2.469333171914852 -87.845372385519397 138 135 118
83.640106119098505 -2.288587313733964 -88.559556961926262 139 136 119
82.385435028809923 -2.343659794262360 -89.621642998083757 140 137 120
81.130819621985282 -2.406581070057992 -90.683674881426924 139 136 119
80.302892225970581 -2.243682577733590 -91.397862898290555 140 137 120
79.731148029804856 -1.944717976880941 -91.903432021886772 141 139 118
77.964736199188280 -2.311305429547222 -93.382649771394739 140 137 118
76.710402906357302 -2.403625299344760 -94.444514002608827 139 136 117
74.858490945358966 -2.838948974519299 -95.992980131264204 138 135 116
73.860317733775034 -2.804484731163216 -96.846118865109787 138 135 118
70.812664257488208 -3.939037594890717 -99.367373223096280 136 133 114
71.010183483425138 -3.241364554060387 -99.247329472994409 134 131 112
70.524768261199384 -2.933996053789947 -99.683425702450535 140 137 118
69.612424990642509 -2.875886929606376 -100.467009689599138 142 139 120
70.665614688661478 -1.682360627507790 -99.652830977857178 139 136 117
67.617207543516457 -2.876109583394955 -102.173115448131085 142 137 118
64.824684578525591 -3.939325450135174 -104.484581020992579 142 135 117
64.767470929681934 -3.405600933733184 -104.573562986985706 142 136 117
213.096757198829664 -4.363534869702014 18.811700652913856 140 141 135
210.047387828700380 -4.305465208420497 16.278990909887966 143 142 137
208.955085885298388 -3.639699458537921 15.353525850232103 148 147 142
207.777818212886672 -3.008336280731938 14.358203342132555 151 147 139
205.834780320995662 -2.634709389705451 12.734145726982490 152 149 140
200.742976855320478 -3.312683159201246 8.525492681085694 153 149 140
195.480719738476409 -4.079975310928710 4.177585706778899 153 149 140
192.601315754188988 -4.079147971237736 1.785872099572003 153 149 140
190.828371106880695 -3.720843706905503 0.302317952579358 152 149 138
190.332285255945607 -2.936003915712610 -0.133588336536576 152 150 137
189.921515842486144 -2.124707803665900 -0.499723160181105 151 149 136
187.042234791645143 -2.178112849822173 -2.890937337135910 151 149 136
185.184497106612469 -1.889785207983466 -4.444065365919329 153 151 138
182.134898669244279 -2.037169937478302 -6.974550678707601 152 150 137
178.744663698221416 -2.326233485552726 -9.784053809828720 150 148 135
175.439463820534968 -2.606119057854428 -12.523473026720865 149 147 134
172.815364174152592 -2.658266356058502 -14.704201404750080 148 146 133
171.298252557926844 -2.319180269432872 -15.977370719771500 146 144 131
168.929624661192349 -2.306213663816709 -17.948409502509378 145 143 130
166.390655733888764 -2.372171413807551 -20.058863081903695 142 140 128
163.596142846970736 -2.550910432261954 -22.378481047458507 141 139 127
160.886739065868426 -2.714985870277977 -24.628106972185293 142 140 127
158.858720789146759 -2.634280548304904 -26.319353958579853 141 139 126
156.830723053235346 -2.566438750618773 -28.010478360910014 141 139 125
155.399083219500255 -2.278309103790614 -29.213153678548593 140 138 123
151.922814157339218 -2.805174618880729 -32.089909465181904 140 136 124
149.127990563357343 -3.083409938230667 -34.408354624134716 143 139 127
147.611196337849208 -2.867454581150694 -35.680408331332671 144 140 128
146.350120490186498 -2.557818879609413 -36.743184478047766 145 141 129
143.214327716271384 -3.019193211683692 -39.340061547887728 145 141 129
142.038570703589698 -2.696456815033328 -40.332929899924750 140 137 122
