ply
format ascii 1.0
element vertex 678
property double x
property double y
property double z
property uchar red
property uchar green
property uchar blue
end_header
-113.352239855447934 -61.040320014401381 -6.019669008100635 40 48 50
-113.390870036344964 -60.187343110019349 -4.568803077782121 37 45 47
-113.438241798122007 -59.263572731205805 -2.781907263168733 32 39 42
-113.471382044742668 -58.438308413367992 -1.555100208856118 28 33 36
-113.481662688043528 -57.780875233842870 -1.224372619561620 14 19 21
-113.486314956539701 -57.165726398643429 -1.117620141324153 13 19 19
-113.488211548757192 -56.572208309457615 -1.122822197958129 18 24 24
-113.510362499013269 -55.820627235715364 -0.343949466393411 19 25 25
-113.503876421861776 -55.293471474499469 -0.685055317302158 63 69 69
-113.517657315683294 -54.606057949137323 -0.242102937996492 107 113 113
-113.528694368360036 -53.939714114215299 0.088894793098376 109 115 113
-113.545628853339622 -53.224282397565474 0.643926319206912 150 156 154
-113.551179907014060 -52.601707804150806 0.751032336133221 176 182 180
-113.519387345038538 -52.293122520148941 -0.597660158933962 175 181 179
-113.427125595186169 -52.505039403503886 -4.297959699253909 186 192 190
-113.398398167516092 -52.190315436161278 -5.534390148206711 51 57 54
-113.148619894362824 -52.205174919577402 -15.741888789550586 123 128 124
-113.341199882590701 -49.395918906131946 -8.583707631776406 126 132 128
-113.155969647607492 -46.942812307963834 -17.122847453782185 125 130 126
-117.273720806519549 -0.571364177280278 138.574454899926934 128 138 130
-114.931162208285187 -1.832748713588560 27.162176464976000 115 115 104
-114.931965920875115 -1.015868608103696 25.712986897066799 120 122 111
-114.924839340888852 -0.720402369598365 24.708806218922547 125 127 116
-114.889134471991810 -0.822353729516061 22.697314640023365 126 128 117
-114.789418522016135 -0.743207149755372 16.108121965539368 122 123 109
-114.582794405173686 -2.625614794706163 6.605645045579706 119 119 108
-114.667298206712786 -0.829087812252456 7.847026553978367 115 117 104
-114.602952979657502 -1.437111572125974 4.829312819064569 113 115 102
-114.501969487387953 -2.574892104505781 0.580076782118880 112 114 101
-114.533756650389563 -1.849558555406281 0.809535199185376 100 102 89
-114.575409401736678 -0.726781050072205 0.485327764997322 103 105 92
-114.534400573173997 -0.810739253359027 -2.637475271830453 96 98 85
-114.510714567188813 -0.912181541652785 -4.310645653278357 92 94 81
-114.395259691258417 -2.340307608255190 -9.007251617804741 89 90 76
-114.456836628262295 -1.236908428662251 -7.880562415061121 87 89 75
-114.426584549268938 -1.461364834179303 -9.777325507064972 81 83 69
-114.454904216552578 -0.849602357204640 -9.770074653806745 78 80 66
-114.376578602899542 -1.787341045675069 -13.234518176035408 78 82 67
-114.358273407075075 -1.359970379106433 -17.571170971834960 76 80 63
-114.281420158679282 -2.184670656268361 -21.922944760088455 76 82 73
-114.340791388602156 -1.180798384100261 -21.018004049436627 75 82 73
-113.061558831558997 -147.058272793187911 -16.137474536103269 200 204 207
-112.996174003697618 -146.093665026878000 -18.395861304357197 81 82 86
-112.973942543713420 -145.443099061528869 -18.967487785510514 11 16 16
-112.960429750244955 -144.855157310644728 -19.201722009227211 92 98 98
-112.949896885230473 -144.288071253596627 -19.323457082331771 40 46 46
-112.939483388515399 -143.721639017516395 -19.445128319943336 146 151 151
-112.917814530243334 -143.079437055628148 -20.016399559476696 178 183 184
-112.876413848953376 -142.308246333788190 -21.374450376054739 121 125 126
-112.843713189006536 -141.599387496135932 -22.395120864085129 101 104 107
-112.836670400148606 -141.060109964226001 -22.404041164679825 131 134 137
-112.835385911972708 -140.556949071193202 -22.188117177417695 129 131 136
-112.822885288976678 -139.981828629497642 -22.421735206073464 109 111 116
-112.785098616092142 -139.250692457457660 -23.666785906894859 136 138 143
-112.761574039701770 -138.611612765679723 -24.349771661440883 164 165 168
-112.729736871189004 -137.925130116167793 -25.369798728783678 124 125 127
-112.717733248853776 -137.360169984957764 -25.603074408846965 100 100 102
-112.700214234714011 -136.763629451806565 -26.061031476227157 68 68 69
-112.688419055650400 -136.201549102233116 -26.294177794704723 58 56 57
-112.679524365683790 -135.656460806724482 -26.414902736471277 47 45 46
-112.684716109685354 -135.189767452718229 -25.973787393394247 44 44 42
-112.698354358409787 -134.766809472235366 -25.195604426478127 49 49 47
-112.709238162525423 -134.325089181606728 -24.529791191225598 48 48 46
-112.697844188462142 -133.762259079402924 -24.762753292186659 51 51 50
-112.689327715881092 -133.215047265639612 -24.883319154492540 53 53 51
-112.692031579850777 -132.725211324083830 -24.554491107895018 42 42 40
-112.717046180703662 -132.345157985776751 -23.326988554398241 38 38 36
-112.733736784511620 -131.918223484528426 -22.436527398678123 35 35 33
-112.739352285465245 -131.433484898748617 -21.995395080363551 33 32 30
-112.739471523783763 -130.920415813131598 -21.778901545161744 29 29 27
-112.728568804934270 -130.354989960442225 -22.011655350676222 29 29 27
-112.723282078872543 -129.815819699641395 -22.019734452653069 30 32 30
-112.720828814808968 -129.288983743811713 -21.915472188004514 31 33 31
-112.721199925991584 -128.773663326965789 -21.698881331771247 30 31 29
-112.716106474627594 -128.233819180107247 -21.706874908442927 31 31 30
-112.711077628125821 -127.694019792559430 -21.714837117639888 32 32 31
-112.711622148254548 -127.176654789133721 -21.498184349117906 31 33 30
-112.712218995799191 -126.658242410545284 -21.281517328498268 32 34 31
-112.715617268233444 -126.149432330866034 -20.952552389606950 33 35 32
-112.730051738221746 -125.680542548458547 -20.174461312278794 34 36 31
-112.758238240112263 -125.258411348743749 -18.835015575843073 36 38 33
-112.780940584044458 -124.810114923754057 -17.720180543425499 44 46 41
-112.806394463623363 -124.365971884537728 -16.493127547979299 36 35 33
-112.818163030149236 -123.869426121640231 -15.827455391550416 16 15 13
-112.829960336132913 -123.369647720028539 -15.161802761437684 15 14 12
-112.836318307223650 -122.849144846807590 -14.720683387731526 13 12 10
-112.839981305628370 -122.318022786618357 -14.391821473267328 19 18 16
-112.835496509926955 -121.760694607193201 -14.399703843086741 19 19 17
-112.825609908801155 -121.187537425645971 -14.632051123816922 18 18 16
-112.821233717204521 -120.630810564728364 -14.639875348131426 17 18 13
-112.825077179207028 -120.096265169675362 -14.310962338606146 15 17 12
-112.828958029422324 -119.560113132126304 -13.982047980666295 16 19 12
-112.827438050922126 -119.008672104163551 -13.877592507771283 17 20 13
-112.823245665774536 -118.450142169952358 -13.885347359649785 17 19 14
-112.816386221640030 -117.885338507309186 -14.005301586964578 18 20 15
-112.820428681329986 -117.345199144088866 -13.676350959152188 20 22 17
-112.821794707812785 -116.797696046383777 -13.459615411350853 19 21 16
-112.823198474313969 -116.249124960605428 -13.242872802191812 18 20 15
-112.819225653163443 -115.689067962783454 -13.250538334239593 20 23 14
-112.820707103657796 -115.138902358999189 -13.033774974499380 18 21 12
-112.816818493494637 -114.578337138835437 -13.041405451687353 19 22 13
-112.807570543592306 -114.009003372635391 -13.273407847526414 20 23 16
-112.806470678425939 -113.453135075094863 -13.168796965962372 21 24 17
-112.802711561271323 -112.892889145233966 -13.176362207523425 22 25 18
-112.801689656737167 -112.336234038663477 -13.071722128880737 25 26 21
-112.795317200600039 -111.772438916846298 -13.191433001389470 28 29 24
-112.799757608820912 -111.221331418663084 -12.862404896887057 28 29 24
-112.796156207585796 -110.660321554776871 -12.869902551249510 24 25 20
-112.789905757638223 -110.096833856882540 -12.989551891946519 19 20 15
-112.781010988216622 -109.531683371663348 -13.221342266841589 15 15 13
-112.777532554964154 -108.971520318735131 -13.228772377092042 21 21 19
-112.757990641337400 -108.401327287060994 -13.909143754425287 26 26 24
-112.730460706309586 -107.830201733715967 -14.925922827491547 27 28 26
-112.713719512543548 -107.268495316497109 -15.494008108137109 29 29 27
-112.710425698128518 -106.713801761936836 -15.501293597074209 34 35 32
-112.720554808590876 -106.162041761882435 -14.947832983607299 33 35 29
-112.728029392899813 -105.607254505029843 -14.506532332348741 32 34 28
-112.727506150598032 -105.050171665380446 -14.401658098274822 27 30 24
-112.721671512409671 -104.493009492179368 -14.521043404248132 28 31 25
-112.710534547250390 -103.937398712625424 -14.864667125836235 31 34 28
-112.710120895521996 -103.380326081474152 -14.759740358926450 31 33 30
-112.712408534358119 -102.821665861807773 -14.542678760795525 32 34 31
-112.725392545123526 -102.256648376566289 -13.877129953843934 26 28 25
-112.738395377315300 -101.688368954646876 -13.211605719539449 19 21 18
-112.738099298095477 -101.126134789686361 -13.106675836605007 19 21 18
-112.737836878968835 -100.563356316131916 -13.001735453639100 19 21 18
-112.737608220972888 -100.000032874374611 -12.896784529095527 17 19 14
-112.724116412572570 -99.449550062900968 -13.352340899787407 19 21 16
-112.710672295719050 -98.901239917544146 -13.807852090663005 23 25 20
-112.697275781534913 -98.355101788982992 -14.263318150924704 21 23 18
-112.697203637636861 -97.793670295186686 -14.158272875802368 24 26 21
-112.691857770575979 -97.239220197741389 -14.277396438585470 24 26 22
-112.678593432875161 -96.697418990325744 -14.732754623962592 25 27 24
-112.668028220345747 -96.153478518634003 -15.075984692710932 27 29 26
-112.670759320813872 -95.588260109384350 -14.858778450795199 27 29 26
-112.678821298682294 -95.012241837636026 -14.417415333973025 26 28 25
-112.684263932872128 -94.439164673812400 -14.088133912807479 23 25 22
-112.671211940101358 -93.902221570456376 -14.543340506192351 25 30 26
-112.666144577230199 -93.350439690829418 -14.662303368219341 24 29 23
-112.653186158218617 -92.817012072226944 -15.117429009587909 25 30 24
-112.653492012463076 -92.254688435461034 -15.012212084725604 17 22 16
-112.648551743941482 -91.704777392178698 -15.131094887793125 0 2 0
-112.648935930388078 -91.141885783836685 -15.025846335490542 16 20 18
-112.630880506029769 -90.627632825547423 -15.704930762175820 25 31 29
-112.639266493045483 -90.043630062113024 -15.263494828872183 4 10 8
-112.642410729299371 -89.472580524409580 -15.046150966947152 6 12 12
-112.624500260486855 -88.963178413362598 -15.725116115188598 8 14 14
-112.598738055580839 -88.481371152374678 -16.740130114170995 10 16 16
-112.588845174316589 -87.954115246582802 -17.082866799328229 11 17 17
-112.589537006489493 -87.393833714300129 -16.977444203540728 10 19 18
-112.585006129546670 -86.850852818382904 -17.096059819591915 8 17 16
-112.583154359502771 -86.299192050507656 -17.102624221447883 9 15 13
-112.578717719474909 -85.756986248448584 -17.221186776451589 12 18 16
-112.571699543608673 -85.225050570997340 -17.451737498720206 15 17 17
-112.562103050538042 -84.704200222228437 -17.794266457165207 29 26 26
-112.565701988165188 -84.133497910533805 -17.576701493490049 23 17 18
-112.556208552310693 -83.614503222982705 -17.919162048463022 17 9 10
-112.554650285152150 -83.064606304367928 -17.925567883358184 20 15 15
-112.553142718172481 -82.514682339922487 -17.931949741857835 21 20 18
-112.543810507406533 -81.998871670197857 -18.274300392606023 24 21 22
-112.529285523037288 -81.507969736388489 -18.840596620155850 16 14 15
-112.522692695930402 -80.983984564093674 -19.070862018492392 14 14 14
-112.529273617047153 -80.400071855853469 -18.741147580464684 12 13 12
-112.530660357095357 -79.839431558807306 -18.635396236077497 12 13 13
-112.537346504756229 -79.252730222297174 -18.305660162783425 12 14 13
-112.544086533832512 -78.664360268420410 -17.975915488721768 12 15 14
-112.540397282184358 -78.127463242082229 -18.094065849791036 11 14 13
-112.531527324994300 -77.618188631558652 -18.436128081072241 11 15 14
-112.533201400989000 -77.055187066665496 -18.330263581869247 12 18 16
-112.542795393294611 -76.449292384436859 -17.888475087493362 11 18 16
-112.539352443345834 -75.913051324035337 -18.006500866486988 12 20 15
-112.522879748071730 -75.450547153557707 -18.684295444734147 13 21 17
-112.506476501261560 -74.991265897026011 -19.362023624001949 13 22 19
-112.511089552446123 -74.413670782062468 -19.144044462963706 13 22 19
-112.523622914411504 -73.788544742629909 -18.590188857318083 14 23 22
-112.528369346714896 -73.207854863421034 -18.372177743172841 15 24 23
-112.525332545775740 -72.674051182182978 -18.489984132704279 17 26 25
-112.527602490438852 -72.108175548699450 -18.383864156204623 17 26 25
-112.529945133956119 -71.541699702305593 -18.277715579115352 14 22 24
-112.529744829634097 -70.991448530997246 -18.283475415745187 17 25 27
-112.524386205618796 -70.475337139611995 -18.513069326770847 17 25 27
-112.526956120034185 -69.908139583260976 -18.406819452986042 19 24 28
-112.532221797642322 -69.322689591941767 -18.188608931892105 16 23 26
-112.540185009825265 -68.718167126291959 -17.858445357142926 16 24 27
-112.553465022624010 -68.075561994324246 -17.304412477378122 15 25 27
-112.556360408142879 -67.504011259955220 -17.198051708781321 15 26 28
-112.564576451119294 -66.894373064724093 -16.867819839421628 14 27 29
-112.572880686545830 -66.283024731560772 -16.537563382404983 16 27 29
-112.586511184833014 -65.631401663942881 -15.983455657725756 17 26 31
-112.597616848076783 -64.996525702302151 -15.541242304022518 17 27 29
-112.608817662805507 -64.359385861464261 -15.099006733420936 18 28 30
-112.614877707451413 -63.760178798485263 -14.880557798308530 20 30 31
-112.631513846605770 -63.078303007277370 -14.214464706902021 21 31 32
-112.663974166441349 -62.269187694299148 -12.876957812492748 29 39 40
-112.701788819400065 -61.411589538427016 -11.315670711887179 37 45 47
-112.763313224358328 -60.355521492092890 -8.747353933196194 40 48 50
-112.840703316576537 -59.157998723117750 -5.507749819101122 40 48 50
-112.871036662547752 -58.335818768512077 -4.282253827537772 37 45 47
-112.885758546950868 -57.639591090804998 -3.728083125140756 33 42 43
-112.884858309896543 -57.074230879883437 -3.845192217045849 32 41 42
-112.907697267587224 -56.306279493281814 -2.955299968016163 40 48 50
-112.789885666430280 -54.528495709722826 -8.462045616854596 176 185 182
-112.516872755784533 -53.877038292084691 -20.793837177213618 126 132 128
-112.583397294905339 -52.709091677258321 -18.113421088866261 130 136 132
-112.599949434860989 -52.024073269414757 -17.558259415840752 104 110 106
-112.582297239336910 -51.679255584445890 -18.457124626689478 95 104 101
-112.596498263933981 -51.018674714837907 -18.013695056255614 71 80 77
-112.573802776813238 -50.732909294134537 -19.136082875736832 60 69 66
-112.617434568744699 -49.772087669694017 -17.462216521882681 42 51 48
-112.677179947956773 -48.637921406708472 -15.117272497028807 34 43 40
-112.686760708235582 -48.019572364434609 -14.897336301634567 33 43 37
-112.664646082054119 -47.736417258033825 -16.019419369957035 27 37 29
-112.711734600404270 -46.722406945153644 -14.233587943002192 20 30 22
-112.692568501752447 -46.414139666415743 -15.243660053145845 15 25 17
-112.708129751475909 -45.735395835516613 -14.799766716158786 2 12 4
-116.381638988826410 -1.692090157826084 137.604927787062906 20 32 28
-114.256501136633617 -2.120435139932237 24.403486753499635 119 119 107
-114.297667969185852 -1.136675838827303 25.189066690843333 122 123 111
-114.260931536873102 -0.944863951837264 22.176327798583202 125 126 113
-114.006205720931575 -3.089441019129833 8.440900205242201 121 123 109
-114.091981587824961 -1.489789053548318 10.793505648000973 119 121 107
-114.022019063594257 -2.251185172832300 7.331247816434114 120 122 108
-113.966967483898500 -2.799926786266854 4.428228794567588 120 122 108
-113.923330654151755 -2.659251384634903 0.193267415234970 112 114 101
-113.917306374457240 -2.499825546693877 -0.919844478964706 106 108 95
-113.889971245011608 -2.677017584916177 -2.815698628179490 103 105 92
-113.987451887054121 -0.708627707030574 -1.126442575202219 94 96 83
-113.954674417409876 -0.995181285735073 -3.245492377879458 92 94 81
-113.831271422448452 -2.699452115149310 -8.608211508062425 91 93 80
-113.826397142094507 -2.575351454845519 -9.720409626720198 89 90 76
-113.934397293947598 -0.513896937841102 -7.805361267548506 81 83 69
-113.882680917012365 -0.522698763623251 -14.592403583539891 75 79 64
-113.828038771345149 -1.249224387016677 -17.493396713445122 73 77 63
-113.786204363158021 -1.784253619953174 -19.946798294505697 77 81 67
-113.748219782110368 -2.161622948612048 -23.286852083418893 24 31 24
-113.653246617641230 -3.566150025049157 -27.530467043966638 26 33 26
-112.540778743109669 -146.975335032663963 -16.830903205048003 194 199 202
-112.496260750952743 -146.134784294062257 -18.412877059796443 203 207 210
-112.475431499652458 -145.483796935200246 -18.983837066736896 29 34 34
-112.470373800756931 -144.955208251726702 -18.880838796490877 15 21 21
-112.457622054181243 -144.367224363433706 -19.114709371724274 68 74 74
-112.457973690564586 -143.877332973684133 -18.787007193497345 19 25 25
-112.442858707208501 -143.271270966406718 -19.133053305186820 154 160 160
-112.422694390419153 -142.629283354000563 -19.703602570825097 185 191 191
-112.374235299328618 -141.785974049764718 -21.509207998937256 135 139 142
-112.356967139807125 -141.170930696356010 -21.967235517151806 106 110 113
-112.342403702205516 -140.576175506818203 -22.312901384487816 133 136 141
-112.343405285346861 -140.089585536183989 -21.984854290794260 114 117 123
-112.321340914054403 -139.444241245363372 -22.667205972891651 113 116 121
-112.304545645664717 -138.836643263459962 -23.124930622660571 110 111 115
-112.272480043936000 -138.129783268204932 -24.256135610847792 150 150 154
-112.253375668662912 -137.511699277650848 -24.825931752109966 162 161 166
-112.236948850902323 -136.912794307161846 -25.283390654827400 128 128 130
-112.218077604557649 -136.300042327397705 -25.853020382943726 81 79 82
-112.196769050882409 -135.674259084614448 -26.534809132789690 63 61 64
-112.190873373499642 -135.145158777335809 -26.543075899900884 51 49 50
-112.195242238122745 -134.677261720213721 -26.102366609818773 44 42 43
-112.199666302994061 -134.207247649455184 -25.661652703611963 43 41 42
-112.191443713304210 -133.661420292683403 -25.782063722438750 45 43 44
-112.193452247504780 -133.174064277286078 -25.453542792093572 51 49 50
-112.195518464487250 -132.685131716935075 -25.125010494672438 55 54 52
-112.210299523037378 -132.264227240234931 -24.235400788786421 57 56 54
-112.220050694570403 -131.811720605819630 -23.570240430334280 56 55 53
-112.234892462966158 -131.382750601766134 -22.680684703591027 54 53 51
-112.237143718349699 -130.883954846105240 -22.352165411257289 52 51 49
-112.229364638793612 -130.332250147498002 -22.472424754788307 47 47 45
-112.226694779314272 -129.806257604007271 -22.368257426977380 42 44 43
-112.221570435538894 -129.267481608889312 -22.376254787450307 40 41 40
-112.226563264025174 -128.776808703960199 -21.935481438437904 33 33 33
-112.216536662945089 -128.213550831561548 -22.167793796104291 34 34 34
-112.219122806370294 -127.708773333169546 -21.839175867562176 36 36 36
-112.216744530022808 -127.180009550744799 -21.734897573134930 35 37 34
-112.211918647974258 -126.639816874058198 -21.742766733155861 39 41 38
-112.209652737284443 -126.110316170667346 -21.638442268880794 42 44 41
-112.214935236122045 -125.611450339089515 -21.197614676474984 39 41 38
-112.237728015819911 -125.181201195212765 -19.971691725245961 40 42 37
-112.248057546271141 -124.695818813998329 -19.306593088446931 42 43 38
-112.273363319315123 -124.264587863093269 -17.968619151127399 51 50 46
-112.298669310585694 -123.826858184788932 -16.630712004074866 50 46 42
-112.323975471169504 -123.382629156634110 -15.292871677096429 37 32 29
-112.336858323357220 -122.888163034000144 -14.515786158523952 20 14 10
-112.334868062664171 -122.339065682888545 -14.411531542374831 19 14 10
-112.332925180263317 -121.789453364283659 -14.307259561432176 17 13 10
-112.328550610458279 -121.231393902272913 -14.315096727019608 17 16 11
-112.326702057950286 -120.681020550137006 -14.210787452680023 16 17 12
-112.327372391957539 -120.137516054856704 -13.994343562150902 16 16 11
-112.330554648386311 -119.600063261843957 -13.665776798413361 15 18 12
-112.331302185418380 -119.054159369069509 -13.449320672425500 16 18 12
-112.327152547800196 -118.494048744769657 -13.457071344869604 16 18 12
-112.325514786854811 -117.940259068885211 -13.352696394505557 16 18 13
-112.323918297462697 -117.385946561458013 -13.248307081739597 18 20 15
-112.319900427849447 -116.825355521312716 -13.255999661983452 17 19 14
-112.313466326530815 -116.259301047834086 -13.375763281977356 19 21 16
-112.311995508124866 -115.704230724373488 -13.271321649223552 20 22 16
-112.313019673175006 -115.153572962210930 -13.054782119305770 19 21 13
-112.311623855624433 -114.597177245553809 -12.950318249337812 19 22 14
-112.305360561054798 -114.031463720844798 -13.069996646411482 20 22 16
-112.301592426084184 -113.470432288781439 -13.077574287633581 19 22 15
-112.292966656189733 -112.901713146058981 -13.309272708061400 22 24 18
-112.286834863480451 -112.337674487335235 -13.428870954858866 23 24 19
-112.283191133324621 -111.777499725416135 -13.436380263107850 24 25 20
-112.286916923959168 -111.226442856471849 -13.107693508057025 20 21 15
-112.283344901293034 -110.665475799205993 -13.115176667182737 18 19 13
-112.274930404130089 -110.099536530470559 -13.346745400820566 16 17 11
-112.268998641523567 -109.536914368283476 -13.466233373192097 16 17 12
-112.260670509965991 -108.972897629912268 -13.697741000249493 27 28 24
-112.245080313097461 -108.404949866201264 -14.265339893239400 26 27 22
-112.227109403447457 -107.838325091790423 -14.944922977790497 27 27 23
-112.214057728725876 -107.277234067689250 -15.400377985700800 25 25 21
-112.208345344741630 -106.720904789050081 -15.519696232279784 27 28 24
-112.209957506807285 -106.166889594960608 -15.302909966338774 26 29 22
-112.216452699401941 -105.612424604721156 -14.862074535467059 26 29 22
-112.213268197578060 -105.055611533120967 -14.869329546888935 26 29 22
-112.207694547460250 -104.499029870383310 -14.988584021578049 28 31 24
-112.202158673845190 -103.942995256747977 -15.107814793066495 30 33 26
-112.206344378595546 -103.384422106019457 -14.778985385543450 28 30 26
-112.208136171981479 -102.825262853370390 -14.562166134973410 31 33 30
-112.222046754814258 -102.258442572349239 -13.785333731283004 26 28 25
-112.223888609342936 -101.695751158744017 -13.568526889941012 17 19 16
-112.223344203346969 -101.133831154831725 -13.463712571867603 18 20 17
-112.218004197157526 -100.575628168686663 -13.582871961198549 19 21 18
-112.219938702955645 -100.010760382623687 -13.366043198301924 18 20 15
-112.212258737002145 -99.455500828972092 -13.597150603054473 20 22 17
-112.204619185740299 -98.901326429388348 -13.828227503521134 23 25 20
-112.194611860346811 -98.351454673395210 -14.171251734664821 21 23 18
-112.194275198134534 -97.789250572024329 -14.066340957035237 24 26 21
-112.184348934914269 -97.241545964409227 -14.409304100766207 23 25 22
-112.169657448156499 -96.703535275292111 -14.976164896571760 24 26 23
-112.159820408433262 -96.159626577471258 -15.319046282881146 26 28 25
-112.162035339069504 -95.594455272413271 -15.102086489976585 27 29 26
-112.164281331338401 -95.028189503453405 -14.885123103160254 26 28 25
-112.166558794508717 -94.460828567861100 -14.668155933872782 22 24 21
-112.159276091254696 -93.913944703313405 -14.898987074336105 23 28 24
-112.156828960363484 -93.356809188241357 -14.905892649103919 23 28 22
-112.142441079949322 -92.829349257510714 -15.472499596419027 24 29 23
-112.142469613634916 -92.267344243047788 -15.367412061022122 17 22 16
-112.135354047718039 -91.724226934600750 -15.598124472502093 0 2 0
-112.145027291312161 -91.134915714549351 -15.045268477753950 0 4 1
-112.123643973019256 -90.634194309427187 -15.947523440256958 23 27 26
-112.121438106533134 -90.079436952216255 -15.954289115386786 6 10 9
-112.121661355767060 -89.517096764423314 -15.849111878846429 6 10 10
-112.105207579579044 -89.009081821584971 -16.527365871510199 8 12 13
-112.081646570504645 -88.528652250925447 -17.541312644693164 11 15 16
-112.072460890806411 -88.002794352732664 -17.883696616650781 12 17 17
-112.075248022226091 -87.435268383457739 -17.666487322594492 13 17 18
-112.073306147576488 -86.884493174488668 -17.673085714682287 13 14 16
-112.073790839846168 -86.324498286425396 -17.567759263341486 19 16 17
-112.071935790760904 -85.773411771321406 -17.574319322807327 14 8 10
-112.065363236238355 -85.241793223444773 -17.804653596978568 21 7 11
-112.058839889733662 -84.711240763904797 -18.034953356419919 75 49 58
-112.052366391680067 -84.181753473236739 -18.265218304214869 121 92 99
-112.053079490019499 -83.621648509931319 -18.159783717252964 102 73 81
-112.053838978604404 -83.060974431736881 -18.054332795542081 42 16 20
-112.061777134264887 -82.466415816359998 -17.613219759910606 22 1 3
-112.065006310350967 -81.892407051252860 -17.395865723875289 23 7 10
-112.056405154624912 -81.375526390310085 -17.737877654355430 13 1 2
-112.043110082586367 -80.884091120821623 -18.303590985954060 10 2 2
-112.032248653714944 -80.383153342694897 -18.757379000177963 11 4 4
-112.030940341588163 -79.834499525690219 -18.763652461573344 12 6 5
-112.034432377740274 -79.260337722365364 -18.546174249482647 13 5 5
-112.035605029705010 -78.698062742840847 -18.440542150708694 9 4 3
-112.027345724268358 -78.188335561610486 -18.782316906821848 11 8 7
-112.026261121962605 -77.639542445204214 -18.788484780084389 9 9 7
-112.034718264634179 -77.035405691980955 -18.347222055430251 12 15 12
-112.050342221182675 -76.386755464000586 -17.570412296379033 14 18 14
-112.047062060100828 -75.849219644330773 -17.688373525344247 12 18 14
-112.034367389189924 -75.370758653168110 -18.253666076336970 12 18 16
-112.021740160985971 -74.894976772138961 -18.818898785543325 13 19 17
-112.023393293044080 -74.330745552255706 -18.713056963304410 15 21 20
-112.034585002467324 -73.704081664376474 -18.159859029482732 15 21 21
-112.029264280756138 -73.184773697880189 -18.389467712129488 18 24 24
-112.019277435183255 -72.698515120527048 -18.842686228313454 16 25 24
-112.023567768645194 -72.116719141492098 -18.624904695931718 19 25 25
-112.037398029546893 -71.467579848276472 -17.959816953844353 19 24 27
-112.037095292335607 -70.916049876897787 -17.965638957348801 21 26 29
-112.022663651195074 -70.467032329995632 -18.642318277703026 22 26 29
-112.022510901333177 -69.917020979387843 -18.648052895847172 18 23 26
-112.027168954023466 -69.331668414557328 -18.430132057571370 17 22 25
-112.031905199871375 -68.745162459121048 -18.212185684385844 16 24 26
-112.029620116954959 -68.212057045707084 -18.329625266970368 16 25 26
-112.032150590736137 -67.642513810654279 -18.223418406699068 14 26 26
-112.037131496427875 -67.053625256431403 -18.005379514369139 15 26 26
-112.044565032480406 -66.444570902578008 -17.675515983867058 15 26 28
-112.044983042335133 -65.891635187103674 -17.681007654475820 16 26 28
-112.057328581834796 -65.240877988378926 -17.127505736852584 14 25 27
-112.060293892990785 -64.666601936467231 -17.021139569133169 15 26 26
-112.056245817164637 -64.151984031631997 -17.250091145189998 16 26 26
-112.052289530286359 -63.638374764539869 -17.478988427313851 18 28 29
-112.067381368335646 -62.960645478347232 -16.813591442203432 19 30 31
-112.082575615681094 -62.279551964634003 -16.148180094520740 21 31 32
-112.102615673330916 -61.552717058528074 -15.259203597087861 20 30 31
-112.153588092671384 -60.542438343627303 -12.917181289397206 23 32 34
-112.171488016370446 -59.824854705752138 -12.139992281679753 23 31 34
-112.156292059795092 -59.411435308355728 -12.927529703202822 23 33 34
-112.122210439603862 -59.179975332938866 -14.609100041089846 30 40 41
-112.097710365218276 -58.866396734252788 -15.843496348866552 31 41 42
-112.104172876473228 -58.261981392622339 -15.624908486536441 28 38 39
-112.058490655301654 -58.164556606954733 -17.864943245229739 36 46 47
-112.055661204102620 -57.657238626441334 -18.093236693653864 51 61 60
-112.083850243460518 -56.843490837155628 -16.868679734510692 49 59 58
-112.100287715345758 -56.143207061967431 -16.202871167471301 55 65 64
-112.081164405177248 -55.802427183950265 -17.213257476268495 62 72 71
-112.062142601464828 -55.466447860975698 -18.223545810200363 84 94 93
-112.136123488749234 -54.170348154979514 -14.875728465072967 27 36 35
-112.086373306538249 -54.158484853288833 -17.338546364887691 53 62 61
-112.105850608720402 -53.425147268985782 -16.560764907995406 18 27 26
-112.084913887597423 -53.122409855040274 -17.682486041104283 17 26 25
-112.123772924535402 -52.179077286725139 -16.010722933238924 16 25 24
-112.138921814810814 -51.488488806483375 -15.456289905603825 23 31 30
-112.130316863915823 -51.058863220252725 -16.019123261203504 20 31 29
-112.105088105816208 -50.818444023569313 -17.363973987214791 25 36 33
-112.111086922972731 -50.234304915928504 -17.256258126010096 23 34 31
-112.131611684366248 -49.486202735005648 -16.478127547631601 27 38 34
-112.149912669548002 -48.761574282218369 -15.811678074214996 29 40 36
-112.168388041005088 -48.033479677659528 -15.145180853843357 25 37 31
-112.179835085017629 -47.386010548209356 -14.813792697473559 20 33 25
-112.210686097869996 -46.510254368364116 -13.588600542849463 17 30 22
-112.210460011041221 -45.999833233155890 -13.815680493012593 12 25 17
-112.212796313053971 -45.461464114879639 -13.930963402846203 10 23 14
-112.224938033875731 -44.806921572093877 -13.599315725668816 7 20 11
-112.324155472290514 -43.091867986585939 -9.246007839446150 10 21 14
-115.675498341914675 -0.561681277875553 145.015598599991080 20 32 32
-113.567105741971659 -1.838685010686610 17.973543493497402 127 127 114
-113.492222568735116 -1.571174661895219 10.396561847101140 119 121 107
-113.403880697404333 -1.548669438853093 1.152780292701266 111 111 101
-113.403522006913889 -0.554907869877480 -3.846270412073636 91 93 80
-113.384112287888058 -0.710940555586271 -5.627691991034141 89 89 77
-113.325250131464102 -1.394046100228606 -9.972316408269506 82 83 70
-113.332201787450401 -1.130304593440238 -10.747717778138991 79 81 67
-113.316537665238627 -1.015477621717131 -14.525595499513173 72 78 64
-113.339391870086217 -0.514017424178359 -14.741541677817963 71 77 65
-113.124224920955697 -4.104480408334910 -23.897946933040657 76 82 70
-113.164811560038899 -3.318368791341538 -23.443186726122974 68 74 64
-113.290310449870390 -1.080373661049958 -19.858700978094930 25 30 24
-113.244846046260534 -1.788260651444721 -22.644636479550769 24 29 23
-113.107931915992751 -4.079730001866732 -28.783787155635366 27 34 27
-111.998176049457811 -146.196540548990811 -18.317946730783063 197 202 205
-111.983454001928195 -145.585254143488640 -18.663858640675471 178 182 185
-111.982979431350842 -145.095271995715109 -18.336552651244489 10 14 16
-111.975547209321647 -144.544798504478592 -18.345774500967138 23 27 28
-111.979947197518271 -144.091324442097374 -17.794042973423331 46 50 51
-111.972711219299924 -143.539688747636717 -17.803182903921169 11 15 14
-111.958566525157124 -142.931652648659735 -18.148785152894476 154 158 157
-111.916534448437829 -142.102634358590734 -19.840309929852907 191 195 196
-111.886359796545321 -141.373334129044849 -20.970841282724649 130 134 135
-111.861005518617915 -140.685611108700925 -21.876920840272504 127 131 134
-111.856716930117628 -140.162007623568030 -21.773503315098822 123 127 130
-111.847873606713719 -139.603006601436533 -21.894346893962137 109 113 116
-111.834493387366663 -139.010243247430452 -22.239426210777168 112 113 117
-111.814279231116373 -138.368430481663722 -22.920856404578927 116 116 121
-111.791879817676161 -137.713319210053868 -23.714327791051602 119 119 124
-111.767302016803256 -137.045724919364886 -24.619828689511962 168 168 173
-111.749772622138707 -136.430876846855170 -25.188838056519614 160 159 164
-111.725449747725833 -135.771333032967192 -26.094134131433407 109 108 113
-111.719647358073132 -135.240683809441066 -26.102372213787362 72 72 74
-111.707035380365582 -134.664243166319721 -26.446915988572385 60 60 62
-111.705983906405663 -134.164565067385979 -26.230844677958771 49 49 49
-111.693544920937484 -133.590156486157127 -26.575284776815607 44 44 44
-111.697209548359027 -133.118715820201174 -26.134948867542676 39 39 39
-111.696355076822599 -132.616761874148409 -25.918806738082594 44 44 42
-111.704688806094779 -132.169463876322396 -25.254270864036386 48 48 46
-111.703943014392294 -131.664349510621577 -25.038109274303395 50 50 48
-111.723744497916584 -131.278596847377287 -23.813159324282225 55 55 53
-111.723090103560153 -130.768954257853125 -23.597000621654729 57 57 55
-111.720220615024175 -130.245438595521762 -23.492903299918169 58 58 56
-111.719680128258005 -129.733986525856380 -23.276708730178029 59 59 59
-111.723726013826521 -129.246067669772486 -22.836360046603346 62 61 62
-111.727814776004649 -128.756015053252554 -22.396012814873671 55 54 55
-111.727423169143833 -128.240340427990958 -22.179790486383155 50 50 49
-111.729341286316028 -127.735090002705959 -21.851497007384751 50 52 50
-111.724535568827903 -127.194649812914989 -21.859359068525805 44 45 40
-111.713026641037231 -126.621468838118062 -22.203341594607991 45 45 41
-111.712847167363293 -126.103231794953018 -21.987044158582705 43 45 40
-111.710465360697953 -125.573560320289303 -21.882776896379568 40 44 39
-111.726109562593450 -125.124260844989749 -20.882187664740286 42 43 39
-111.726054367024162 -124.601230909774117 -20.665880110141330 48 47 43
-111.741740295694584 -124.144106065252686 -19.665351467012471 55 48 43
-111.768639396872487 -123.728583028796479 -18.104735827679832 58 41 37
-111.802242423785401 -123.332536162141309 -16.208135920493504 72 54 49
-111.822407734289939 -122.874771130064104 -14.983753176380361 77 61 52
-111.826940694108103 -122.351707864988057 -14.543533237210994 21 7 4
-111.827043400138905 -121.810085659322596 -14.327341522607526 19 7 0
-111.827186662203445 -121.267402370565335 -14.111141328397821 24 16 8
-111.827369723297750 -120.723657020791705 -13.894933026796281 20 14 7
-111.825366566740655 -120.171459553217062 -13.790716491040428 19 16 9
-111.821182579107344 -119.611625118604266 -13.798480753454839 18 16 11
-111.821486750140778 -119.065503987132431 -13.582238968387998 16 19 12
-111.819608600765505 -118.511744015746828 -13.477978713261507 19 20 14
-111.824422515394247 -117.976364532210923 -13.037751143297555 19 21 16
-111.824833616880142 -117.426771443086523 -12.821493941673083 18 21 16
-111.818639577478748 -116.858838739016321 -12.941162050439686 16 21 15
-111.808068474019564 -116.280498432127587 -13.284749032173295 18 20 17
-111.808598213516362 -115.729873544417757 -13.068445695352267 19 20 15
-111.809161224122732 -115.178177841061952 -12.852137464189838 19 20 15
-111.811962908904079 -114.630079825485652 -12.523862341247536 19 20 15
-111.799364671145412 -114.049584257944815 -12.979300167182686 20 21 16
-111.791224523713595 -113.479529577254496 -13.210780014852105 17 18 13
-111.780929515857537 -112.906722951949149 -13.554177952431161 14 15 10
-111.770683043447065 -112.335560911062572 -13.897535742285783 17 18 13
-111.769272282037946 -111.779281310474843 -13.793077826167462 17 18 13
-111.770090116086692 -111.225507266378713 -13.576669081749003 15 16 10
-111.779711522490615 -110.681719972081453 -12.912510400177410 15 18 11
-111.778389546888533 -110.122210356103551 -12.808043257404364 18 21 14
-111.770529596880152 -109.555500305195295 -13.039354631632392 22 25 18
-111.751769435725578 -108.980135735467059 -13.830264139422127 27 30 23
-111.726506968650853 -108.403550791009209 -14.956873544767660 25 28 21
-111.712237629607301 -107.839443113952768 -15.523801015960572 24 27 20
-111.704569283621325 -107.281464737540333 -15.754930847968978 23 26 19
-111.703487037128582 -106.727168152113549 -15.650295359269506 24 27 20
-111.704615558197688 -106.172924263155821 -15.433742819594613 25 28 21
-111.707949991640746 -105.617916867157646 -15.105283953242292 26 29 22
-111.700422010941878 -105.061047204792445 -15.336335222427806 27 30 23
-111.690757534994020 -104.505493541461675 -15.679253922298528 27 30 23
-111.685483533032425 -103.950580967706443 -15.798347865565461 23 26 19
-111.688936175447637 -103.393140755391485 -15.469857490646575 21 26 20
-111.694583826171453 -102.833031040056099 -15.029485624891834 28 33 27
-111.708931444981559 -102.265499070330293 -14.141592585536785 22 27 21
-111.716783612920608 -101.698370359384739 -13.589379451430119 18 23 17
-111.720320514070295 -101.132235110061814 -13.260938269805365 16 21 15
-111.715220043126237 -100.572979393118402 -13.379993902582953 19 24 18
-111.710155424135024 -100.014266391522085 -13.499026797467508 19 24 18
-111.696476071048963 -99.466781428432213 -14.065500915455289 19 24 18
-111.691488750246236 -98.910239485207669 -14.184474483356951 20 25 19
-111.686537369188926 -98.354238451157812 -14.303425289957715 22 24 19
-111.690256356181280 -97.784829470543215 -13.974930697250755 22 24 19
-111.685371885495158 -97.228820970905630 -14.093849571006388 23 24 19
-111.667588104971117 -96.697536283015509 -14.883838245281652 27 28 23
-111.652011043266029 -96.165749796080433 -15.561917513187126 28 29 24
-111.651557073132039 -95.605198127575719 -15.457045845943554 28 29 24
-111.659743374015733 -95.024710540969878 -14.904810373399584 24 25 20
-111.657197455637288 -94.467088395464572 -14.911768216894160 22 23 18
-111.646087923073623 -93.931019034853747 -15.366036550101086 22 27 20
-111.641468775301576 -93.380130050070875 -15.484775796545819 25 30 23
-111.636887688995387 -92.829775623041797 -15.603491332044314 26 31 24
-111.636637194804678 -92.267543393700947 -15.498539621463834 11 18 10
-111.634275934301201 -91.711234482910712 -15.505395607479358 1 8 0
-111.638383023589896 -91.134665286555077 -15.176789051661757 4 9 3
-111.618951327986750 -90.633689671579603 -16.078112981269300 24 29 25
-111.610283123414519 -90.100584512793205 -16.420323994594355 13 16 13
-111.601659768783108 -89.569097332212877 -16.762496897199014 5 10 9
-111.588802762764473 -89.054902077814432 -17.328234939473589 10 13 12
-111.569580361159083 -88.567738928054666 -18.229316564906782 14 13 13
-111.556826335336126 -88.059767385695139 -18.794941278014221 17 10 10
-111.563350059583669 -87.476620155794180 -18.354387438399158 16 4 4
-111.574177612100698 -86.873429468524051 -17.690263209626949 16 0 0
-111.576497555032134 -86.303745192296560 -17.473299633479741 35 11 12
-111.566055267949181 -85.789768254780853 -17.927021350326640 107 75 78
-111.555663578362470 -85.277947013985113 -18.380696671835494 122 85 92
-111.547454650444607 -84.758267564109659 -18.722549771217075 119 80 89
-111.543557165403897 -84.219627926649665 -18.840817687999277 121 82 90
-111.546096545825648 -83.649837935879503 -18.623750221881721 132 92 100
-111.548678726567502 -83.078935797291763 -18.406673728133967 131 94 101
-111.553433001209314 -82.495819186345585 -18.077824956889259 129 94 101
-111.551847932049910 -81.945163914405398 -18.084251419881497 124 92 97
-111.543931464100353 -81.429417462759531 -18.425924123090198 119 89 94
-111.531817161701625 -80.939110080430979 -18.991060968631331 114 88 92
-111.517635325487504 -80.463683830619445 -19.667892621210683 113 88 91
-111.526884263524394 -79.854414026980223 -19.115445056513920 119 94 98
-111.529807058071128 -79.280592629280378 -18.898235663689974 102 79 81
-111.532780854041803 -78.705649647768638 -18.681013416985195 96 75 76
-111.523070378889813 -78.209252517991203 -19.134204079720377 115 97 98
-111.517664601782954 -77.687896649479754 -19.363874532661129 100 87 88
-111.525047477010745 -77.084657606073023 -18.923116493291701 11 9 8
-111.538847291674330 -76.436918356838163 -18.147170020303747 17 17 15
-111.542096230666800 -75.857163022054991 -17.929865682090167 11 16 15
-111.536923146807155 -75.334834451071330 -18.159434827894245 12 17 16
-111.527574022696783 -74.843375386927505 -18.612401791539497 13 18 17
-111.522529579545989 -74.323682899940167 -18.841882261532504 18 22 22
-111.534502213540478 -73.681384669298041 -18.177612783296411 16 22 22
-111.523231173664826 -73.208784881864858 -18.742163941767160 18 27 26
-111.522621407517804 -72.658855395152628 -18.748116352269392 17 26 25
-111.530551657340013 -72.043782201555928 -18.307218265623135 19 28 27
-111.549138273117947 -71.343748729069830 -17.307802324259171 24 30 30
-111.544498189303710 -70.823757193027731 -17.537092428393777 23 28 31
-111.525108975990634 -70.424434276489336 -18.548208557248927 20 25 28
-111.520617076470074 -69.908416430595580 -18.777386867336446 18 23 26
-111.522552106135564 -69.340522134969504 -18.671447892127219 17 22 25
-111.528797654338447 -68.736204820659850 -18.342103930212602 17 25 27
-111.524535064787713 -68.221093118255439 -18.571163211806464 19 27 29
-111.528820581072253 -67.633192447655233 -18.353446822602905 18 26 28
-111.531069997416225 -67.062859948147477 -18.247382543541733 17 25 27
-111.533402178474063 -66.491912517420971 -18.141284999921055 15 25 27
-111.531583821518041 -65.958891178729445 -18.258500436982587 14 25 27
-111.540439464108630 -65.328619371100430 -17.817316092577244 14 26 27
-111.547266507161325 -64.715906134059736 -17.487780368970107 14 26 26
-111.535120609086349 -64.282287852418705 -18.163207685303433 14 26 24
-111.535773228093376 -63.729685365161806 -18.168583689612461 15 27 27
-111.538637376346728 -63.156363718781712 -18.062256093703269 18 30 29
-111.545835372234635 -62.540592663007281 -17.732574383195697 20 31 33
-111.544653223559934 -62.007822773205625 -17.849482872106393 20 30 32
-111.556289966960804 -61.346778328696821 -17.296425931896010 20 29 34
-111.568032257368941 -60.682909235341000 -16.743347573888656 21 31 33
-111.562911016671833 -60.192221798471557 -17.083425104933355 22 34 34
-111.547279406666775 -59.814446190406315 -17.981662927054884 25 36 36
-111.548725052956101 -59.260559133773668 -17.986672772548218 25 36 36
-111.552401804945433 -58.683746494053175 -17.879992364345327 25 36 36
-111.560438513005451 -58.060090937315088 -17.549990575938693 23 34 35
-111.562216099028561 -57.504787592419461 -17.554856201167723 22 35 32
-111.568359852260969 -56.902088036149131 -17.336403170142404 16 29 27
-111.572496102519466 -56.322092238189285 -17.229535705389395 16 29 27
-111.568239348268037 -55.838182432384613 -17.569129903520320 17 30 28
-111.574742929271693 -55.233481125244836 -17.350525337149918 19 32 30
-111.587764854454818 -54.553351308528498 -16.797002186046655 19 31 29
-111.605186930832019 -53.820334730716120 -16.020200637853719 20 29 28
-111.592891225766039 -53.437316789889472 -16.806037651531057 20 29 28
-111.589243731789963 -52.955766841708474 -17.145316090434648 19 28 27
-111.613484719290653 -52.139914354921615 -16.033528415396347 24 33 32
-111.633614178886191 -51.370646979412264 -15.144945927102896 21 30 29
-111.628238632266658 -50.913397046271541 -15.595659813126190 19 29 30
-111.610146648124342 -50.618108659472441 -16.715943357235943 20 30 31
-111.611441715836591 -50.085798449123217 -16.831662022606821 19 29 28
-111.625739826485329 -49.390663868518452 -16.277682800323703 22 32 31
-111.625181530344079 -48.884957146103666 -16.504873150464050 19 30 26
-111.641944996627586 -48.158171073798250 -15.839181430279694 17 28 24
-111.654583557388236 -47.483968697802588 -15.396639550197591 15 26 22
-111.678150390708154 -46.665889575352303 -14.396056193008462 16 27 23
-111.682527892907629 -46.099858950958989 -14.399788448527318 12 23 19
-111.684909159896804 -45.562491036469154 -14.515039541376780 16 27 23
-111.687448248964216 -45.025481171900886 -14.630211447097281 14 25 21
-111.696629469371572 -44.400624916390647 -14.410533372222801 12 23 17
-111.744923318969555 -43.240313792550822 -12.182195726991068 14 25 19
-114.782011526905094 -0.737193182026777 144.035669777903621 21 32 34
-113.027239952516723 -0.882815636984133 21.918071933654232 128 129 118
-112.998665998966757 -0.806760102372682 18.688711711700705 122 125 111
-112.911326887054798 -1.582732093516293 11.781665584385706 120 124 110
-112.752538667032923 -3.153623922235634 -1.359476597666941 114 116 105
-112.824401225128270 -1.632888053083995 0.765567319037416 109 111 100
-112.853756994536596 -0.905246834004328 0.993838811736566 105 107 96
-112.820329215268970 -0.750200648647379 -5.896999756628020 88 89 76
-112.775889829644512 -1.454799234532508 -8.904196512033650 86 86 74
-112.805556185977252 -0.673725510239209 -9.895774177357993 80 80 68
-112.790351736452138 -0.860269822452239 -11.674869898304479 79 79 67
-112.788588887848405 -0.804027999650730 -12.895739898494753 76 81 67
-112.706408937021124 -2.269479095647918 -17.465184162710159 70 77 64
-112.672225692353564 -2.843059585965616 -20.025387510830740 71 79 68
-112.667766241578107 -2.866836272940617 -21.357582770458265 57 64 55
-112.633445266161175 -3.462353537323825 -23.917626202261687 22 27 21
-112.684023427889201 -2.467336720605210 -23.016800911642662 22 27 21
-112.729829142968043 -1.570669396373179 -22.338964152250242 24 29 23
-112.709766217583152 -1.924794399371669 -24.340376928999973 24 29 23
-111.504162909673994 -145.828269730145990 -17.560341755777785 199 203 206
-111.488329351665655 -145.195645047198468 -18.017863939002950 153 157 159
-111.485219393031997 -144.683228478252403 -17.802908523872446 3 6 7
-111.486389636069433 -144.208579911903598 -17.363798940069103 20 24 25
-111.483454809701769 -143.693631734542123 -17.148785801380001 20 24 23
-111.480608718038141 -143.177687332292891 -16.933740466955925 4 7 6
-111.461179686682613 -142.512261575470632 -17.615038120078253 126 130 131
-111.433568459921830 -141.777054031935251 -18.744403946104200 186 190 191
-111.389503819363057 -140.903279833801832 -20.769938444442943 134 138 141
-111.374684751408466 -140.287796368568422 -21.226798855938767 139 143 146
-111.359983418821272 -139.674578320620611 -21.683579624160274 126 130 133
-111.353667145972580 -139.132405367382887 -21.692182166012685 119 120 124
-111.332989110875261 -138.471849995223096 -22.484886089848374 116 117 121
-111.318624315502930 -137.865138656353338 -22.941438882994618 110 111 115
-111.300252117845773 -137.227927273404788 -23.621940525774221 102 103 107
-111.286108916300094 -136.626267813575254 -24.078335307664503 164 165 169
-111.263861629785026 -135.963530168609083 -24.982671304150244 173 174 178
-111.247887933911343 -135.351898348629248 -25.550903323685787 138 139 141
-111.234066671965550 -134.758342822550048 -26.007060672913894 103 104 106
-111.224430709251848 -134.197057507084736 -26.239165846005363 75 77 76
-111.208757797894989 -133.592697325848462 -26.807179120628575 53 55 54
-111.205412474162998 -133.077933836562693 -26.703219346304849 47 49 48
-111.200097238932941 -132.548484508123693 -26.711212024529942 44 44 44
-111.200948829310406 -132.060861210718258 -26.383247323412064 46 46 46
-111.191703336101327 -131.503397531698653 -26.615126359207210 50 50 50
-111.198752613176723 -131.054107648323537 -25.951225466167813 49 49 49
-111.199762301276067 -130.562277710884103 -25.623228432700785 53 53 53
-111.208908950813324 -130.120198925443731 -24.847391051490803 54 54 54
-111.207985730708373 -129.611542956462188 -24.631350798399069 60 60 60
-111.217199492853368 -129.163291407965403 -23.855544850098624 62 62 62
-111.220395937125161 -128.675218549016904 -23.415604121557493 66 66 66
-111.227656865562665 -128.208499969169111 -22.751781377560206 57 57 57
-111.230928269507118 -127.715609082781128 -22.311854382945427 59 57 58
-111.224201880158162 -127.164575999017856 -22.431603209820736 60 57 54
-111.217536887887249 -126.614125456911381 -22.551316668150434 51 47 44
-111.220945194717686 -126.117537815306420 -22.111362232222803 52 48 45
-111.222389204009389 -125.608424086619976 -21.783335331732047 52 50 45
-111.227869140072485 -125.117935743473595 -21.231468167416892 50 47 43
