ply
format ascii 1.0
element vertex 679
property double x
property double y
property double z
property uchar red
property uchar green
property uchar blue
end_header
137.555972413240454 -2.534018981854105 -32.314621396316198 143 140 123
136.418837366411594 -2.200268766270824 -33.326079735203365 140 137 120
134.870752821038138 -2.048609412246077 -34.693361314493529 138 135 118
132.171689807133987 -2.400158666145993 -37.056863349557574 140 134 118
129.883668367238386 -2.592043883226215 -39.064355342231636 142 139 122
128.664577510182937 -2.333956864739084 -40.146686348050196 144 141 124
126.376568184371806 -2.552395430166785 -42.153910809106975 145 142 125
123.924053156298569 -2.858551179983395 -44.303251158876606 140 139 121
122.951853525612449 -2.522087521479465 -45.171924196485293 141 138 119
120.663816600549396 -2.781876383538614 -47.178709814778699 139 136 117
117.882218447267746 -3.279651813099715 -49.612081027507998 144 141 122
116.910209727085572 -2.972396748407536 -50.480544737318127 144 141 122
117.007773217251653 -2.181211139359521 -50.424503962604945 138 135 116
115.953831878751600 -1.920802523734720 -51.364148059539929 146 143 125
113.336765101673194 -2.394078602708110 -53.654764932960546 148 145 128
110.966442667540946 -2.769046186319543 -55.731858738245080 147 144 127
108.842913148869485 -3.043216686380385 -57.595478328606447 145 142 125
108.529817824694220 -2.471393804780210 -57.895016198583306 144 141 124
107.229347189960251 -2.373752925056138 -59.047622729919993 145 142 125
106.752026373344691 -1.888094463237036 -59.489426523414124 146 144 123
104.957902642051963 -2.044071356869702 -61.068413799833394 144 141 122
102.258262663437492 -2.654017076627242 -63.428980012327344 143 140 121
99.723127847733963 -3.200888422088977 -65.647176417260908 143 140 121
98.505198283327900 -3.112422364006257 -66.728316987746723 143 140 123
98.440118646100728 -2.457326729852990 -66.814785225746164 140 139 121
96.893071439032042 -2.545956895299264 -68.180089643390602 139 136 119
94.193092414001470 -3.226992713578389 -70.539761891144593 143 140 121
93.222531755527129 -3.046616733217011 -71.407612318558648 141 138 119
91.757883163635213 -3.125343118876509 -72.701579010924945 141 136 116
90.705153523306308 -3.001453189813884 -73.640397524689774 142 138 118
89.405381479473704 -3.012442054348038 -74.792220078990567 141 138 119
88.105672529182755 -3.031853034845236 -75.943986123954886 141 138 119
86.641225160166442 -3.146229243378000 -77.237682119119341 138 135 116
85.836068743930596 -2.921730739208642 -77.963397774523884 136 133 114
85.525564640850092 -2.439287021824220 -78.263255251152998 137 134 115
83.814101097651871 -2.708457752926006 -79.769762832267986 139 136 117
81.937743281553466 -3.077648582931446 -81.418073771154951 139 136 117
80.555967335013193 -3.191138695931332 -82.640469727564010 139 136 117
81.730181092844219 -1.919900921230861 -81.663270664585838 139 136 117
78.554996852175321 -2.401928905970508 -84.462808163172014 136 133 114
76.183846336253140 -3.093682053277255 -86.536244984020186 133 130 111
74.224930653303858 -3.570765790107937 -88.254808811420105 135 132 113
73.173360624582898 -3.550717770607617 -89.193113182462554 136 133 114
72.946942481567106 -3.070848142539691 -89.422311712849165 133 130 111
73.050875506993918 -2.404274600458046 -89.368035407366733 136 133 114
72.329924740038621 -2.208692558967597 -90.022878220157025 138 135 116
70.453648942133256 -2.682644791142250 -91.670150034526245 137 134 115
68.351882105688716 -2.706245157883848 -93.546760061726587 137 134 115
68.869907456243624 -1.809243946417082 -93.138661588351283 141 138 119
67.406560620964527 -2.075636507146412 -94.431319294403693 143 141 120
65.530248283345202 -2.596260646793058 -96.078093210909458 143 141 120
62.992998539380324 -3.523074662141774 -98.291366900644249 145 143 122
62.685931373149614 -3.130248889076847 -98.591946113560425 146 144 123
62.627018337523708 -2.589592055162397 -98.680186456568578 144 142 121
61.824752230664387 -2.499476379860850 -99.405901556105988 142 140 119
60.609402814517154 -2.666184485175102 -100.485649824822445 142 140 119
220.297852753208076 -2.975891357842098 38.965379999290178 136 137 134
218.003040282420159 -2.616650236324618 36.955463792251948 156 157 152
210.366658367883986 -2.922317577324961 30.301952814730470 161 158 155
207.824773536074588 -2.698616745386075 28.079053707840586 160 156 153
205.365249760153915 -2.464634419899550 25.927506406466051 167 164 159
202.164538503569133 -2.492300732478904 23.135503971851477 164 159 153
196.081233151307572 -3.505233896484302 17.852605546343767 164 160 151
195.021736316139766 -2.861278724250854 16.911671142587579 165 161 152
193.138705630712678 -2.505151244398471 15.259086415782775 163 160 151
189.278897168178332 -2.842185011123653 11.898707220552922 158 155 146
186.572184464521911 -2.803707324265888 9.534850027611526 157 156 146
184.277330827214712 -2.638466887611421 7.526950461001917 153 153 143
182.559139867318947 -2.283988328645420 6.017241717538269 157 155 143
180.264346050401883 -2.146977557650182 4.009604115189063 156 154 142
176.898570242615335 -2.411580094192962 1.077289129814346 153 151 139
174.438988129541002 -2.368278387361134 -1.072267491868359 153 151 139
172.473755594021384 -2.159450814134651 -2.794869788337678 153 151 139
169.931798306917528 -2.177385952321434 -5.015246952435092 153 151 138
167.142633967460313 -2.304516116183450 -7.448813765548721 152 150 137
165.589474726383742 -1.983456430218891 -8.815411350525181 148 146 133
162.965108273551266 -2.080427568621548 -11.106409579878914 148 146 133
159.681435119594084 -2.447860598638497 -13.966084822573890 146 144 131
157.139401263238312 -2.549612002025837 -16.185562593280167 147 145 132
155.339111062090439 -2.378280604766207 -17.764969000321344 145 143 128
153.044335951705790 -2.413562089440227 -19.770842061071704 139 138 120
151.408972743962238 -2.201924148127857 -21.207846102100291 139 138 120
149.114227489972677 -2.265136420278525 -23.213445940421053 139 138 120
147.396523761738933 -2.110332730437204 -24.721332420105824 138 137 117
146.091072439493018 -1.798887792344701 -25.873757000187879 139 136 119
143.136838667722571 -2.172840306746014 -28.447532266087478 138 135 118
139.605381358594428 -2.805104006827176 -31.518519037916548 142 139 122
137.970195778782340 -2.669563813971711 -32.954824743185583 140 137 120
138.231601037851192 -1.747240168174573 -32.756797408962342 138 135 118
136.431715192117139 -1.696589071510719 -34.335155035288778 139 135 118
133.147450196264231 -2.291698963157897 -37.192203550537670 141 135 119
130.687769336544534 -2.553508141171481 -39.338572272551403 142 139 122
129.052818145173234 -2.473753495413551 -40.774415879786602 143 140 123
125.850745221686466 -3.089591903353810 -43.559712546772829 143 140 123
123.803356978820332 -3.218019565609004 -45.350399181812975 144 143 125
122.745884080198437 -2.920651862932383 -46.288734230940520 142 139 120
121.358537761075354 -2.777585014408193 -47.511106209887771 141 138 119
118.651199945472626 -3.237974976395911 -49.869529256097621 144 141 122
116.603839692485423 -3.416767118768110 -51.659710854505107 143 140 121
116.041745790800533 -2.930260566967557 -52.171827109416597 138 135 116
115.644884959351117 -2.371247844904576 -52.542018871350734 146 143 126
114.340438167200048 -2.235446582740508 -53.693116026594794 147 144 127
111.302874760822363 -2.917368192649772 -56.334715485238377 146 143 126
109.668312458588915 -2.959516423095868 -57.769490328160572 145 142 125
108.116328587781268 -2.973226402817625 -59.133204253902164 143 140 123
108.215431323732005 -2.209640310699895 -59.077615753403649 144 141 124
107.819481751737058 -1.682927684327821 -59.447910977626123 146 144 123
104.946801881132785 -2.356291341492700 -61.946760476076065 141 138 119
103.560243107073561 -2.324983200676681 -63.168358825361167 141 138 119
101.926012798770984 -2.424103083213464 -64.602706055206909 140 137 118
101.695758728550643 -1.840949170196502 -64.831132648197809 142 139 122
98.987984562213029 -2.490145167790010 -67.187403470339348 139 138 120
96.114843318937162 -3.239879586619231 -69.685246127069433 138 137 118
94.893638274478363 -3.176701043657835 -70.764559422028896 141 140 120
93.342058737482589 -3.288894722528881 -72.127453037490795 140 137 118
92.781964294252333 -2.905319392591352 -72.639466303698555 140 138 117
91.561035945653444 -2.864618037210279 -73.718680600025607 140 137 117
91.662385517428575 -2.148329509546520 -73.663680120492842 141 138 119
90.689678600480192 -1.989880498950234 -74.530278079894686 140 137 118
87.402806977044222 -3.049337311060286 -77.381299837322445 138 135 116
86.264803879936196 -2.998203699627587 -78.389433789250546 136 133 114
86.201598714384943 -2.384477405364728 -78.476372932676952 138 135 116
84.567815895182363 -2.608995327454337 -79.909643454758566 140 137 118
82.355212035183513 -3.154982717654883 -81.838711122671327 140 137 118
80.390555729706534 -3.581538705971993 -83.555048763429625 140 137 118
79.004737883082953 -3.706280043849803 -84.775395274183495 140 137 118
79.107790934334261 -3.025582710958846 -84.720843375345822 139 136 117
77.639468486401057 -3.208746559559175 -86.011977480303983 138 135 116
76.833008411478403 -3.034973551890833 -86.736547326843464 138 135 116
75.033804874256845 -3.419356490416024 -88.310753343357106 136 133 114
72.407013275243941 -4.279335090295416 -90.592737371987766 138 135 116
72.759337958443339 -3.477017665975482 -90.326111409378711 137 134 115
74.188113436236378 -2.061492375384716 -89.139602369789316 138 135 116
73.299718831129255 -1.958051382822984 -89.935109940093866 138 135 116
71.749129861279286 -2.240292409418589 -91.296727056708335 135 132 113
70.529716688786493 -2.341467199364655 -92.375205805654645 132 129 110
69.310352709399311 -2.450493039805507 -93.453627273607310 138 135 116
69.747499960166479 -1.599989649800530 -93.117217254006135 140 137 118
68.197109506622411 -1.913624113216002 -94.478606191725021 143 141 120
66.812365527710242 -2.139513736221216 -95.698425266999806 143 141 120
65.593331187129692 -2.275945063330814 -96.776722334586054 145 143 122
64.622939936240286 -2.271686149786382 -97.642840944565677 144 142 121
59.923058180978643 -4.514635821984464 -101.690302255424797 142 140 119
61.107529220065658 -3.233258853408808 -100.718114608456489 142 139 120
60.054318130449857 -3.303239910488029 -101.654707187079964 142 139 120
219.146401738446968 -2.570182610558302 36.629723046029369 155 156 151
214.201992114119520 -3.063082419245958 32.348652232403822 161 161 159
208.194792611560501 -2.890303649600114 27.127998785604319 157 156 152
204.654252039359818 -3.009003955747452 24.056071049688512 162 161 157
200.535420504834150 -3.341892185001639 20.486988277381357 163 160 155
198.151218686437716 -3.123386494899071 18.410425403412574 162 159 150
197.088789647004290 -2.475383843180609 17.470852093386668 161 158 149
192.556732349637798 -3.014180949569160 13.547280208512973 160 157 148
189.924695422392290 -2.930376900487072 11.258090698007720 159 156 147
186.796935222343080 -3.035672223605554 8.542846687325294 160 157 148
184.164863907034800 -2.988028768158243 6.254045847107278 159 156 147
182.028539931242790 -2.782525514824935 4.391609558265543 155 153 141
179.479097768058864 -2.738299718331570 2.174173279501275 155 153 141
178.086513881547148 -2.294514398048447 0.951211488542071 152 150 138
175.537108559661647 -2.279879396112788 -1.265937822059584 153 151 139
173.318256364730360 -2.160829677940706 -3.198861869000638 153 151 139
171.016779588410373 -2.086853230525557 -5.202653522520421 152 150 138
169.624439539278171 -1.688827139500425 -6.425260941711940 152 150 137
166.165901978582184 -2.077402638439095 -9.422781791395295 149 147 134
163.699130298294335 -2.112194648334822 -11.568095090909651 146 144 131
161.232348674446939 -2.163146529161803 -13.713237291789625 146 144 131
159.096209124880033 -2.102558664575586 -15.574270122609676 147 145 132
155.720073236891267 -2.538925138142509 -18.499860828636429 145 143 128
154.162609271567135 -2.283068726404642 -19.863727878231316 141 140 122
152.274514769186339 -2.168327849339930 -21.511405378798003 142 141 123
150.551820159045064 -1.999858782432191 -23.017044902276609 140 139 121
149.077235602781684 -1.742714686641286 -24.309715546937639 137 136 116
147.520043484597977 -1.528709419667468 -25.673281852415386 137 134 117
145.301372870648464 -1.595594839187851 -27.604378843297638 136 133 116
140.932538433612535 -2.564167441772222 -31.379894320148452 139 136 119
139.788880462904444 -2.220065707628331 -32.388338667991178 138 135 118
138.728046392813496 -1.848650910546852 -33.325827948149794 138 135 118
136.674783082313780 -1.903415528344162 -35.114462221693856 140 136 120
134.125219700180367 -2.182932777979489 -37.328508059919869 142 136 120
131.575600748535805 -2.479170210422377 -39.542355204641098 142 139 122
129.025922209482047 -2.792130649709191 -41.756001704639687 144 141 124
126.889847037224555 -2.941564278844277 -43.614903476603217 144 141 124
125.498406125219020 -2.778028038391438 -44.835527318084615 144 143 125
123.858812814834707 -2.733300230233858 -46.268789602660434 143 140 121
122.633014600457628 -2.514833261977273 -47.347504002646843 141 138 119
120.993540816204629 -2.490034221209878 -48.780618331300076 144 141 122
117.947172466207874 -3.112232753457499 -51.418620294737821 144 141 122
115.645550441420397 -3.415114508858753 -53.418463271089706 140 137 118
115.827057436080921 -2.593513763450265 -53.292034974549722 144 141 124
114.022173059497447 -2.688682879130006 -54.866500320151914 146 143 126
112.465655621219852 -2.679993951695769 -56.228275965959199 146 143 126
109.832898809801236 -3.186026656489256 -58.511049600327368 145 142 125
109.518354486312603 -2.614720870918555 -58.809888951270239 144 141 124
108.376005210447630 -2.438907942765881 -59.817227093019000 142 139 122
107.399384399942534 -2.191112606134459 -60.682872345776644 142 140 119
106.671349169594521 -1.829735389845332 -61.336032588585908 143 140 121
104.701127311300283 -2.075987179903892 -63.051563649643271 143 140 121
103.476353346908695 -1.970751081050859 -64.129602505090844 133 130 111
101.423290383309364 -2.281016993804908 -65.915702620723437 141 138 121
99.038794203777627 -2.768892773437016 -67.984853534010540 140 139 121
96.488477922164890 -3.355087892908577 -70.195382398330452 140 139 120
95.512348127146183 -3.167669036076721 -71.060641065776622 142 141 121
94.619213583255373 -2.944559934327858 -71.855112869578164 142 139 120
93.477597111992111 -2.853557647556567 -72.861928583999571 140 138 117
93.496436891393955 -2.175701949700426 -72.877918979111513 141 138 119
93.598484884943602 -1.454584361229978 -72.823302330110465 142 139 120
92.208693362920911 -1.506355108470061 -74.042498971120779 140 137 118
88.912091162323364 -2.562555605810439 -76.888899172671813 138 135 116
86.858882189301809 -2.987224361010518 -78.673751831968957 136 133 114
86.546977276978637 -2.504676529312748 -78.972940237958881 139 136 117
84.991349096169543 -2.685655383647419 -80.333188955732339 140 137 118
83.767487380044827 -2.699119351570944 -81.410442388206690 139 136 117
81.797146267929477 -3.122622636589924 -83.124091859963698 138 135 116
80.490382471097334 -3.199303561563447 -84.271893382216263 139 136 117
79.183665366575738 -3.284405680645066 -85.419630558328748 138 135 116
78.623789809617278 -2.968122085548782 -85.931055871347468 139 136 117
77.732179087822189 -2.838437572015664 -86.725295000197377 139 136 117
74.848787370310973 -3.820748496003999 -89.215839838385023 138 135 116
73.708196559209114 -3.848194129785911 -90.221926981162568 138 135 116
74.726104065971668 -2.669578160976494 -89.390715910509954 138 135 116
75.163424033707031 -1.812144049669564 -89.054459859510416 139 136 117
74.355657386797972 -1.659726820718851 -89.778184820731610 137 134 115
73.215860724695574 -1.702392711679509 -90.784495211915271 135 132 113
72.574485116333406 -1.465501568868984 -91.366972838227042 134 131 112
71.684105260156585 -1.376735912024385 -92.161379610621935 136 133 114
69.547668280540549 -2.019180665917419 -94.015033484010644 138 135 115
68.325031701653799 -2.140474387329593 -95.091763072118567 142 140 119
67.601050373429914 -1.975924965494680 -95.744836640442287 143 141 120
67.791496730573741 -1.274194233189484 -95.621451022010376 143 141 120
64.989868522008493 -2.353376945482762 -98.039255207714149 144 142 121
61.605867092879109 -3.800002523129021 -100.950683961351189 143 141 120
60.715747350989318 -3.766508568998455 -101.744646232127252 140 137 118
60.491041842716598 -3.335487443303783 -101.974161258930224 140 137 118
219.545763094405572 -2.756627849054371 35.664576922293520 153 154 149
211.201515186357426 -3.275614373351937 28.465031331858853 157 156 152
206.656425556086617 -3.696424645661496 24.546479572620825 157 156 152
204.596657306099985 -3.337060713506386 22.756694406625286 161 160 156
201.542709378070924 -3.318414725288471 20.115721952755734 163 160 155
199.317276474103835 -3.044302881786687 18.184349962108115 160 157 149
195.683284805842845 -3.257648823789846 15.047244260379216 160 157 148
192.132072157313104 -3.466721148273538 11.981352253782092 160 157 148
189.740884537514688 -3.301946957935877 9.908684448578128 159 156 147
186.935368812420506 -3.295989226628188 7.481570141742765 160 157 148
184.792800121157370 -3.077085600685785 5.621983366610323 158 155 146
183.479009210122172 -2.580300346790160 4.471640616241785 156 154 142
180.424873605625180 -2.710670440047248 1.832291843537121 156 154 142
178.282389196302489 -2.533969659766243 -0.026900836695404 152 150 138
176.057047031413958 -2.401248997526007 -1.956860826149665 153 151 139
174.909284679594691 -1.889399388297271 -2.965068365285020 154 152 140
172.684029501552686 -1.782156092426370 -4.894807717617681 153 151 139
170.375895469762156 -1.720257303256602 -6.895290241535861 152 150 138
167.984869560215657 -1.704524103356443 -8.966501254583733 151 149 137
165.262223953147696 -1.829907901550521 -11.321049492563958 146 144 132
163.700266808361619 -1.529985029189481 -12.683220618721805 145 143 131
160.977606176658639 -1.687137888523254 -15.037434654062395 146 144 132
158.006154416386465 -1.958693941222570 -17.604026911500938 143 141 128
155.034634221549538 -2.249703039640297 -20.170386190106370 141 139 124
152.975224803080607 -2.199934183342009 -21.957156202226997 141 139 124
151.330487004442375 -1.998464644966067 -23.389570802625400 142 140 125
148.939401532244119 -2.107343350866979 -25.459470628158755 140 139 121
147.377689636465362 -1.896106400784786 -26.820846191851075 139 137 124
145.401329993675063 -1.864222253673764 -28.536303950768882 139 137 123
143.922685942140021 -1.640463050672360 -29.826688899334158 139 137 122
140.868006496548759 -2.079828085011093 -32.462596860169157 139 137 122
138.062095373842112 -2.435192459505125 -34.885802740194436 140 139 121
136.583515642250291 -2.249745259782022 -36.175824094503980 143 140 123
134.192359183818667 -2.461324405078677 -38.244632813251656 141 138 121
131.386296445758319 -2.866024684578966 -40.667258321756947 142 139 122
130.073758407104748 -2.645136265939580 -41.815360497254375 143 140 123
129.093250194093429 -2.288489714705811 -42.680266490212006 143 140 123
126.619064900836761 -2.591988205142090 -44.819267211902996 143 141 123
124.725783774388475 -2.655434978251623 -46.462629274297086 143 140 122
123.330520010298969 -2.509910093221199 -47.681238876515692 139 136 119
122.018341666560488 -2.336223069199565 -48.829027261160832 142 139 121
119.295042723689946 -2.807353583567841 -51.179704000894674 143 140 121
117.318796193194970 -2.956936592600770 -52.893347939747429 144 141 122
115.508588857665856 -3.043413706811351 -54.465356271173192 144 141 124
115.275972754024338 -2.414619543919489 -54.693122673491530 146 143 126
113.133758478070462 -2.673523289046486 -56.547960688392862 146 143 126
111.655846811327848 -2.635850505088326 -57.836780526339368 146 143 126
110.094942843615101 -2.646817325365326 -59.196255345015260 144 141 124
108.949362093051249 -2.471005169570924 -60.202047552394333 142 139 121
108.053077304719636 -2.183550321932259 -60.995674633140482 137 135 114
106.824662086941458 -2.061466214187677 -62.072144950468328 142 139 120
105.014804534480604 -2.228718278635809 -63.643489159774361 141 138 119
102.872606872214007 -2.569689258800336 -65.497490363329490 136 133 114
101.062705718760668 -2.761589611430971 -67.068559996857630 140 137 120
99.252791524844639 -2.965260758127449 -68.639502229176770 139 138 120
98.024598556444204 -2.891428778963383 -69.715582186445772 140 138 119
97.212055351039538 -2.617438855812634 -70.438273467269624 143 140 121
95.734708128176308 -2.683589778929977 -71.726294623659840 141 138 119
95.171809710163856 -2.295476962492137 -72.237013184571055 143 139 118
95.191073738488541 -1.613636356444847 -72.253247557575378 143 140 120
93.880351915704153 -1.614832967125043 -73.399932571746433 140 137 118
91.239256428240509 -2.312517951184377 -75.676744238888887 141 138 119
89.679049748268397 -2.464888600576280 -77.035097096981559 140 137 118
87.037652383618124 -3.193723906655009 -79.311443701199551 137 134 115
86.725017962854693 -2.712243705508507 -79.610272123194619 139 136 117
85.747154309859866 -2.585461862465110 -80.474077151683815 139 136 117
85.434978939010264 -2.109559380594630 -80.773067767317684 138 135 116
82.710141590931670 -2.931394033053299 -83.119398565401212 137 134 115
81.815744613273324 -2.781792252906774 -83.912509777427431 138 135 116
80.755041541947222 -2.728300250081355 -84.846789187914226 138 135 116
79.361510424633806 -2.863691563295917 -86.063336070862761 136 133 114
78.134487344107953 -2.916422026847215 -87.138672927678584 138 135 116
76.324760755641037 -3.299752367575617 -88.707855587464223 138 135 116
76.263452172676651 -2.720714062532031 -88.795344988600476 138 135 116
76.618841454514737 -1.908211638922103 -88.530289958789780 138 135 116
75.415230351332212 -1.360932704206849 -89.623003223472324 137 134 115
73.522542564861354 -1.829337262469594 -91.262480703761895 135 132 113
72.629505120477674 -1.736393559716971 -92.055659101793452 136 133 114
71.653279699581148 -1.697112395226131 -92.919347166462188 136 133 114
69.260452359172874 -2.486499098985540 -94.981408877534705 137 134 114
68.200914720065114 -2.513017985854262 -95.915422234518303 142 140 119
66.891386101136874 -2.693116773732006 -97.060836543341537 142 140 119
66.999175027614868 -2.044495032095817 -97.008220100804891 141 139 118
65.523108442332230 -2.335634454654183 -98.294537990174717 142 140 119
63.796820145727693 -2.785810787945941 -99.792090278482362 140 138 117
62.821078735383438 -2.796336773667469 -100.655497202122149 140 137 119
62.179116727472149 -2.611411838342582 -101.237159382620376 140 137 119
219.277530942968156 -3.150041412683377 34.134064593755625 147 148 143
217.710410262711520 -2.575013190988941 32.771531887706061 154 154 152
209.413020528825257 -4.152836371616502 25.671327529906591 156 155 151
207.264158223843083 -3.807337229933226 23.813448486765026 157 156 152
203.951974784330275 -3.853812350366162 20.964108685956035 159 158 154
203.797537909861262 -2.885585723186068 20.806306544426945 162 159 154
200.485367174803798 -2.964949657005596 17.957299206928184 157 154 145
196.591395483024684 -3.260675029308965 14.612838375411968 158 155 146
192.281770367733202 -3.722317961557546 10.914638165155282 160 157 148
188.803134067083647 -3.928505441340358 7.924855072267974 158 155 146
187.152982498870927 -3.527377158723816 6.492975212922744 159 156 147
185.752261889461067 -3.050211109844594 5.273562397699152 158 155 146
183.021657348502288 -3.049066111220215 2.921519261943132 154 152 140
181.953574026754723 -2.476545516253847 1.985427915924163 154 152 140
178.973605226348980 -2.594736959504177 -0.578668477677297 152 150 138
177.074338431433944 -2.342290472251533 -2.222418664814114 153 151 139
174.260599066956274 -2.435256395401117 -4.644580539886391 154 152 140
172.278245085867468 -2.241031445889325 -6.358841683341211 153 151 139
170.794807140470112 -1.874709334792120 -7.648400721145350 152 150 138
168.812555289753931 -1.704583946314216 -9.362462654531981 151 149 137
167.079804198127789 -1.453197833633203 -10.864144698545061 148 146 134
164.765007339549555 -1.434590036976863 -12.860994133032790 146 144 132
162.034401056760686 -1.590669478700490 -15.211418045355998 146 144 131
158.638418932552440 -2.022152068921407 -18.127564652267324 142 140 127
156.489889108774435 -1.988719953403785 -19.982390490607997 140 138 123
153.426441490267081 -2.329490099445382 -22.615118674289818 142 140 125
151.776967180058818 -2.128865434348041 -24.045258647083443 144 142 127
149.711633393212139 -2.105399654003715 -25.828923710904832 142 141 123
147.646316130113291 -2.095347612921314 -27.612458605273844 141 139 126
146.329760086908180 -1.794071370901758 -28.759466053415821 142 140 126
144.181314820940941 -1.842493133658705 -30.613489780834357 144 142 127
140.951221678246839 -2.352066512494331 -33.386475510324630 140 138 123
138.053832975986381 -2.744066109624083 -35.876400610020170 141 140 122
136.903840161009725 -2.421038598611014 -36.881597462513326 143 141 124
134.921773075494912 -2.457620168435931 -38.593620048376579 143 140 123
132.190698554515564 -2.826579748187712 -40.941628674951914 144 141 124
130.957671596708337 -2.569374393385178 -42.017283622532631 144 141 124
129.974454433497243 -2.211904528442197 -42.880902137781817 144 141 124
127.826005139929464 -2.369288103659339 -44.733802339736712 144 141 124
124.761826639999725 -2.943308959684107 -47.363779905518356 142 139 122
123.112784657586758 -2.910378701886238 -48.792400539670581 141 138 121
122.379622864630122 -2.479351305948144 -49.443825196788652 145 142 125
120.813994448964650 -2.427249974948323 -50.801689047921798 142 139 122
119.081879030045968 -2.460673289288612 -52.300743509070884 142 139 122
117.349790347078908 -2.505302789796945 -53.799695409703816 142 139 120
116.200702372832524 -2.293266977850180 -54.804182641584902 142 139 120
114.385416323486311 -2.396912634075074 -56.373584609301332 142 139 120
112.486842825492175 -2.551142158812790 -58.013480346820756 143 140 121
111.171373107710934 -2.443988535661628 -59.159009287687070 144 141 122
109.772677183201026 -2.384641896664785 -60.375089880146334 143 140 121
108.124103257204879 -2.453247455827626 -61.802889271712786 135 132 115
106.225587684469033 -2.652308954593221 -63.442351242446932 140 137 120
104.577039717519568 -2.743055183095979 -64.869935147700289 142 139 122
103.345192830010490 -2.641997012212946 -65.944547335460953 140 137 120
100.779937557924384 -3.201135929336012 -68.148207941027636 139 136 119
99.298097299090713 -3.243423870058168 -69.434325278075931 140 137 118
99.150034339604005 -2.633989373668897 -69.591483451040745 141 138 119
99.419085653500119 -1.817110543197366 -69.396028566783230 139 136 117
97.854274207865018 -1.919564880294720 -70.752692334444760 140 137 118
96.392515540080424 -1.305793893959668 -72.055169779928889 143 140 121
92.993168542933375 -2.372963206112048 -74.963163200389658 140 137 118
90.344130459705937 -3.075490642512093 -77.236125311149124 140 137 120
89.446596238065965 -2.886327630490195 -78.028142900041701 138 135 118
87.798393928776960 -3.094916158886494 -79.454679156743310 138 135 118
86.901067953580352 -2.919500700482431 -80.246654859545032 137 134 117
86.504531011339282 -2.484884000203482 -80.615721098222764 138 135 118
85.357193548264902 -2.452231134694588 -81.619199289866430 137 134 117
82.540757972065421 -3.320832061960922 -84.032087305749911 137 134 116
81.059534605460783 -3.488325448745980 -85.317210959371891 138 135 116
81.247880492377703 -2.760105451630576 -85.193093150492956 137 134 116
80.852200773897948 -2.348947148038770 -85.562328013018231 137 134 115
79.454807970592356 -2.489931480620671 -86.776969906866839 139 136 117
77.973929125216060 -2.686013458818733 -88.061964101530492 139 136 117
76.910636578267045 -2.659665569128673 -88.994725307762707 138 135 116
76.682720406043018 -2.173224380320403 -89.223274830486901 138 135 116
75.118495473678990 -2.439255772534384 -90.578535403284548 139 136 117
74.389729243475742 -2.242913486509457 -91.229647150825059 138 135 116
73.494023776253059 -2.146072545672578 -92.021589292105062 137 134 115
72.765596847747702 -1.959158050784804 -92.672766315424610 137 134 115
71.368696279164126 -2.161515794006299 -93.887011945329903 135 132 113
69.721016966327241 -2.518044564166247 -95.312275578514289 135 133 113
67.488032973321950 -3.226040594756444 -97.229925824332355 141 139 118
66.843518738204068 -3.018428618642775 -97.810600557191123 141 139 118
66.450089629184319 -2.666899937294716 -98.180298305910526 142 140 119
65.806013489259186 -2.466102354305064 -98.761112478036125 142 140 118
65.998665776071419 -1.770853238729654 -98.638715450259127 140 138 117
64.685801388691104 -1.975754969688761 -99.782278629735913 139 136 117
61.950422145168176 -3.045971480121911 -102.121009501932974 139 136 118
216.014094184370435 -3.417021180660811 30.044226578870507 153 153 151
215.609244470422311 -2.490339906349053 29.674072073831042 157 156 152
207.870463732172595 -3.917967112652016 23.081097239098170 153 152 148
206.465531874587100 -3.344329096016727 21.862706036139429 158 157 153
204.143859917031961 -3.079742893695814 19.866613646137893 158 155 150
201.988913009115322 -2.775144475508445 18.012066467877560 159 156 147
197.916836103884719 -3.124333267124838 14.531643115974731 158 155 146
193.844638095976450 -3.500075526668496 11.051551027362422 158 155 146
190.605932546920542 -3.618729880247594 8.278661517646981 157 154 145
187.867358624027986 -3.586646229006956 5.930112439797682 158 155 146
186.546034575354753 -3.080876145413273 4.783281031288141 156 153 144
184.391086703781696 -2.875460749374300 2.929755254710017 153 151 139
182.486295487759264 -2.595643625956667 1.288366191986967 155 153 141
180.664934072528126 -2.298424325304596 -0.282255645893059 152 150 138
177.426107556843135 -2.523093039987459 -3.053996026511896 152 150 138
173.937043948278898 -2.859693988784485 -6.037448319684074 152 150 138
171.948925171744406 -2.669055810431809 -7.748914684320368 151 149 137
170.878194761791832 -2.152178999711044 -8.683166902991246 151 149 137
169.307193926571301 -1.828756973273555 -10.041253447242269 153 151 139
167.652868005595678 -1.546838167635168 -11.469909227502001 148 146 134
165.331349032277501 -1.528800750251457 -13.463536954139244 145 143 131
162.592770509639877 -1.685452242530971 -15.810141085841678 142 140 128
159.186815219967087 -2.117511017700667 -18.721510633618777 143 141 128
157.699424959577357 -1.824852395012084 -20.008420642186337 142 140 125
155.544714610107377 -1.803757822001723 -21.860162741698190 142 140 125
153.306584819379680 -1.829650390931012 -23.782372489114380 145 143 128
150.567845534427533 -2.069851280440375 -26.128039696759231 140 139 121
149.164079470527838 -1.790675911137424 -27.343957559466958 140 138 125
146.508738227671586 -2.028253992129263 -29.618690217551119 143 141 126
143.519542933983132 -2.419597574407043 -32.175560996205036 146 144 129
141.698607984722429 -2.348809897709566 -33.744056079488644 142 140 125
140.211547930693513 -2.151080564786989 -35.030146902779506 141 140 122
137.722989239809095 -2.382323462229607 -37.163015203430035 143 141 123
135.568260142608665 -2.488829484317197 -39.013434877065492 142 139 122
133.914371786758238 -2.396284160992166 -40.440350670594739 143 140 123
132.594458108964346 -2.171278239324944 -41.584966749136157 142 139 122
131.441611886473595 -1.882607137024068 -42.588444893481238 142 139 122
128.535551799148749 -2.364237238432864 -45.073299020477947 142 139 122
125.378874697854542 -2.974636633426829 -47.769509994769351 143 140 123
123.641593101978856 -2.978607274221897 -49.266396145734888 141 138 121
122.906455854924943 -2.547849400818349 -49.916872978053277 144 141 124
121.920945461481793 -2.233969185574462 -50.778945729658062 143 140 123
120.768529880266044 -2.001739274833169 -51.782048913774645 142 139 122
118.948004418356774 -2.080774367330417 -53.349197693375800 141 138 119
116.542750614811496 -2.439458504455289 -55.409748064962628 140 137 118
114.388037960797945 -2.698145999909178 -57.258609124607574 139 136 117
113.068752463960209 -2.582565482202260 -58.402399352111644 138 135 116
111.665995817278898 -2.514517887008910 -59.616626872316232 143 140 121
109.344137596912930 -2.888647579844902 -61.606055531255350 143 140 121
107.690736763152813 -2.960606391754704 -63.031511229977752 132 129 112
105.118034413090513 -3.482536656602781 -65.231992186316916 140 137 120
104.551163147419771 -3.056056169060678 -65.741205088239070 142 139 122
103.232192993371442 -2.997443040908585 -66.884559780693991 140 137 120
101.829699885135952 -2.988029502386971 -68.098309826987247 139 136 119
100.343659910811326 -3.028652121873400 -69.382435176528162 140 137 118
99.861003369485516 -2.582819658547759 -69.821276428600925 141 138 119
98.625994398905164 -2.514331069416424 -70.894040631592446 139 136 117
98.143718952411334 -2.076670020263146 -71.332980085655521 140 137 118
98.832571555043444 -1.051409950184328 -70.786207247149576 142 139 120
93.101229949689369 -2.618099292137137 -75.677489407621863 140 137 118
89.607736686461323 -3.752247882769331 -78.650613010655462 139 136 119
89.209618193674274 -3.307503715252838 -79.019026888081072 137 134 117
87.640255001720902 -3.475066806580553 -80.372842918790838 136 133 118
87.075134913290228 -3.126444657017621 -80.882092142916662 136 133 118
85.924357814191652 -3.090151582916456 -81.883962294972122 137 134 117
84.522553047147568 -3.194416297563891 -83.096871493964926 136 133 116
82.451063401992883 -3.665298528886426 -84.872503043849065 137 134 117
79.458486985938308 -4.644540905394738 -87.421704767528553 137 134 117
80.652242916149348 -3.380048830724220 -86.453785175952873 137 134 117
80.674217286538251 -2.744736857174753 -86.470837224722146 138 135 116
79.440250612148716 -2.796319225384535 -87.542864107956319 140 137 118
77.871289891530694 -3.040233102076700 -88.896086762584332 139 136 117
77.558908746876114 -2.598217273710534 -89.194630124387515 139 136 117
75.403561890153583 -3.184936897172515 -91.039811184147510 139 136 117
73.080446021814041 -3.879715319900184 -93.025337590150087 137 134 115
73.606485638939702 -2.983003309256870 -92.621070137542262 138 135 116
73.462498854888153 -2.462514340045535 -92.779262777869604 139 136 117
72.145261563050525 -2.612052825974392 -93.921303856536298 136 133 114
73.678569316854635 -1.134131296646076 -92.674586090393944 133 130 111
70.265506400865632 -2.500801293099010 -95.572934951295252 136 133 114
69.870916341323820 -2.137482902403171 -95.942198662665220 138 135 116
68.470115203545845 -2.363969315174803 -97.154329905121102 141 139 118
66.482101733955076 -2.944288168965667 -98.857910800210874 142 140 117
65.836273588045586 -2.744855489927993 -99.437872769036886 143 141 116
65.778023698754296 -2.200390618042704 -99.526469557026360 143 141 118
65.468385574942815 -1.806086689887830 -99.825834048041258 137 135 114
62.892781984226019 -2.774477622965406 -102.020331416855242 135 133 112
219.986194143692899 -2.478592749827369 32.125247715422319 150 150 148
213.060669895174073 -3.605027968450156 26.248702292381836 156 155 151
210.815887284586779 -3.280040188969589 24.326063443489119 152 151 147
207.902384643435482 -3.185561239370645 21.838839628857698 152 151 147
205.908424977371851 -2.810010013069237 20.128264122856365 158 155 150
202.493308816270201 -2.915589037679690 17.217916484488200 157 154 145
199.914162473205920 -2.765178458787120 15.013597570253268 156 153 144
196.749765441358704 -2.828113189956833 12.315444455469361 156 153 144
192.163936458993874 -3.393773668278028 8.417873278567242 157 154 145
188.748531135206463 -3.588352256193402 5.508580091851371 158 155 146
187.674345627351443 -2.995607643175052 4.575199834772178 157 154 145
185.095096605976039 -2.935047237952729 2.371854914463853 153 151 139
184.021092910199314 -2.360945775422306 1.438579582423074 155 153 141
181.525520710510278 -2.299145422151858 -0.693949921047505 153 151 139
178.360880344885089 -2.493555634606065 -3.390633282609684 152 150 138
175.196170627989829 -2.708510451810859 -6.087071990824512 152 150 138
174.791539316531669 -1.935721000581545 -6.455746893022990 147 145 133
172.045040306212059 -2.028580963766666 -8.799218528822507 149 147 135
168.880258898085856 -2.294759355136698 -11.495095670216784 153 151 139
167.137504182110092 -2.048077875508948 -12.991943587479057 149 147 135
164.725548338083684 -2.065829152716627 -15.052797119069538 146 144 132
161.727947971772863 -2.322673762317583 -17.607031405283379 142 140 128
159.315939149021347 -2.373570681703285 -19.667518407287417 143 141 128
158.326323978558008 -1.887999925164676 -20.529394744627211 143 141 126
157.169496627126534 -1.474198821350271 -21.532256356498664 142 140 125
154.841265631056729 -1.530113412338695 -23.521911849285999 144 142 127
152.764079384257172 -1.501189225261442 -25.299962923015357 142 141 123
150.184768808480953 -1.687128074351676 -27.500741055254082 140 138 125
146.433683434662640 -2.363688870573968 -30.687920311334807 143 141 126
144.356408122745250 -2.382158151073204 -32.465440931846871 144 142 127
142.781370843619015 -2.207633096868237 -33.820063783834627 143 141 126
141.457532041655952 -1.939183925271527 -34.963249279623227 143 142 124
138.459480311851394 -2.378241325281056 -37.515392027301260 144 142 125
134.958986330632968 -3.048153504374360 -40.489945129441054 141 138 121
134.305003080863742 -2.533706609360538 -41.069248324108514 143 140 123
133.651203065953553 -2.023289730622401 -41.648597694722469 143 140 123
132.495162471689127 -1.733239473539756 -42.650561858893411 143 140 123
130.334319287500932 -1.886526417366051 -44.497575034743079 143 140 123
128.089704929068404 -2.090392557906533 -46.414850615817727 144 141 124
125.426277297403487 -2.493217012629845 -48.684013809276138 140 137 120
123.684122293529697 -2.504536970828801 -50.178492888344039 143 140 123
122.528368068812540 -2.264978625311485 -51.180074312114158 143 140 123
121.288954417297475 -2.070464092783056 -52.252028579189869 143 140 123
119.630741901288246 -2.073802876492666 -53.675888726039346 141 138 119
117.721206090708918 -2.202609541232283 -55.310801821062995 140 137 118
115.644078782340344 -2.420832756406235 -57.086337078368132 140 137 118
113.566916363408126 -2.652484910839134 -58.861717308082063 138 135 116
111.657328298146709 -2.819356568838344 -60.496213582547085 141 138 119
110.082979396225937 -2.841012949398785 -61.849146357769257 140 137 119
107.838102770366262 -3.190068773658900 -63.764801960654154 139 136 119
106.347597491476122 -3.194207431762461 -65.047166671539230 139 136 119
104.605633722431705 -3.328548304712658 -66.540470920618048 142 139 122
103.282883130204297 -3.271609628869682 -67.681999828427564 140 137 120
102.966406148798370 -2.733758542901976 -67.979570236418226 139 136 119
102.063180218887226 -2.485030528168799 -68.769478064079209 140 137 118
100.405313872151211 -2.613962368522400 -70.192211024697855 141 138 119
98.831328243361284 -2.711935047687352 -71.544532026541077 139 136 117
97.509007386620411 -2.694316537822185 -72.685861776113228 140 137 118
97.864546840289421 -1.841574694469799 -72.421292792553686 141 138 119
96.374727883289395 -1.920100805565652 -73.703220130055740 141 138 119
93.122905221013511 -2.905667526958632 -76.460910893267140 139 136 117
90.374241292438867 -3.654455455066560 -78.796595043541345 138 135 118
89.555586485343923 -3.425313673752669 -79.515900910611663 138 135 118
88.233496516251904 -3.462709058884170 -80.656774830385785 137 134 119
86.827517997163142 -3.552389955869593 -81.867837439268357 137 134 119
85.925277541290569 -3.386184789110247 -82.657367265201316 138 135 118
85.778821072568917 -2.825732755401540 -82.814789776746494 137 134 117
83.701373984573721 -3.294124529857396 -84.587596941919799 140 137 120
81.539821095595144 -3.821017178725306 -86.430424886224984 139 136 119
81.057898179316425 -3.456477413292040 -86.868780315428296 139 136 119
81.164206935801474 -2.775784769260684 -86.815785886550032 139 136 117
78.666612541656178 -3.514995694506029 -88.939102767640946 140 137 118
77.681119119839110 -3.440298992814943 -89.798721602352970 139 136 117
77.956191116437665 -2.675595113240940 -89.605609929083130 139 136 117
75.374319574639188 -3.496142206719040 -91.798630562495759 139 136 117
73.044309927940134 -4.192715618706924 -93.780840531834826 139 136 117
73.572180033819535 -3.297548632913577 -93.377432875055433 138 135 116
73.512046866081860 -2.731110382355079 -93.465354892116608 137 134 115
73.031850943182761 -2.403709955334388 -93.904154215165562 135 132 113
72.551905790389853 -2.079014195765226 -94.343045665272967 134 131 112
72.576860797313543 -1.466562047619269 -94.361288332677077 138 135 116
71.003938808402538 -1.778574510446884 -95.711914957174884 138 135 116
69.767489347568215 -1.904800555419377 -96.781985739021508 141 139 118
67.521350132170184 -2.630121786939637 -98.693164234542621 139 137 114
64.685852819320388 -3.717113427336519 -101.094685175630417 140 138 115
65.553344160946097 -2.629669952921964 -100.412294812714833 140 138 116
65.663862887309207 -1.986878711325871 -100.360924280820342 136 134 113
63.333170667542305 -2.805004235260940 -102.341556512592547 134 132 111
221.629463356622352 -2.272902367301704 32.223867161538834 146 145 140
215.102786159287405 -3.264607472924140 26.709422256211838 155 154 149
211.007142191232816 -3.523733604240209 23.239346246176837 154 151 146
209.091282912724665 -3.107506442339846 21.601847969556189 150 147 142
205.247028623922802 -3.330823421439906 18.343716051826988 156 153 148
201.821918304384496 -3.441339632958058 15.438200405542830 153 152 142
199.906083115498575 -3.073343047302406 13.801187066079734 153 152 141
198.241869524856099 -2.633414797423563 12.375635042509913 154 152 142
193.307205077214007 -3.310352356556977 8.202655447700181 155 153 143
190.468914013960955 -3.303397902352984 5.791210490526140 157 155 145
188.804730694953378 -2.910048103283887 4.366123440503060 157 154 144
186.469654543956779 -2.760862661850398 2.377631448702374 153 151 139
183.715217688479470 -2.774035872924734 0.037136995046922 155 153 141
181.044631317024027 -2.775282453227167 -2.232735124630608 154 152 140
178.541787426554691 -2.733774631065495 -4.361576994940407 152 150 138
175.871161997118861 -2.768989051346155 -6.631080781373157 151 149 137
176.136680318970264 -1.752059147198365 -6.435994952029915 149 147 135
173.717828871449228 -1.719706489511330 -8.494065395516600 149 147 135
168.865902100388524 -2.604949174914471 -12.593623336973167 151 149 137
167.285948554759642 -2.298001904156930 -13.947257352315773 147 145 133
165.034810727341494 -2.254392337141144 -15.863959519967295 146 144 132
162.783678880650996 -2.225296697586945 -17.780515149631839 143 141 129
161.539551876716985 -1.824300570222872 -18.852339983849532 144 142 129
159.372402999677519 -1.788458536727736 -20.698283337427029 144 142 127
158.212377114316979 -1.373568187185966 -21.699625993783968 143 141 126
156.045304339751226 -1.362350880992363 -23.545352279835612 144 142 127
152.871010440863586 -1.764707325218161 -26.235276929147659 142 141 123
150.452068842531048 -1.885443962364782 -28.291728419777940 140 138 125
147.865207620116990 -2.089498715909297 -30.488707872441410 143 141 126
145.026442121082084 -2.412652990390094 -32.896527886186959 143 141 126
143.782754072005929 -2.100529427893629 -33.967647904948080 143 141 126
141.363717365190325 -2.281804483133236 -36.023430743656832 143 142 124
138.692739730056985 -2.583563124208881 -38.290022362526088 144 141 124
134.930046381849479 -3.360593973088873 -41.470614214724066 141 138 121
133.602481267605356 -3.132400958879591 -42.611602678639230 142 139 122
133.030860671621213 -2.590612386629092 -43.119730441260515 143 140 123
132.627415695379909 -1.980176361955307 -43.487301696781373 143 140 123
131.636228327621779 -1.626447114457121 -44.347068789440357 143 140 123
130.897186573790975 -1.169105422077367 -44.995951359703469 146 143 126
126.462012266779269 -2.339439510669667 -48.737653237820155 143 140 123
125.387007266762083 -2.052060813352826 -49.667498167884958 143 140 123
122.967818040469552 -2.370543519495264 -51.721795694520722 143 140 123
120.884657196166089 -2.553785640867878 -53.494804606887385 144 141 124
119.137597794512700 -2.598461960272775 -54.986594085085670 139 136 117
118.062871461733863 -2.348141616518273 -55.916190868352402 141 138 119
116.736133820013464 -2.220244196761466 -57.056542799348676 138 135 116
113.812482763853680 -2.838567538593365 -59.531574414959096 137 134 115
112.401723150167285 -2.771917326056665 -60.741958959218636 139 136 117
109.645965703108402 -3.344454206337731 -63.076063835140729 140 137 118
107.142265437042909 -3.815887855440841 -65.199216054057274 139 136 119
105.563328956859181 -3.864159049880448 -66.549680187913964 138 135 118
104.152598773826469 -3.842085268726641 -67.759619964095862 138 135 118
102.741925787255539 -3.828998352694510 -68.969494596551783 138 135 118
102.845173925123859 -3.090818726951052 -68.915627720599844 138 135 118
102.275864820568515 -2.680056564958430 -69.423512572134769 140 137 118
101.538529618296607 -2.355365021405967 -70.071846116194507 140 137 118
99.034701014498694 -2.909222041694511 -72.194088513614275 141 138 119
97.540339489380727 -2.976523281683275 -73.473958245336519 140 137 118
96.214298072080169 -2.969002459517055 -74.613404150917773 140 137 118
95.309082188341435 -2.757589516160010 -75.401975888713508 141 138 119
92.636633129436930 -3.449396830389381 -77.663848616557942 136 133 114
91.394850513304817 -3.427202823940077 -78.732895797339722 137 134 117
90.658213834525668 -3.153034151597527 -79.381043455350181 138 135 118
88.658943262422710 -3.537154141073970 -81.081258564656508 139 136 121
87.164760318277018 -3.670989161029857 -82.360528863282866 137 134 119
86.344239510105695 -3.461165867554302 -83.078743186934332 137 134 117
87.123977347238224 -2.412141266692720 -82.464835268418028 137 134 117
85.377484646879395 -2.698892298562055 -83.954404057949858 139 136 119
82.957061131225629 -3.356881008408056 -86.004616398936719 141 138 121
83.148019160184845 -2.626902541706788 -85.881766330667915 140 137 120
81.317257831447719 -2.988718741944042 -87.441107498665275 139 136 117
79.065086379079204 -3.591606307664260 -89.350660463923987 139 136 117
79.003893945122599 -3.009694687998850 -89.438235006818246 138 135 116
78.858765286667520 -2.474097022014271 -89.596036899750800 138 135 116
76.606539172494166 -3.106515227590619 -91.505259741278451 137 134 115
73.848254191695546 -4.035549220320551 -93.834485849855895 138 135 116
74.125112600513717 -3.280889225981298 -93.642125403312207 137 134 115
74.655412677744081 -2.381133809563131 -93.239927467519379 135 132 113
72.909001693721009 -2.769024816007314 -94.728494265299531 137 134 115
73.271339618422729 -1.964935732083156 -94.466676839684936 132 129 110
72.031221804914210 -2.077739645196474 -95.535130854932220 136 133 114
70.959900842505448 -2.100985373627202 -96.463540802702568 141 138 119
69.551107874079094 -2.326900983793685 -97.671854656327866 141 139 118
67.551485037966785 -2.906777641266872 -99.369886222016191 141 139 118
63.947783669554838 -4.441482052204475 -102.397022407931701 140 138 116
65.071347401433144 -3.208259340127493 -101.506060122935281 140 138 117
64.084639555419898 -3.220359891843031 -102.364204533542051 138 136 115
64.787112952619282 -2.229904184708013 -101.823589577676927 137 135 114
219.829997658742798 -3.140151698363177 29.435309214009834 142 141 136
215.386201090573735 -3.479353156442868 25.689176930385173 154 153 148
213.128544236730420 -3.152510237800942 23.772677979457626 152 149 144
209.189094411482841 -3.380109030307080 20.449272469996941 148 145 140
206.258670786894186 -3.305940798622657 17.970352664264510 153 150 145
202.571336613996891 -3.498554942123640 14.858552431094040 152 152 140
200.229533186657363 -3.269938651477504 12.872461123603046 151 151 139
197.971852389442802 -3.028304734736338 10.956850726164134 152 152 140
