ply
format ascii 1.0
element vertex 679
property double x
property double y
property double z
property uchar red
property uchar green
property uchar blue
end_header
-106.473304606241769 -52.539777091018358 -14.830113772024021 15 25 24
-106.475257907769659 -52.022974468910185 -15.056216798118072 16 26 25
-106.475838334089374 -51.404046124052897 -14.840592294691845 16 26 25
-106.476535250021271 -50.783902462576158 -14.624924572898891 17 27 26
-106.476613056678559 -50.109895877443734 -14.188389699151429 20 26 26
-106.477552164752453 -49.486762975257342 -13.972636883224254 19 25 25
-106.480819923162542 -49.023616286918326 -14.419276540011708 20 26 26
-106.482371168257373 -48.426808971719495 -14.313818782260626 19 25 25
-106.484049665044495 -47.829313851091939 -14.208307227663028 17 23 23
-106.484035673303893 -47.092677057841250 -13.550743184308402 12 18 18
-106.483801690602292 -46.324642220771139 -12.782748694793042 10 16 16
-106.484079103037971 -45.580857662686995 -12.125118820213459 11 16 19
-106.486672703789978 -45.004697831825034 -12.129808753080738 16 21 24
-106.490843458371259 -44.543518597540768 -12.575996167602142 17 22 25
-106.494786070171656 -44.055306073400146 -12.911712107160326 11 16 20
-106.498506539578386 -43.539234223283032 -13.136962203995296 10 18 24
-106.502366632247131 -43.024084780957395 -13.362136010733479 21 30 35
-106.506368488458264 -42.509853719189550 -13.587232544926536 22 31 36
-106.510162149429490 -41.966379781493863 -13.701870805700537 22 32 35
-106.512002962568033 -41.240676560292265 -13.154165770220317 19 29 31
-106.508439609046945 -40.020732271853447 -10.840391382408910 21 31 32
-106.503032997173108 -38.603164074004091 -7.864379735729869 23 33 34
-106.504790186985019 -37.795668305570999 -7.095838867299193 10 20 21
-106.509142868831191 -37.204826622261905 -7.099838389483409 10 20 21
-106.512644780580302 -36.518348236655129 -6.772652699024917 13 23 24
-106.514303060588560 -35.637508265783424 -5.783196347584976 11 21 22
-106.519877611659794 -35.107403114793257 -6.007703909922526 9 18 23
-106.523954425280621 -34.415004305336517 -5.680304130276113 10 19 24
-106.530880891842799 -33.983967647689930 -6.235721833868439 12 21 26
-106.534022471677474 -33.157245648921361 -5.466716583243425 13 22 27
-106.536411409538871 -32.226034741355448 -4.366570296026168 17 26 31
-106.540665575252476 -31.457718099349101 -3.818149362293809 21 31 32
-106.547069723694491 -30.890435338284529 -3.931783850989206 20 30 31
-106.555576499688996 -30.529147642272839 -4.707445348705932 19 29 30
-106.562671098986257 -29.998633203574215 -4.931229938186419 18 27 28
-106.569960112238221 -29.468937409332327 -5.154913093978706 17 26 27
-106.579606989685516 -29.185861604482092 -6.150941866623356 14 23 24
-106.588186302317851 -28.765897650618985 -6.705454877418703 16 24 28
-106.596343199810988 -28.277058866301481 -7.039161163557424 15 23 27
-106.605593215648454 -27.897406946585456 -7.703797245140407 17 25 28
-106.611186636485783 -27.049867934908917 -6.933833322155351 21 29 32
-106.620551540389343 -26.636121821523847 -7.487906505423780 21 29 32
-106.633269896285896 -26.629365556527468 -9.255633791915017 18 29 31
-106.644960424692499 -26.482932053243736 -10.581855015853932 14 25 27
-106.654271151095500 -26.006827958141105 -10.914878229643648 12 23 25
-106.662139253713107 -25.306380643357684 -10.585747557645192 13 24 26
-106.671899136527998 -24.831237858527523 -10.918546001297528 11 22 24
-106.681875475771037 -24.357399457123286 -11.251227466262748 14 25 27
-106.693120985349935 -24.038637862836104 -12.025141020691990 17 29 29
-106.703261855738731 -23.529780157411967 -12.247245360888996 21 33 33
-106.710596864559150 -22.553627923857661 -11.145195493923637 17 29 29
-106.721016619117989 -22.003592567235057 -11.256731394218860 11 21 22
-106.732904643740326 -21.651510524734405 -11.919821670845408 5 15 16
-106.746188498695858 -21.501563150416821 -13.134457937944063 8 15 17
-106.755660283926304 -20.675326525758557 -12.473278227476811 8 13 16
-106.765237962841141 -19.804908423249195 -11.701643755059763 3 11 13
-106.777169126030074 -19.296239277211615 -11.922889684381374 4 14 15
-106.790008430504841 -18.911118226936765 -12.475006074171148 4 14 15
-106.804552493031466 -18.817015129921909 -13.799323514007881 7 15 18
-106.819243108479469 -18.729180589317323 -15.123506318029200 8 16 19
-106.831487922674981 -18.104212724371564 -15.013222664160111 9 17 20
-106.844230277411128 -17.520285610740363 -15.013137420451841 8 17 19
-106.855773525439488 -16.596972007538259 -14.130248221548925 10 19 21
-106.868081257701732 -15.753944124731401 -13.467884644597746 13 20 22
-106.881469858247598 -15.078727347208222 -13.246712159638804 16 22 22
-106.896200325004543 -14.661105515268034 -13.687399485827342 17 23 23
-106.910711071736372 -14.114739582124846 -13.796940498270487 21 27 27
-106.924301195935740 -13.218218780721315 -13.023655173975470 11 17 17
-106.937877929925932 -12.185021680786921 -11.919206478550251 4 10 10
-106.952626020272504 -11.367288007555841 -11.366273961570954 4 10 9
-106.970412953026411 -11.438566402936624 -13.019914323386274 4 10 8
-106.988807459264578 -11.697378782178419 -15.114769182306333 3 9 5
-107.006090830242243 -11.514491176304830 -16.106113395159412 1 7 5
-107.022390152258794 -10.835910950876576 -15.883583052684969 3 9 8
-107.040568192316030 -10.841936968784180 -17.315990215767300 11 16 18
-107.058062295379472 -10.440360277157069 -17.755190267130132 15 20 23
-107.075929383596076 -10.086755124539978 -18.304576973444796 12 17 20
-107.093775209383466 -9.548906631134816 -18.412434821213452 13 18 21
-107.111970027075969 -9.010971489288471 -18.520126604366880 11 16 19
-107.130293127076229 -8.284201083538886 -18.186265254256170 12 18 18
-107.149189727292494 -7.697441330130466 -18.183264998389461 11 17 17
-107.168431326718789 -7.062227219963438 -18.069739576198259 4 10 10
-107.188417589569497 -7.002260818251905 -19.280243214980175 12 18 18
-107.208362430884463 -6.367911970668970 -19.166372457697491 22 28 28
-107.228782844466025 -6.072590103787057 -19.824796607691013 26 32 32
-107.249515555637572 -4.948547346859062 -18.607000752374802 28 34 32
-107.270725281659409 -4.456947113984480 -18.823632150143482 14 20 18
-107.292262621813677 -4.064693560172609 -19.260801963000034 15 21 19
-107.314168305265582 -3.624187009675288 -19.587433369100239 14 20 18
-107.336255735287793 -3.384868173052581 -20.355342441739140 12 19 17
-107.358227003811479 -3.501268540924849 -21.895657683614189 12 21 18
-107.380852546507512 -3.219813395964822 -22.552884170263155 15 24 21
-107.403304293620280 -3.246619208345939 -23.872174024755310 15 24 22
-107.426006275808675 -3.228334397096285 -25.080949423165180 14 22 22
-107.446730037034754 -4.297490868710622 -28.607514199624489 18 24 24
-107.471033330830451 -3.622905748968891 -28.381113660856357 17 27 28
-107.496604077498915 -2.633649981718843 -27.492192530507282 18 28 29
-107.004344974264384 -176.028579833452511 -22.395362161619147 130 117 101
-106.985529775275140 -176.638991567313383 -18.739736811325685 122 109 90
-106.968640118767567 -176.670646724320051 -16.862889879024664 99 86 67
-106.955021011198866 -175.893509282441386 -17.542557989015592 102 89 71
-106.940222556762194 -175.464955699482800 -17.110613296527589 96 83 67
-106.924815342527012 -175.205580591352572 -16.122923969008752 87 73 59
-106.912283403241673 -174.364617267879197 -17.024446743122979 67 52 39
-106.898043448372903 -173.932317414253959 -16.592273428601999 67 50 35
-106.884674046189858 -173.364582254880531 -16.604513287980978 62 46 31
-106.871154338748454 -172.863360876375992 -16.394422623279240 58 40 26
-106.855931500404694 -172.689612818185708 -15.073187033964160 68 45 31
-106.841939056917269 -172.314205445936494 -14.418591918114657 89 60 49
-106.829891269985126 -171.645288733210919 -14.763817688607077 105 75 64
-106.818083450688150 -170.978310348076150 -15.108908707225680 152 122 111
-106.805232223869865 -170.503598442725149 -14.787366483440422 86 58 47
-106.793200093777330 -169.933157208267858 -14.798994451425330 88 64 53
-106.782036349095549 -169.269465551162057 -15.143743515013000 86 66 58
-106.770867001964888 -168.638578854443040 -15.377298695935565 109 90 82
-106.759199624660766 -168.100900779010772 -15.277556034861675 82 64 54
-106.745774488704669 -167.805660758481253 -14.289287663448420 70 50 39
-106.733174594164538 -167.415495624877337 -13.634178266007069 135 116 102
-106.720942740866434 -166.992466187213921 -13.090089972608837 140 121 107
-106.710122156371199 -166.419326315599363 -13.101166119760791 153 125 113
-106.699213649409899 -165.875651493079033 -13.001122145246313 170 133 127
-106.689268856392957 -165.244743704391880 -13.234091720788541 163 127 118
-106.680057361769812 -164.557764649473540 -13.689005428444688 171 137 127
-106.670218963714646 -163.958442957125470 -13.810740088524255 184 152 141
-106.658296722970391 -163.585010748665184 -13.044275378504864 184 152 141
-106.647902000640386 -163.068592003297908 -12.832846165769041 179 147 137
-106.637937771187339 -162.523674568038814 -12.732363242968546 170 140 130
-106.629303280306885 -161.869122196716518 -13.075808244947495 146 118 107
-106.618444850031310 -161.432752441034296 -12.531200229277971 124 101 88
-106.607691886626114 -160.993818045924570 -11.986568157741118 113 95 82
-106.597661229627818 -160.499324683584405 -11.663880203496177 109 97 85
-106.589317438662931 -159.872249944516625 -11.896044409639160 80 70 61
-106.583674801977139 -159.038859434525506 -13.015911184071769 115 107 100
-106.577289693375405 -158.288130674771480 -13.802705620841778 186 180 177
-106.510113299143867 -156.150320937361329 -7.981327226366147 178 181 167
-106.498721872232124 -155.805311421910972 -6.881739353009834 194 191 179
-106.491260292237911 -155.196643188060875 -7.002433160123104 199 192 179
-106.483214420018129 -154.635072240564995 -6.901203924765213 183 172 161
-106.475999975051863 -154.027206308499387 -7.021771244832877 77 71 64
-106.468909062579129 -153.420009394700287 -7.142272580837982 60 57 56
-106.462306041482321 -152.791087247164342 -7.373623024946312 63 63 65
-106.456198664747447 -152.141255820251672 -7.715810469127888 89 89 91
-106.450220926850392 -151.493175189469895 -8.057917872709680 115 116 119
-106.445877240160172 -150.760556470449501 -8.843549284487580 111 112 116
-106.442823770466106 -149.967970482544587 -9.961757388862083 76 77 80
-106.436871173642970 -149.349148361678772 -10.192692707578999 62 63 65
-106.431803765560048 -148.690011627543441 -10.645337303444478 54 56 55
-106.426469585573088 -148.053632913863169 -10.987016377416751 59 60 60
-106.422819082224834 -147.338156807318171 -11.772139715138024 59 60 64
-106.416140757399916 -146.786060628045277 -11.670158721244974 58 59 61
-106.410743000252481 -146.174521958301540 -11.900753634341612 59 60 62
-106.405446349305819 -145.564158021091771 -12.131288086466270 67 68 70
-106.402269418345682 -144.859386931633082 -12.916074676661651 70 72 71
-106.396368736405378 -144.290413540041868 -12.924754271623414 71 73 72
-106.391780759210135 -143.665804272488373 -13.265955215916449 69 71 70
-106.388115890404947 -143.006307759001430 -13.828791430109050 61 63 62
-106.384142578111152 -142.367633015644458 -14.280701988748916 59 61 60
-106.379850480737531 -141.748959788911719 -14.621700282499319 54 56 55
-106.374388447923863 -141.184429231934757 -14.630124296893854 55 57 56
-106.369000454281760 -140.619962630198160 -14.638512232879066 49 51 48
-106.363259120356631 -140.072493614024324 -14.536035356037047 46 48 45
-106.358439893674898 -139.491212877818214 -14.655183157111281 47 49 46
-106.352833312511507 -138.943316690937394 -14.552646212092611 43 45 42
-106.348155661865974 -138.362694223437359 -14.671719507785923 45 47 44
-106.343548799769266 -137.782670243885121 -14.790752777942998 49 51 48
-106.339887138757874 -137.172094453851656 -15.131366122114883 47 49 46
-106.335421673524380 -136.593806162409351 -15.250313882187641 43 45 42
-106.329693827594909 -136.061199841615888 -15.036818678624343 40 42 39
-106.325351571298000 -135.483278759328840 -15.155703716095843 36 38 35
-106.320177457988109 -134.934917746715001 -15.052964664623204 39 41 38
-106.315954839760167 -134.357629345023582 -15.171785955153382 34 39 33
-106.311340269744079 -133.794868081955059 -15.179786334019411 32 37 31
-106.305417586525294 -133.273154003744366 -14.855413335702252 33 38 32
-106.299990694563419 -132.736449235852064 -14.641816344167324 31 36 30
-106.294606570121175 -132.198693528765006 -14.428209710642591 28 33 27
-106.291106071099463 -131.608474511715855 -14.657677528059878 28 32 26
-106.286275037029867 -131.057120469610481 -14.554805157410811 27 29 24
-106.281487397929610 -130.505255658464563 -14.451917284359411 32 34 29
-106.278142259033586 -129.916768734689754 -14.681292948718948 38 40 35
-106.272975224123016 -129.376459373390446 -14.467608746352056 41 43 38
-106.269256479319537 -128.800613429643505 -14.586174137618855 40 42 37
-106.264638873164074 -128.247781317992178 -14.483214878299549 39 41 38
-106.260533717231027 -127.683483705037119 -14.490987369635548 37 39 36
-106.256469068504089 -127.119212216084776 -14.498740213555521 36 38 35
-106.250529046742258 -126.596585589639119 -14.063526018334869 35 37 34
-106.246534453507735 -126.031275513502052 -14.071256038647022 32 34 31
-106.241612174173582 -125.485710764767518 -13.857508842394310 33 35 33
-106.238171894696663 -124.910312805848179 -13.975936405470520 32 34 33
-106.235256983318081 -124.326162418746961 -14.205061612309919 28 30 27
-106.230431329325427 -123.779301714958549 -13.991281530741389 27 29 26
-106.226121662741576 -123.222599282513499 -13.888214793342797 26 28 25
-106.220857254423777 -122.682375194976856 -13.563717411394009 28 30 25
-106.217587950183585 -122.107618046640496 -13.682056584317763 29 31 28
-106.212371440069205 -121.565253848021030 -13.357558317271156 26 28 25
-106.208168448013097 -121.005902321582568 -13.254467815599355 24 26 23
-106.203990998440673 -120.446022593621294 -13.151370531534553 23 25 22
-106.199337649872177 -119.892756585927472 -12.937573952652656 22 24 21
-106.194704850602207 -119.338417394726193 -12.723778589873632 24 26 23
-106.190596041027149 -118.776405388112764 -12.620670417284714 26 28 23
-106.187521525708192 -118.201208141226004 -12.738920934011730 26 28 23
-106.182953127868089 -117.644732879085410 -12.525116749460722 31 33 28
-106.178402611061870 -117.087182024089984 -12.311315082301945 36 38 33
-106.173869376008398 -116.528555029962092 -12.097516224852626 39 41 36
-106.174478482042929 -115.916450599587861 -12.990396608374056 43 45 42
-106.174622586921316 -115.313672702998318 -13.772544559236678 57 59 56
-106.174811772575438 -114.714708874635321 -14.554631683490499 48 50 47
-106.171940300830201 -114.146107202446885 -14.672717173304108 36 38 35
-106.169612016773897 -113.573904332737925 -14.901438757844858 27 29 26
-106.165748303723120 -113.014440125459871 -14.798187106140375 27 29 26
-106.162945836297595 -112.447220770618955 -14.916225355637096 28 29 31
-106.160165890097360 -111.880551870127604 -15.034247164953655 35 36 38
-106.158459012564691 -111.308300941757253 -15.373530850355905 50 51 53
-106.155725875698238 -110.743275164426876 -15.491513352755533 43 44 46
-106.153542559959220 -110.176276047489154 -15.720112020108786 40 41 43
-106.149792506974165 -109.617121664952634 -15.616802804636734 34 39 35
-106.146588412018716 -109.055449715447054 -15.624117204216731 32 37 31
-106.143401304412691 -108.493782390703075 -15.631423429501979 35 40 34
-106.140765725172599 -107.930683721475859 -15.749339423975755 36 41 35
-106.138685981554062 -107.366968548763367 -15.977854739493978 37 42 36
-106.135552719039282 -106.806128220277088 -15.985126692784206 30 35 29
-106.131895997948547 -106.245911615885220 -15.881783761637024 26 29 22
-106.127170220520711 -105.685851976892351 -15.557232877812424 24 26 21
-106.124620593676113 -105.123856648753247 -15.675096395710682 23 25 20
-106.122633261944813 -104.562601821632640 -15.903542176125683 41 43 38
-106.120121808163091 -104.001969476065923 -16.021373402297201 35 37 34
-106.117081669949556 -103.441144153740694 -16.028600650774990 29 31 26
-106.113508353581437 -102.879310404140895 -15.925234465182399 22 24 19
-106.111046692089928 -102.319497538569678 -16.043033435573676 22 24 19
-106.109154183534173 -101.761782258273271 -16.271397418572946 22 24 19
-106.106729840378534 -101.203329380569642 -16.389164536961943 26 28 23
-106.103215248137460 -100.641226729703803 -16.285773025884083 28 30 25
-106.101379422842044 -100.085685957831558 -16.514087508498278 31 33 28
-106.099564448999516 -99.531231715401574 -16.742380831655510 40 42 37
-106.096653679283222 -98.972039941817428 -16.749529375749859 32 34 29
-106.094318015935130 -98.416030826242334 -16.867228915151685 26 28 23
-106.090317178802366 -97.850197954211808 -16.653249534083130 25 27 22
-106.089701713523681 -97.305638840912337 -17.102584930760912 33 35 30
-106.086857457808037 -96.747256590018267 -17.109693321961601 37 39 34
-106.086855788761426 -96.210224485626270 -17.669516486262438 24 26 21
-106.082917359969827 -95.644111705716355 -17.455510130489813 23 25 20
-106.081830184947435 -95.100978729931185 -17.794197626621781 23 26 21
-106.077920998789438 -94.534044671724928 -17.580185735103555 31 34 29
-106.075735739749618 -93.982092214223741 -17.697771564380446 29 33 29
-106.073570610236217 -93.430679246943299 -17.815342210516974 32 34 29
-106.073146126358367 -92.897507860060685 -18.264469022758504 22 24 19
-106.069876813033943 -92.335642817286796 -18.160957725268190 5 12 4
-106.066623441377189 -91.773229166276792 -18.057444448438901 9 14 7
-106.063963790130714 -91.216982504553158 -18.064442542802141 11 13 7
-106.062480821993788 -90.674705376034581 -18.292451690417124 11 10 6
-106.064502253766989 -90.177065834894435 -19.183478177539058 13 12 4
-106.065402116342995 -89.668704815181258 -19.853433811244571 26 8 5
-106.064590713079568 -89.140188407788671 -20.191838923431106 129 93 93
-106.066726506499904 -88.653668497132330 -21.082696240390504 142 96 99
-106.072413454463501 -88.221567504195434 -22.636447845453773 137 90 92
-106.074640367156974 -87.745357318335508 -23.527155448088763 137 88 90
-106.074560193187310 -87.237925870861304 -23.975852589523441 140 92 92
-106.070981724867707 -86.677687792487603 -23.761613558640789 141 93 93
-106.072140466326630 -86.191820993694037 -24.431213801260014 145 97 97
-106.072156218924817 -85.689793776145351 -24.879809423299974 146 99 102
-106.071022450874381 -85.169974880396595 -25.107420340918566 146 101 102
-106.068732801899486 -84.630732957697006 -25.114066389142124 150 102 105
-106.065875478777428 -84.080957334869211 -25.010233554478475 160 112 115
-106.067807502707979 -83.616965115560731 -25.790097580298891 154 106 109
-106.066800244433011 -83.101441981655825 -26.017603757639847 147 96 101
-106.065228641720495 -82.575654872415868 -26.134626682759148 125 77 80
-106.061892570343204 -82.015571465568769 -25.920270097898424 118 71 73
-106.060382484584437 -81.490023778694365 -26.037261129023250 118 71 73
-106.058906036682046 -80.965002350366106 -26.154230650869266 119 72 74
-106.055056229434811 -80.390811958853263 -25.829406160847213 121 76 77
-106.050630656310830 -79.802275734978153 -25.394145899185816 124 80 81
-106.046231395212885 -79.211544383800288 -24.958895645489378 90 48 50
-106.045489407248112 -78.698052227445856 -25.186254012551046 60 20 20
-106.041758060298761 -78.118069890958722 -24.861432470927753 75 36 36
-106.037451567100277 -77.522649935020141 -24.426186099550364 125 89 87
-106.025274765736526 -76.742315827833210 -22.555442766907618 117 83 83
-106.012498082378627 -75.938383663163222 -20.574370437494480 91 75 74
-105.998511398469333 -75.095436943934814 -18.372560794765917 18 13 11
-105.993689545671501 -74.464645852896027 -17.827066177596436 14 18 17
-105.992571219846823 -73.921962167050779 -17.944046181557411 12 17 16
-105.992112115639628 -73.395206337027318 -18.171405747655228 12 18 16
-105.989864095579719 -72.822445951315274 -18.067518018206101 13 19 19
-105.989503449621751 -72.296984464526048 -18.294817158889828 12 17 20
-105.987966039682846 -71.740114511188892 -18.301284792711954 14 20 20
-105.986478987157241 -71.183208261677549 -18.307728709334924 11 17 18
-105.983195977142472 -70.575939252949880 -17.982973560283966 10 16 17
-105.982428101748980 -70.035186787681340 -18.099766030936337 11 17 17
-105.979864354586340 -69.442980041668832 -17.885370630486022 12 18 17
-105.979825171136511 -68.920007711426592 -18.112490362469003 15 21 20
-105.979227179096839 -68.380216381904091 -18.229191668054170 16 22 21
-105.978069936671261 -67.822787956455528 -18.235483179674986 14 20 19
-105.973875141364488 -67.173272562607139 -17.689881319006247 13 19 17
-105.970976812025370 -66.558345887033724 -17.365020964250306 13 19 18
-105.969379752925676 -65.979639256151103 -17.260883024997810 13 19 18
-105.969088428691620 -65.438784239798053 -17.377448570818842 15 21 21
-105.969485600540210 -64.917915699725427 -17.604337896553659 15 21 21
-105.967465238179088 -64.319002225754332 -17.389751578396925 14 20 20
-105.966757029013394 -63.759023601173446 -17.395854524526158 14 19 21
-105.966119891826011 -63.198983806229101 -17.401924099721896 14 20 20
-105.966178123282319 -62.659467189445166 -17.518308642479695 14 20 21
-105.960082263144969 -61.911840605202208 -16.531190612797246 15 21 21
-105.957797381446156 -61.286030088787484 -16.206148819634279 16 22 22
-105.956212857037272 -60.679918082496961 -15.991428096204515 14 20 20
-105.957824691793917 -60.181025610386939 -16.328369005580782 12 18 18
-105.957648415187833 -59.617846132093717 -16.334250424992035 13 19 19
-105.958802626402644 -59.099032484372557 -16.560756433649743 17 22 25
-105.962536199807573 -58.671206960859038 -17.228527437487884 18 23 26
-105.961991984836274 -58.087201475355812 -17.123940364985685 18 23 26
-105.957796180373577 -57.364326194282405 -16.357376347424804 18 23 26
-105.953069422532266 -56.614231284614405 -15.480487636530853 15 25 26
-105.954046092570437 -56.071949531270505 -15.596461264358936 15 25 26
-105.958231845250424 -55.649411337659288 -16.263961522039011 15 25 27
-105.959398337923872 -55.109394748068944 -16.379821022900643 18 28 30
-105.956306744566547 -54.398994380339367 -15.723459228902357 17 27 29
-105.953320147959104 -53.685214998656598 -15.067081986706967 16 26 28
-105.954170736006617 -53.117754992142480 -15.072516219215089 15 25 24
-105.956989960328343 -52.625856019799613 -15.408807529955624 15 25 24
-105.960534171958756 -52.160980068121077 -15.855332732646303 14 24 23
-105.961083288435560 -51.569324261977556 -15.750301362720563 14 24 23
-105.958028697330178 -50.820743135318416 -14.983455995783345 14 24 23
-105.955097137057919 -50.068212331756072 -14.216592427325850 17 23 23
-105.955381905453223 -49.444677270048167 -14.001156784887939 17 23 23
-105.960109036680691 -49.007962326594047 -14.557685092414062 19 25 25
-105.960634433129954 -48.383888869239478 -14.342139876316850 18 24 24
-105.959440275145738 -47.676350985347931 -13.795699775676297 16 22 22
-105.958381373850813 -46.965934402209619 -13.249224600596676 11 17 17
-105.956847524992540 -46.224676029196303 -12.592435223919722 9 15 15
-105.956682431936514 -45.536445146722606 -12.156162970400743 11 16 19
-105.958493965949643 -44.931385556724678 -12.050665636133516 15 20 23
-105.963494423072461 -44.469517550632979 -12.496463213677259 19 24 27
-105.966188687557391 -43.893462583296497 -12.501103909946778 18 23 27
-105.970846299647590 -43.405223663026021 -12.836478067525690 9 20 24
-105.974427214751387 -42.859253218202781 -12.951243802995464 20 31 34
-105.981173608984534 -42.463037252197800 -13.617248110621745 21 32 34
-105.986844055746673 -42.009630941622845 -14.062638066935818 21 32 34
-105.990848352821288 -41.466959003144993 -14.177167304739100 20 31 33
-105.990205649269797 -40.679047079550557 -13.409572950714391 20 30 31
-105.981971999402219 -39.484425966709779 -11.208631037419536 23 33 34
-105.976951129309484 -38.434861408235506 -9.558953425911000 10 20 21
-105.981655676694018 -37.881231235314139 -9.673260464978341 8 18 19
-105.985339256189803 -37.264338981056326 -9.566989350126505 10 20 21
-105.988606910089857 -36.614603518040148 -9.350396399380202 8 18 20
-105.991468244943590 -35.931193658144323 -9.023485572836165 8 17 24
-105.995689904887215 -35.311151282412474 -8.916989467925220 9 18 25
-106.000678380111808 -34.723222069163562 -8.920654849219090 11 20 27
-106.007591104491269 -34.234577388998254 -9.254954345499158 13 22 29
-106.011782610725788 -33.580083235571962 -9.037968410553788 14 23 30
-106.016172270225894 -32.924232918411064 -8.820901639439910 14 23 26
-106.020763672080179 -32.267019696073774 -8.603752384542986 16 26 27
-106.030121856456489 -31.882665682446689 -9.268385119682506 19 29 30
-106.036806655954862 -31.328578860121347 -9.381749513448028 24 34 35
-106.044250051202440 -30.809597495266285 -9.605248524418670 25 35 36
-106.049639347058459 -30.151008072474973 -9.387731725688866 23 33 35
-106.055805696320974 -29.526405930536619 -9.280352224037813 22 31 38
-106.066627307927931 -29.186236629562977 -10.054688930083103 21 30 37
-106.073202946651534 -28.562140034056913 -9.947108421913384 22 31 38
-106.077809007524507 -27.792322693996734 -9.398534590181868 24 33 39
-106.083758904232937 -27.092399651618361 -9.070316184716063 24 33 39
-106.100770809786695 -27.125857181399052 -10.946434395897484 21 32 34
-106.114659026542171 -26.946137719282273 -12.161087997438585 19 31 32
-106.122292157791591 -26.324305874374392 -12.052978276253668 19 30 32
-106.128576508626992 -25.588771993863634 -11.614107544405670 19 30 32
-106.139854146221225 -25.191574841736788 -12.167095335661060 19 30 32
-106.149244594202159 -24.644170694652843 -12.279096568333358 18 29 30
-106.160417666422617 -24.212262377124766 -12.721632797847519 11 23 23
-106.171288154579500 -23.743493545163059 -13.053834321412239 7 19 19
-106.180856870052622 -23.159038182395765 -13.055272773382853 7 17 18
-106.191683021744410 -22.652735778957094 -13.277022974346437 3 13 14
-106.206231980342793 -22.424001371259163 -14.270147244871623 5 13 15
-106.218485445170401 -22.000740931005350 -14.712077601320658 6 13 16
-106.224614783593253 -21.057893797299691 -13.721120581737495 10 15 18
-106.236414611738326 -20.553862424151742 -13.942381602367703 10 17 19
-106.245119983576757 -19.765845518547540 -13.392034011592415 11 21 22
-106.258403221733488 -19.343118863163134 -13.833466233494761 10 20 21
-106.272387014342385 -18.963412120235812 -14.384979371898766 10 18 20
-106.290283024837080 -18.918117462429127 -15.818049726453523 10 18 20
-106.302396808154597 -18.336397725479173 -15.818242467520321 10 18 20
-106.311205810901683 -17.417647772050778 -14.936614346248064 10 18 20
-106.324834354026081 -16.917426053469196 -15.156961301212164 8 16 18
-106.334805039423102 -16.034146784971924 -14.385271202283633 6 14 16
-106.349899941422223 -15.618472340384395 -14.825764138465217 10 16 16
-106.364401734858433 -15.118146021629292 -15.045694410175543 9 15 15
-106.381689385108416 -14.879288231309175 -15.926753820144455 7 13 13
-106.391389185460113 -13.812976039151671 -14.713641821842259 11 17 17
-106.401158195662759 -12.695861431406067 -13.390160763648680 11 17 17
-106.414195395052360 -11.881678187919706 -12.838010184681877 6 12 11
-106.434632373434042 -11.867042838338680 -14.269549357247740 4 10 8
-106.453686495354262 -11.679624616327089 -15.260093084827446 4 10 6
-106.469953967434463 -11.135317208213412 -15.368772496453261 2 8 6
-106.489839559493532 -11.000111370560543 -16.469239888187559 2 8 7
-106.510985869954681 -11.007209324820201 -17.900216006903747 7 13 13
-106.528775034228943 -10.560802281745474 -18.228877478402495 13 19 19
-106.545843705731798 -9.976535673226401 -18.226726034173851 12 18 18
-106.561606305239224 -9.158636905119051 -17.673309878894003 13 19 19
-106.583003582045777 -9.087370340500362 -18.883254811689568 12 18 18
-106.599216114968698 -8.219841297281610 -18.219275394239332 12 18 18
-106.616827646337995 -7.490569006658213 -17.885780209280483 9 15 15
-106.636357734979143 -6.997597328822575 -18.103229256786676 6 12 12
-106.658822581245090 -6.937328798370520 -19.312550259721576 7 13 13
-106.680353842150424 -6.689394537320871 -20.080814084651195 22 28 28
-106.698386370618152 -5.764303941604545 -19.305697612626602 11 17 16
-106.719021208877066 -5.225576557694199 -19.412230253250300 28 34 32
-106.740287694066126 -4.735849221288213 -19.628815218963723 12 18 16
-106.762635060660685 -4.394912005410239 -20.175928178022815 15 21 19
-106.785291485671436 -4.056080919242808 -20.722871605143808 14 20 18
-106.806313490577324 -3.268922871480728 -20.277481823592211 12 19 17
-106.829900680281170 -2.982005632707375 -20.934304485684351 12 23 19
-106.855143096822886 -3.052134650699631 -22.362672230888762 14 25 21
-106.881255151062533 -3.332652022965017 -24.231893851060647 16 27 23
-106.907410915164206 -3.622215663138693 -26.101001442804346 15 26 22
-106.931696282617409 -3.302826348722502 -26.646965465521077 16 26 23
-106.955864426434999 -2.830111802651345 -26.861987166495283 20 25 28
-106.981510550727450 -2.774363516609094 -27.958880842859827 20 25 28
-106.469843031391079 -176.702629420919266 -18.764066755736593 124 111 95
-106.459000538613424 -175.822793342950803 -19.776040326142919 110 97 80
-106.440592967031378 -175.643612395994779 -18.567243110666510 107 94 78
-106.419440934747939 -175.700072709756995 -16.581321067466462 110 96 81
-106.401137791164288 -175.507395078449036 -15.372612822145783 104 90 77
-106.390819615864089 -174.664200915878780 -16.273099502305143 50 36 23
-106.377443931896181 -174.095007551451232 -16.285357376905637 61 44 30
-106.366429875837298 -173.359224203918785 -16.852494675795498 64 48 33
-106.352207905978489 -172.891330846097929 -16.531538024047194 59 43 27
-106.335066003445263 -172.651852480829689 -15.433614873374154 67 49 33
-106.317560164798294 -172.439679942841224 -14.224725870972492 76 54 40
-106.308747080370637 -171.608520872585615 -15.124368637566334 101 76 63
-106.296093065954793 -171.070030182324956 -15.025106344957436 132 106 93
-106.282694022156278 -170.594698331444448 -14.703832576348447 164 141 127
-106.270397515114254 -170.055084972496644 -14.604410809630110 118 96 84
-106.260188614553812 -169.390502967664474 -14.948712243859518 75 57 47
-106.248272238355739 -168.851399799203762 -14.849103372201427 126 108 100
-106.237505883069176 -168.250756739509171 -14.971295565337613 122 105 95
-106.223973903596772 -167.832956164591735 -14.427775424533735 133 117 106
-106.209571844150346 -167.472769023985876 -13.662360713144182 143 128 115
-106.196281267040618 -167.049375173781925 -13.118782660669780 144 128 113
-106.187183659790250 -166.387327040148620 -13.462526373579720 138 114 102
-106.176233451525547 -165.844112950706858 -13.362497606268846 171 139 131
-106.166479583961632 -165.242631757761501 -13.484214056075615 171 139 130
-106.156378156749696 -164.670600778800434 -13.494934746459165 176 144 133
-106.145383553696490 -164.155606448665253 -13.283777852383537 186 156 146
-106.130800054102735 -163.836703114049271 -12.296307216543340 189 160 149
-106.120591926220101 -163.290116378237428 -12.195958156864720 191 162 154
-106.109988518922520 -162.770763553011875 -11.984658980259979 178 148 140
-106.108812699904476 -161.786093209701363 -13.658240468354563 142 115 107
-106.098001754434037 -161.296619835788050 -13.335874128177352 119 98 91
-106.082869258720677 -161.019831739385950 -12.126514847054267 100 88 81
-106.067228115992378 -160.763678558467177 -10.806327610447937 127 122 116
-106.063468813321577 -159.950470680192211 -11.814226769455729 131 127 122
-106.065604149344011 -158.882887600047269 -13.930513214462593 180 179 174
-105.970580706167340 -155.568586497067088 -8.245425854315414 176 178 170
-105.958144620541972 -155.174142264700805 -7.368564368322978 196 197 189
-105.949405203583368 -154.636185355445065 -7.156564966312118 111 108 102
-105.941377733591693 -154.074321036843230 -7.055329947207554 90 88 84
-105.932845222321646 -153.534694786354748 -6.843248745592433 83 82 82
-105.926259514927239 -152.926918543137845 -6.963514356548473 88 87 91
-105.922267799949140 -152.231329029285291 -7.526878456214178 112 110 115
-105.919661702062086 -151.494889821662440 -8.311717937673080 132 131 135
-105.919083355643281 -150.697662846491284 -9.428789723570020 131 132 136
-105.918042301041581 -149.927297373678272 -10.434947483617350 71 72 75
-105.912101296324806 -149.330154205310293 -10.554795219441274 71 72 74
-105.908169752688153 -148.671392721339146 -11.006892559010623 53 55 54
-105.901805697120054 -148.096829474877325 -11.015851369511864 56 57 57
-105.899382078360560 -147.401109578002973 -11.689325524339949 62 63 67
-105.893221074193619 -146.828360518334790 -11.698168521410850 68 69 71
-105.889090445513659 -146.196708860191109 -12.039223162605992 70 71 73
-105.885064535532877 -145.566775071619162 -12.380210023839908 72 73 75
-105.885056712232867 -144.823853609658414 -13.385590994583708 66 68 67
-105.879939369647218 -144.236671440029141 -13.504942159703376 66 68 67
-105.876883235358051 -143.594392296955391 -13.956451045426661 56 58 57
-105.871945851854264 -143.009263075050399 -14.075694986716144 50 52 51
-105.868418348039185 -142.388693840079270 -14.416347018094228 54 56 55
-105.863650308856307 -141.805335040301912 -14.535491721796689 54 56 55
-105.858961493723356 -141.222585463723078 -14.654592253944884 55 57 56
-105.854350101811391 -140.640442872777299 -14.773649499081444 45 47 44
-105.849814359876319 -140.058905087349245 -14.892664327961313 46 48 45
-105.844676334812846 -139.494635015316277 -14.900930656856360 44 46 43
-105.838926966448668 -138.946813676461943 -14.798461250296810 43 45 42
-105.833919512476143 -138.382381403096986 -14.806666784049298 42 44 41
-105.830343082547799 -137.786304947835561 -15.036231220106089 44 46 43
-105.828896043899562 -137.144639877357179 -15.597822883953057 51 53 50
-105.824780820989673 -136.566960450075754 -15.716596821954056 44 46 43
-105.817277519144710 -136.065029979893978 -15.281917458633416 40 42 39
-105.812584667132938 -135.501929525533569 -15.289958778804220 40 42 39
-105.807948359117120 -134.938872495901819 -15.297972601528613 36 38 35
-105.805458570480653 -134.333211811277266 -15.637974732324096 33 38 32
-105.798839697816319 -133.812882364883819 -15.313920535940468 34 39 33
-105.792260111567003 -133.290959139716335 -14.989863950636135 33 38 32
-105.785718682050273 -132.767440834315892 -14.665805530243858 34 39 33
-105.782742982534018 -132.176691830146893 -14.895027740800316 31 36 30
-105.777700653593143 -131.625630060036997 -14.792253444390866 34 37 32
-105.772701349134323 -131.074057480805493 -14.689463823231591 31 33 28
-105.766319990430986 -130.546594495307460 -14.365369430084797 33 35 30
-105.763541027362848 -129.957336056776768 -14.594482179457856 33 35 30
-105.758665723950983 -129.404495623964635 -14.491646287276609 37 39 34
-105.755264686827132 -128.828149713762286 -14.610064834684408 34 36 31
-105.749749004466707 -128.286043770179106 -14.396565917186450 35 37 34
-105.744987424302082 -127.731925068857976 -14.293688778053394 33 35 32
-105.740260930405611 -127.177287488629645 -14.190800194851249 32 34 31
-105.735568482448855 -126.622130018389257 -14.087900675677275 30 32 29
-105.731636644923995 -126.056316346988538 -14.095605857632080 34 36 33
-105.728470038171139 -125.480661180757934 -14.213905144179193 38 40 38
-105.724610583373021 -124.915162342994250 -14.221572457744855 35 37 36
-105.721518013532787 -124.340363878590253 -14.339827506824520 30 32 29
-105.716256930244569 -123.793271883038386 -14.126258113940821 29 31 28
-105.712493970077929 -123.227558825356837 -14.133881469878759 28 30 27
-105.707284755614779 -122.678871635053198 -13.920303683267804 28 30 25
-105.702838771376264 -122.120881522994480 -13.817315414501081 27 29 26
-105.697676278904936 -121.570324266746198 -13.603734525777696 26 28 25
-105.692535079077487 -121.018695002897317 -13.390154485439155 22 24 21
-105.688160027431110 -120.458576168340258 -13.287154194773564 23 25 22
-105.683060900126861 -119.905072699329551 -13.073573319219378 21 23 20
-105.677980857266576 -119.350495270573120 -12.859994368539816 24 26 23
-105.673669958047526 -118.788241773254370 -12.756985360729061 25 27 22
-105.670132602923715 -118.219126975740124 -12.764535803804762 25 27 22
-105.665864915221306 -117.656081521367966 -12.661514275764318 26 28 23
-105.660861204473193 -117.098289518664899 -12.447931897288441 31 33 28
-105.657388184130895 -116.528391919369867 -12.455459620597196 32 34 29
-105.656214234317247 -115.942776161680541 -12.794625926107528 35 37 34
-105.655071299239751 -115.358800205210670 -13.133760514976615 48 50 47
-105.657008080495757 -114.757667018415830 -13.915033925780847 53 55 52
-105.656695586244595 -114.173628723635815 -14.364630761205206 48 50 47
-105.655649754187692 -113.595927808022083 -14.703654304174279 33 35 32
-105.652330832210581 -113.031516328389301 -14.711051835967652 26 28 25
-105.649798972508393 -112.463499597562489 -14.828968835448649 25 27 26
-105.648058451246982 -111.892692421669423 -15.057394869705433 38 40 39
-105.646341609954007 -111.322978275442978 -15.285798324443022 45 47 46
-105.643101037621093 -110.759950645854559 -15.293144129371484 43 45 44
-105.642202102162670 -110.189352721173648 -15.632024282857458 35 37 36
-105.638998908792431 -109.627150598290513 -15.639343708463059 30 35 30
-105.636589650890230 -109.062971353756780 -15.757162554489014 32 37 31
-105.633419308722424 -108.501049900858177 -15.764463375114843 35 40 34
-105.629482989559094 -107.940570751883101 -15.661256905230516 36 41 35
-105.627123952815694 -107.377218639067394 -15.779043211543922 37 42 36
-105.623998425125379 -106.815308213393052 -15.786322479568582 30 35 29
-105.620101651753785 -106.254024026895451 -15.683105377768641 25 28 21
-105.614641736176225 -105.692902100395671 -15.358916637777412 24 26 21
-105.609975678708508 -105.130072652342506 -15.145224580085170 21 23 18
-105.609268574193948 -104.567118429828625 -15.483934281838856 29 31 26
-105.608584199217418 -104.005796415649627 -15.822616308719091 47 49 46
-105.608715525213299 -103.446841719981762 -16.271742623971960 23 25 20
-105.604899244196901 -102.885026588393657 -16.168492480189769 27 29 24
-105.603481779654075 -102.326505590527120 -16.396637497417203 24 26 21
-105.599691167582947 -101.764420727233102 -16.293377850183532 22 24 19
-105.596710155948884 -101.203615260569265 -16.300576608324036 25 27 22
-105.592141946535804 -100.638622244668966 -16.086860011148616 27 29 24
-105.592392525271180 -100.086736297368702 -16.535856514121662 28 30 25
-105.591061722343994 -99.531749091151312 -16.763923697636585 39 41 36
-105.587336388352625 -98.969121046093861 -16.660638412836050 29 31 26
-105.583622110045297 -98.405948808624203 -16.557353440680060 25 27 22
-105.579111578179820 -97.838779618592184 -16.343631651217038 24 26 21
-105.577845142683557 -97.285418984822428 -16.571651298446369 30 33 26
-105.576598677982020 -96.733143550118811 -16.799650221216751 39 42 35
-105.576995646903498 -96.190488234099689 -17.248481676101704 30 33 26
-105.575792421393800 -95.640925728472595 -17.476431987849111 19 24 17
-105.576238522314640 -95.102069584984903 -17.925200831362616 22 28 20
-105.572632106653529 -94.539970531282222 -17.821853211266699 23 30 23
-105.570672819167839 -93.988033762974311 -17.939330775029902 26 30 26
-105.567913743227848 -93.431010686150572 -17.946384425856365 29 31 26
-105.566810564525838 -92.885779504460459 -18.174242291060722 18 21 15
-105.564087173318953 -92.329291672334918 -18.181273360890657 4 11 4
-105.563025754873578 -91.785681883786950 -18.409094558317236 5 12 5
-105.559515856012723 -91.223014706490488 -18.305706612896529 12 11 6
-105.559321535110683 -90.687737847870551 -18.643886103717193 12 3 1
-105.559979783768270 -90.161342039861935 -19.092425195987971 18 5 3
-105.567288337902255 -89.697340030171574 -20.424011633567915 128 99 96
-105.571331277715501 -89.208652924857574 -21.313978886253409 134 93 94
-105.574584139936562 -88.716234747349915 -22.093503630230799 138 91 93
-105.582032100126966 -88.269330905938446 -23.424847376395746 136 88 87
-105.584534712672422 -87.777249397294256 -24.093868686824067 135 87 85
-105.584571719791001 -87.261759303258984 -24.431733836004724 146 98 96
-105.581297390486966 -86.711255556770098 -24.328107990611755 147 99 97
-105.584733984429647 -86.235642915639545 -25.107371850134996 153 105 104
-105.584022801509434 -85.715313264645104 -25.334785861936126 158 111 111
-105.582501429941530 -85.186085817264598 -25.451820169776767 159 113 115
-105.583526676837067 -84.688128091553665 -25.899890963881319 161 112 115
-105.583745368632705 -84.181814943063358 -26.237574732824640 165 116 119
-105.583996894855829 -83.677119840565851 -26.575226138530127 162 113 116
-105.580065026328583 -83.118735937870255 -26.361137087133727 150 100 103
-105.577000593204488 -82.570583770311643 -26.257386622144509 140 91 94
-105.573962223823983 -82.021873127709739 -26.153629437013848 118 69 72
-105.570950810904222 -81.472603213629512 -26.049865112867082 114 65 68
-105.565423912393655 -80.886327648860473 -25.615108451395741 111 64 64
-105.559070593757497 -80.285439735293878 -25.070038673806067 81 37 36
-105.552738720364957 -79.681815162823597 -24.524986806690237 68 26 25
-105.551535062487403 -79.153237282770206 -24.641862435067623 89 47 48
-105.551219380274304 -78.638418986379051 -24.869030509544530 110 71 71
-105.549236780476974 -78.097651547024839 -24.875545369403284 122 84 81
-105.543874457310366 -77.501743294749701 -24.440809129743059 115 80 77
-105.530847526234112 -76.777172366228882 -23.013334037511612 109 77 77
-105.506708585746836 -75.859301815248514 -20.151999118646899 35 24 22
-105.488558398376640 -75.029433805726157 -18.062905540894036 14 13 10
-105.485852653028672 -74.456818125172688 -17.959235296130885 12 18 16
-105.488338938970074 -73.974466238187205 -18.517305380346670 9 17 14
-105.487440141457782 -73.433159233409327 -18.634166191845651 11 17 15
-105.480566438316984 -72.782582399306960 -17.978997952519450 12 18 16
-105.479756360704258 -72.240396514324999 -18.095825367478056 13 19 19
-105.478995418057252 -71.698721133047954 -18.212624021566427 13 19 19
-105.476559632635940 -71.124556241136872 -18.108840575710445 12 18 18
-105.472445774188131 -70.516268154663450 -17.784493391581094 12 18 18
-105.472699306555469 -69.991527090178849 -18.011491295790563 13 19 19
-105.473873209699633 -69.485150504497426 -18.348718747889791 13 19 19
-105.469912817004769 -68.874839744559566 -18.024318966664339 13 19 19
-105.468602231469987 -68.316433046832316 -18.030693906951001 15 21 21
-105.464748652388252 -67.703586363242380 -17.706269129995235 16 22 22
-105.460950008386590 -67.089060727605599 -17.381835354582364 13 19 19
-105.458075822861389 -66.491530468729167 -17.167643264372799 16 22 22
-105.458734384119396 -65.968655754712771 -17.394428192866371 16 22 22
-105.459458053648106 -65.446818494067074 -17.621171294757659 15 21 21
-105.458509635627692 -64.887030886663823 -17.627387189743871 14 20 20
-105.456757627220753 -64.307422678386359 -17.523332658097871 13 19 19
-105.454202423686212 -63.707174890602616 -17.309015940887576 13 19 19
-105.453456030825990 -63.146398321963702 -17.315145367604430 14 19 22
-105.451909886348943 -62.564977833162558 -17.211011006073846 15 20 23
-105.446080439564966 -61.878674819228124 -16.555710945602272 15 21 21
-105.442936341619870 -61.252418231817657 -16.231084790179210 14 20 19
-105.438995704814843 -60.603058615874957 -15.796218622374653 14 20 18
-105.445592681693284 -60.211514899576827 -16.683964086778872 11 17 15
-105.443553212575182 -59.604810680178552 -16.469467103285581 12 18 16
-105.443338872506374 -59.041375296820419 -16.475369366286344 12 18 18
-105.442335935916887 -58.455371760052039 -16.371022311579338 14 20 20
-105.442290311540859 -57.891504834883584 -16.376848303647648 17 23 23
-105.441459814165043 -57.304519149410716 -16.272428864361927 18 23 26
-105.438102533178807 -56.646977556459525 -15.837367842332839 16 22 22
-105.436580878836025 -56.034326572427773 -15.622684351061707 16 22 22
-105.439511596300832 -55.539761030942394 -15.958949772200555 16 22 23
-105.439921690036655 -54.974358075153596 -15.964573561420991 17 22 25
-105.438686211364342 -54.360058383272516 -15.749770135668257 18 23 26
-105.433195934635748 -53.621203579040241 -14.983989874461543 20 25 28
-105.433035491322755 -53.028095759136860 -14.879312901814103 19 25 25
-105.434719892494186 -52.484771622082214 -14.994958683273097 18 24 24
-105.439118548041989 -52.018358283681458 -15.441090948016353 19 25 25
-105.439274355664594 -51.425191919323055 -15.336263284632878 16 22 22
-105.436934576933965 -50.753247557705386 -14.900863747945607 16 22 22
-105.433843295658875 -50.052684823317556 -14.355259425866706 16 22 20
-105.430872846899305 -49.349264234278522 -13.809626715260237 16 22 20
-105.433227172869991 -48.804130665376690 -13.924970632382554 18 24 22
-105.433967177820591 -48.205148479321849 -13.819923356174144 19 25 23
-105.430504261425156 -47.468457063696405 -13.164009828808020 15 21 19
-105.428904529932410 -46.783700296059116 -12.728388140590368 11 17 14
-105.427438946932327 -46.096610021950838 -12.292726296148061 9 15 11
-105.431284905314612 -45.576539246451404 -12.517957522435097 10 16 14
-105.431813173388562 -44.943410550098861 -12.302504142686445 13 19 17
-105.436781005179185 -44.452899707305406 -12.637753278263858 16 22 20
-105.440160404043425 -43.905775598733733 -12.752627293652381 17 22 23
-105.447107137006199 -43.476322653323521 -13.308018999922524 13 25 26
-105.452469223651136 -42.990249137780452 -13.643033849690568 21 32 34
-105.460531487304905 -42.595258581410604 -14.308396036139470 23 34 36
-105.463601005615857 -42.022513429919542 -14.312823142667696 18 29 33
-105.470226540375037 -41.571262691187208 -14.757733999773905 21 32 36
-105.471037384544616 -40.907165908428013 -14.431605321739625 22 33 36
-105.464373360401680 -39.962517049826381 -13.114210494253967 20 31 33
-105.451979171656987 -38.792380067197158 -11.025865825965269 12 22 24
-105.447420001570677 -37.895257943838466 -9.928692596793439 5 15 17
-105.458239720346953 -37.564693249537072 -10.813790228241459 10 19 22
-105.462465528926629 -36.981772916971124 -10.817768907718943 9 17 20
-105.470217203382504 -36.528002245030692 -11.262166962392769 10 19 24
-105.469754609932124 -35.750030729984040 -10.605243007614661 12 21 26
-105.473667261557040 -35.132989707454804 -10.498863836787933 11 20 25
-105.480260000150608 -34.614665788806946 -10.722763031561982 11 20 25
-105.491174314085754 -34.264420134053871 -11.497159110102558 12 21 26
-105.496445510463360 -33.681748442024393 -11.500635120258835 13 23 26
-105.502728142118599 -33.132818292888786 -11.614138829514360 14 24 26
-105.511661680186194 -32.686993412408960 -12.057889694664311 15 25 26
-105.519126737181011 -32.174016646660142 -12.281316534374241 16 26 27
-105.520242780315868 -31.383287422548843 -11.623768686773218 19 29 30
-105.521592426616692 -30.588965657369460 -10.966146064048218 22 32 33
-105.525612398387949 -29.897169990979243 -10.638767268893218 24 33 38
-105.533894314466863 -29.381684838510566 -10.861829146101911 26 35 41
-105.546393702565567 -29.046652250134144 -11.635310334861202 28 37 43
-105.550248873415129 -28.316924998173032 -11.197541943847227 27 36 41
-105.558333798264485 -27.767084387166800 -11.310192814057842 27 36 42
-105.570599878798589 -27.401278236350450 -11.973243499173407 22 34 35
-105.584624673078565 -27.112547292121043 -12.856377217681569 13 27 27
-105.594095180862411 -26.604034867849744 -13.078798702898609 8 22 22
-105.599081837778968 -25.870740950482755 -12.640525726307345 7 21 21
-105.610560195059378 -25.437838595339642 -13.082926140623783 4 18 18
-105.623789616494875 -25.083101110725007 -13.745402031412482 4 18 18
-105.637206371569633 -24.731339488238149 -14.407757670386474 4 16 16
-105.648513828384637 -24.266436446993108 -14.739710357117104 6 17 18
-105.660038267706369 -23.802829193539129 -15.071545901965578 10 18 20
-105.672539357618206 -23.379772580710476 -15.513355697325068 9 17 19
