ply
format ascii 1.0
element vertex 682
property double x
property double y
property double z
property uchar red
property uchar green
property uchar blue
end_header
45.671799671331428 -2.489594800898723 -85.470388579918335 142 139 120
44.884212926812793 -2.439865105854165 -86.313569407820381 140 138 118
44.824337603122828 -1.902621444288177 -86.401314262019582 142 139 120
45.128526276034933 -1.117400962289933 -86.111484209669413 141 138 119
201.940485738034909 -2.511762436527627 77.896320641784797 165 163 160
199.543479362172718 -2.163095116929039 75.381108065495397 184 179 176
194.236422023619753 -2.818294737864237 69.834031804836684 187 183 180
192.494168965109367 -2.291987402952806 68.001488912200699 178 175 168
187.769056408342948 -2.811553723830079 63.061487200345056 175 172 165
184.717243593290931 -2.780717452954421 59.865073410440232 169 166 159
181.010628506908176 -3.004258952343654 55.986803256559256 172 169 162
177.958797593321776 -3.021394167392396 52.790891919534658 172 169 162
174.979719958025640 -3.035011293037377 49.670998335012342 172 170 159
172.728223829398900 -2.805354483173025 47.309116960016240 171 169 157
171.349859953005875 -2.270638461460712 45.856698599727935 168 166 154
167.715969138123484 -2.586022245840586 42.055441667336538 169 167 155
164.882435367365133 -2.627501870156434 39.087924969438632 166 164 152
161.394041822128827 -2.938803541805293 35.438738392575402 167 165 153
160.306838026222238 -2.355211080286652 34.289962477729176 161 158 149
157.837159883771676 -2.315062440608903 31.701832678316123 160 157 148
155.513030842342857 -2.236404805300484 29.265394065278429 161 158 149
153.188923638789618 -2.175046199065753 26.829123072672502 158 155 146
151.592525563095450 -1.841065775861664 25.150501143566061 162 159 150
149.414015738063938 -1.753052887116145 22.866020268062499 159 159 147
144.906852075836582 -2.626358268930348 18.157970420744562 156 156 144
142.437264757370031 -2.698664014412208 15.570954720927574 154 152 139
140.622660248292220 -2.518636397531481 13.665730060416195 153 151 138
139.390300994258780 -2.109287378155257 12.366471824628007 150 148 134
138.449114630776364 -1.586578482836548 11.370186145589031 149 146 131
137.071336265610029 -1.256176635155256 9.919590787168829 148 144 132
134.747480775485229 -1.341123733404251 7.484705373835425 153 149 137
132.059740204403568 -1.600521795598957 4.671402622744324 151 147 135
129.590354634453320 -1.784776831941604 2.085442757417894 149 145 133
128.067184507376396 -1.571634662770701 0.483891562470575 148 144 132
126.689643985437726 -1.305264844306496 -0.966158465490821 147 145 131
125.021015372381129 -1.179178415953793 -2.718944480703044 144 142 127
122.551749550460414 -1.426211072523556 -5.304315431494558 144 142 127
120.592036663889147 -1.460104057210399 -7.359636519227507 146 144 129
118.850740107208779 -1.408503766851132 -9.187750600978490 146 144 129
117.910238969046645 -1.000054917519098 -10.183187953409259 147 145 130
116.096259559238234 -1.005128308936882 -12.086806321603234 145 143 128
113.699929120727376 -1.296892352876855 -14.595749982254603 145 143 128
111.449211263099556 -1.537583258064808 -16.953162154115518 145 144 126
110.072149810193892 -1.378543183009229 -18.402336568093517 145 144 124
108.185516258555367 -1.474480770545622 -20.381121017977108 142 141 121
106.735764022650699 -1.372901613932824 -21.905787821352561 138 137 118
105.358883011712066 -1.246495903153753 -23.354712636243477 143 142 124
104.054879944142272 -1.094442327338433 -24.727907130876048 138 137 119
102.022803571417342 -1.312638934862828 -26.857571530018760 146 145 127
99.699483410838994 -1.691238488807328 -29.289690330927414 144 143 125
96.793612052561855 -2.379960434861845 -32.326797469465077 141 140 122
96.145172510334106 -1.946870586934652 -33.018774190782693 143 140 123
94.987077386213500 -1.778552621058876 -34.240220193127243 144 141 124
93.901887990060430 -1.581293443080275 -35.385983067346132 145 142 125
91.942829533929128 -1.844420662460299 -37.439257609223262 143 140 123
89.546797591173600 -2.349908926059421 -39.946144098462042 144 141 124
88.534614035210595 -2.146409855420451 -41.016038061814072 144 143 125
87.959546325228061 -1.719147501931697 -41.632196745931992 144 143 125
86.947558739497183 -1.528769063932874 -42.702049403508369 144 143 125
85.498599333481906 -1.580197431338932 -44.225520510676205 144 143 125
83.904000578233791 -1.720975784373035 -45.900116297934261 144 143 125
82.163742916994622 -1.952746605268008 -47.725810502501702 144 143 125
81.079188569816566 -1.838318300313577 -48.871024562186761 142 141 121
79.994717193935927 -1.731800846163423 -50.016196884694693 143 142 122
79.201766757202066 -1.471419504464152 -50.858980083847484 145 144 124
77.607434223931733 -1.664637517133761 -52.533163443027149 143 142 122
75.794537121680136 -1.992577866235054 -54.433976151656623 142 141 121
74.491740705406599 -2.045044642518487 -55.805642673406908 143 142 122
73.626244615716388 -1.857806794354318 -56.723826263048494 143 142 122
72.615096768102447 -1.760446531229388 -57.793123165659352 142 141 121
71.239632176830654 -1.880887777802153 -59.240184671126514 144 143 123
70.228640649496157 -1.799582287847037 -60.309391096977691 144 143 123
69.217736140233740 -1.725611695080423 -61.378563650194820 142 141 121
67.842455019880759 -1.873567273323943 -62.825429708682748 140 139 121
66.248529247817743 -2.161194689815052 -64.498835857608981 140 139 121
64.290117874645858 -2.677919516576561 -66.549809554186595 142 141 123
63.716878661894128 -2.377958123235587 -67.165532612378854 146 145 127
62.341769875855817 -2.566262272982036 -68.612065786896324 145 144 126
61.914580835788527 -2.188753704880565 -69.076739209267998 144 143 123
60.758361488702690 -2.259903914802980 -70.296617610684393 143 142 122
59.820974877898635 -2.204916554889609 -71.289906585653171 142 141 121
58.373184579835240 -2.472604336131149 -72.811710923271789 143 142 122
57.144214960522589 -2.614706960952672 -74.106914379892459 145 144 124
56.571732131318967 -2.354613857360923 -74.722588905046990 143 143 123
55.634675190702310 -2.328313873687262 -75.715740299528420 142 144 123
55.062443785901792 -2.077556601892390 -76.331439006848996 145 144 124
53.833777552318594 -2.249441072055742 -77.626481042667479 139 138 118
52.896988234175723 -2.243104514459859 -78.619554973249706 138 137 117
52.033248517587339 -2.196433607217893 -79.537131879625150 141 138 119
51.242574154861458 -2.108589519451358 -80.379227932151622 143 142 121
50.816879209713051 -1.788193774450426 -80.844028233431942 141 140 119
48.664882559480276 -1.425603711315816 -83.144019281671405 140 139 118
47.144811968716567 -1.851124877173462 -84.740479201622236 141 137 118
45.989745752746288 -2.042686344894886 -85.959669803445820 143 138 119
45.491815283447423 -1.798825500169351 -86.499983950319290 143 140 121
45.359123942022649 -1.310340133696637 -86.663250862521579 140 137 118
44.131306690681939 -1.570537437802735 -87.957790000170490 139 138 118
203.490486307577385 -2.357397066844421 77.929228916419561 159 160 155
200.428571194340179 -2.226016895238784 74.736613082459655 178 177 173
197.512640161236789 -2.068124868588936 71.695603834953857 184 183 179
190.946857753349775 -3.177785220929454 64.870774281877942 180 176 173
188.833850302971030 -2.799763908106411 62.662830977387529 176 172 169
186.428866513203218 -2.539295691413112 60.152342646239845 171 168 163
182.344897521529219 -2.888528192742696 55.901596683211636 173 170 163
178.917903695120003 -3.034096190046164 52.332189596275128 173 170 163
176.512922589368628 -2.837298570808918 49.822355374548209 172 169 160
173.742941242289220 -2.791097545836371 46.934391758952131 171 168 159
171.922018364432461 -2.416856311545101 45.030190646078466 171 168 159
169.371077360035144 -2.327017308302430 42.369566348479964 170 167 158
164.994990047269710 -2.940116242256785 37.817849359028230 168 166 155
162.955098712760730 -2.701529049287784 35.687221705688614 167 165 154
161.134263021839899 -2.394370319891721 33.783669396805976 164 161 151
158.583365791158769 -2.382457343644908 31.123826289754192 162 159 149
156.470549342442212 -2.218800328702995 28.917998170128726 161 158 149
154.503786888269531 -2.013377354682462 26.863586171987436 159 156 147
152.829114160294637 -1.706577877048232 25.111831470435988 162 159 150
150.789412343371907 -1.558482672127724 22.982044632024923 159 159 147
146.924334147301465 -2.163801929059324 18.961794747058519 154 154 142
143.789398321230180 -2.499777788752937 15.698063617313579 153 151 138
141.749741373044856 -2.407882380459684 13.568833806591442 154 152 139
139.783138270088386 -2.300745336070869 11.515357281822787 151 149 135
138.254704345669808 -2.024454426208298 9.915674247769800 150 147 132
136.507254216963247 -1.852129135585218 8.089261330708752 148 144 132
135.198001630273637 -1.505750852022509 6.716577906192043 150 146 134
133.450653874947818 -1.357632914054022 4.890365192498138 151 147 135
131.411239463276559 -1.349252971476136 2.761879019782157 149 145 133
128.860648235026133 -1.579804787689229 0.104385334129091 147 143 131
127.259480647191864 -1.409997426306184 -1.570264960919218 146 144 129
125.220165697281857 -1.447138268446638 -3.698330147495994 144 142 127
123.838202092454608 -1.204209891258271 -5.146022893233578 146 144 129
122.091117880129289 -1.136789264112720 -6.971531027036434 146 144 129
120.271041820341694 -1.115601641966277 -8.872503096582989 146 144 129
118.158844947382107 -1.242292599053323 -11.075638921592486 146 144 129
116.265804196059932 -1.282946452240241 -13.051927252359292 144 142 127
113.934531707311095 -1.542507562793261 -15.481467009227117 145 143 128
111.749366235522871 -1.750455516311814 -17.759717372508533 146 145 127
109.783368037829220 -1.870454144884248 -19.811145260296485 146 145 125
108.255709177529681 -1.795130973022673 -21.409130420482569 144 143 123
106.947267768911388 -1.625313081932927 -22.780384484992084 141 140 122
105.565840731457428 -1.500615451281392 -24.227116914253656 144 143 125
104.330595709897636 -1.314480375265285 -25.522696955496798 140 139 121
101.780337034456011 -1.786540813766542 -28.177863763700941 144 143 125
99.010877900645724 -2.386482298661647 -31.059426134886792 144 143 125
97.848828112535585 -2.201522617321803 -32.279151541071599 140 139 121
97.052196760933199 -1.840645149494222 -33.121208260279531 142 139 122
95.744176725193213 -1.745619091882294 -34.491894038215548 143 140 123
94.728518347566620 -1.510457373300003 -35.560451578335631 143 140 123
92.982191582842617 -1.659712093541764 -37.384091724275606 142 139 122
91.016664369498457 -1.935751120658001 -39.434138727151804 142 139 122
89.051154278649420 -2.226286726039854 -41.484044700808425 143 142 124
88.108840737217989 -1.991993128554620 -42.476822338232182 142 141 123
86.801186302488532 -1.958515571533013 -43.847049468802510 143 142 124
85.859049879825221 -1.739248743488402 -44.839757161151226 144 143 125
84.332262184631020 -1.841564404551514 -46.436330557992164 144 143 125
82.732424226312759 -1.994703799833514 -48.108292690042447 141 140 122
81.571224141769207 -1.920235119417366 -49.327287252122517 142 141 121
80.117688123388305 -2.014895883838756 -50.848123910841423 143 142 122
79.541480056944238 -1.634902145940697 -51.463250492730936 145 144 124
77.649423089028588 -1.991870505252336 -53.436753477993051 144 143 123
76.488506730055363 -1.952868016572406 -54.655518702085260 143 142 122
74.888962466007996 -2.169912733513735 -56.326963526888875 142 141 121
74.459380673177890 -1.734039606193727 -56.791093040268350 140 139 119
73.079328210796703 -1.844724051210248 -58.236060155582436 140 139 119
72.138096137155500 -1.712948741336402 -59.228299891254977 145 144 124
70.977563099050428 -1.715061625109940 -60.446825273553316 145 144 124
69.890238164042003 -1.682967272711920 -61.589866388782355 143 142 122
68.364150582192451 -1.916268893078875 -63.185426413166795 141 140 122
67.130669644277518 -1.987982157538469 -64.479196223478453 141 140 122
65.824100532904239 -2.112149387971895 -65.848319852031011 142 141 123
64.883347250751612 -2.027114021426135 -66.840307522193655 145 144 126
63.869529803135705 -1.992871343230535 -67.907677596304950 144 143 125
62.855796370036828 -1.965947675909798 -68.975012524417451 144 143 123
61.329980574465367 -2.258382224399740 -70.570093885490735 143 142 122
59.731010770358694 -2.606863906914138 -72.240460583246062 143 142 122
58.278398025652919 -2.876831157822037 -73.759934415194550 144 143 123
57.411253903575741 -2.794167165310384 -74.676253160561600 145 144 124
56.178279078287531 -2.946137979201620 -75.969438962144778 143 144 123
56.848315932687910 -1.912004891896861 -75.302897183683029 142 144 123
56.347529925698908 -1.612271613550081 -75.842420374140687 144 143 123
54.529271462727650 -2.153321090435985 -77.738474586869955 140 139 119
51.978905579210732 -3.175790578843416 -80.387924470245906 140 138 119
51.258690870763701 -3.040309945466255 -81.153359641837994 142 139 120
50.831464641979238 -2.720470667137039 -81.617421654284556 143 142 121
51.575976973164259 -1.641280865213080 -80.876113595113708 143 142 121
51.515317219666144 -1.083048314358943 -80.963699229962799 142 141 120
49.490409925435785 -1.226987658122593 -83.097557659003286 142 141 120
47.525849945950043 -1.943708957907835 -85.143531219229601 143 138 119
46.513494784300633 -2.037534349671015 -86.210282576954938 145 141 122
45.134907979373807 -2.385230615578950 -87.653511176034471 147 144 125
44.782052609575572 -2.048649046228558 -88.042465404389731 142 139 120
43.916469493935125 -2.063445447973390 -88.958527721087393 140 139 119
44.296732626237215 -1.231660716097241 -88.594711853643389 139 138 118
207.680608303020762 -1.335364003339470 80.681100668168057 154 155 150
202.411387044604339 -1.923235961466644 75.226089603927960 177 176 172
198.094228435449111 -2.229814329296591 70.753885039410534 184 183 179
192.019232444641375 -3.166328061398706 64.468494855978690 184 180 177
190.045730812000755 -2.737487419172836 62.415007107422269 178 174 171
187.266573742097563 -2.603296078098460 59.530527397647091 173 170 165
183.681728758233987 -2.772705988308454 55.815163410314085 173 170 163
179.730635738239243 -3.098672750296004 51.722328321793356 173 170 163
177.244446072581326 -2.928491617169221 49.140759088708080 173 170 161
173.366560938080852 -3.281025020864747 45.124033947412016 172 169 160
172.638349868566280 -2.509287694550718 44.355874897777142 171 168 159
171.177706600962068 -2.013776181663466 42.832363382997670 170 167 158
166.347554750267989 -2.787470500230665 37.834369091535137 169 166 157
163.495157266167723 -2.850974883633872 34.876103441350239 168 165 156
161.814820761866315 -2.489192300909123 33.126492302257645 161 159 147
159.108958849779128 -2.534222451890633 30.319652141989508 163 161 149
157.062410454743372 -2.343283182664916 28.192699667602739 165 163 151
155.308923386035104 -2.052610679868510 26.367956594638144 161 159 147
153.189185279618528 -1.919815341223248 24.165757447068643 163 161 149
150.996217135870751 -1.831937502664394 21.888194771819315 159 157 145
148.583492103870242 -1.848847004795925 19.384265012623530 157 155 143
146.390575227185906 -1.794180606690165 17.107019673427402 151 149 137
143.758099828013258 -1.936142941262142 14.376928313509524 152 150 138
141.711761583713582 -1.854802174801456 12.251003456177529 150 148 136
138.932782930554140 -2.094722400234950 9.370289310735302 149 147 134
137.252841553402845 -1.891857951966095 7.622124968360140 148 146 133
136.012573073289417 -1.514411148819318 6.326978864756001 149 147 134
134.552557508397342 -1.240368871053001 4.805446753244325 151 149 134
132.286589836759020 -1.325802534892052 2.453731899354324 151 149 134
130.313748203177056 -1.300050614627519 0.404077604220049 148 146 131
127.534892736929734 -1.643559614450727 -2.475629182125289 145 143 128
125.708663430730098 -1.584834283497599 -4.374043954173970 145 143 128
124.322163319354743 -1.342802952768888 -5.819557216978950 147 145 130
122.715880328114537 -1.210138736655755 -7.491377987518632 146 144 129
120.816512916858372 -1.222623985683076 -9.464929619452306 145 143 128
118.550750809609710 -1.417131254035400 -11.815620065236544 144 142 127
116.504873419559416 -1.526697028015247 -13.939800296737843 144 142 127
114.312443859919227 -1.719634034117514 -16.214730060512693 145 144 127
112.339913213884486 -1.825446935964758 -18.263178868217125 147 146 128
110.587299573030862 -1.841681508846087 -20.085180637366705 147 146 126
109.201216451462415 -1.695940861036651 -21.529902218294410 145 144 124
107.815199296384407 -1.560349815123588 -22.974550882413951 139 138 120
106.062738796702902 -1.612486113032388 -24.796256359284143 143 142 124
104.383624994439941 -1.641704574751739 -26.542427664668310 144 143 125
101.898184321217357 -2.079927900763665 -29.118092600433158 145 144 126
100.439062915974930 -2.027788908178263 -30.637768312867337 145 144 126
99.053312677718040 -1.949723473611737 -32.081952529063244 142 141 123
98.327455097061616 -1.549859959901616 -32.847409595734291 146 143 126
96.795223198672943 -1.563906321481819 -34.442287104670498 145 142 125
95.263044728274977 -1.589172056869513 -36.037074686723543 144 141 124
93.217662266555692 -1.889563498438971 -38.159527425782841 142 139 122
91.465592950450926 -2.053100582567698 -39.980273339279762 143 140 123
89.640228772543111 -2.267741779215429 -41.876288086741710 143 142 124
88.181545723461113 -2.303174582299006 -43.395272086775321 140 139 121
87.236255503180487 -2.077698770214027 -44.386534925346012 142 141 123
85.924376003521502 -2.054398746291527 -45.754636036875468 144 143 125
84.612561996201492 -2.040661305486610 -47.122670047243503 145 144 126
82.714064462253475 -2.353430034399940 -49.093546856791789 143 142 124
81.622393771701994 -2.241327550020704 -50.235332541360151 142 141 121
80.750856862859280 -2.016634054599654 -51.151011773618706 143 142 122
79.806069943677556 -1.838641513043046 -52.142026620552826 145 144 124
77.981094198510789 -2.156048928468469 -54.037169368591520 145 144 124
76.816376445013020 -2.117932845523489 -55.254106894353725 143 142 122
76.458741828461299 -1.634337697971386 -55.642288032057678 143 142 122
75.000741356310840 -1.776254113355453 -57.160502485241494 141 140 120
73.322668807425146 -2.054263883793527 -58.904610988749596 142 141 121
71.791366820688722 -2.260385591524120 -60.497956236204402 145 144 124
71.287414951583386 -1.884556749474366 -61.036748178941593 146 145 125
69.976384230425225 -1.981277707161604 -62.404019906939340 146 145 125
68.885571970510185 -1.958778790518488 -63.545293927246092 144 143 125
67.574661219871558 -2.073745652545119 -64.912435234469854 144 143 125
66.630785202267816 -1.980890663878598 -65.903009489995270 145 144 126
66.127409464971933 -1.632319233070044 -66.441796477988419 144 143 125
64.596504934611417 -1.903537890436974 -68.034661791606624 142 141 123
64.313592615035716 -1.432827828505433 -68.347598302477678 143 142 122
62.489148189199526 -1.900034930319422 -70.241453268437965 143 142 122
60.958361221882839 -2.201229193041581 -71.834066269848989 145 144 124
58.987042558232176 -2.784412901295944 -73.878181068250740 145 144 124
58.631121473718281 -2.383098910523779 -74.266334992526936 145 144 124
57.981633026598985 -2.166847665934913 -74.955577892665247 142 143 122
57.111956733935429 -2.093021189953305 -75.870594287306034 146 148 127
56.976828285937330 -1.562945029233046 -76.033123411015907 146 145 125
54.858752413403508 -2.289595502669385 -78.227271058085051 143 142 122
52.740591156379949 -3.031901795596824 -80.421216704292107 142 140 121
51.724256498830030 -3.083673333933464 -81.486497166258602 144 141 122
51.516130425008186 -2.621796299954386 -81.724261353037974 143 142 121
51.675566757149227 -1.922881682522437 -81.586011657253039 143 142 121
51.835263670774935 -1.222316267862556 -81.447903615242410 143 142 121
50.892957443951701 -1.243053651619981 -82.438059589943151 143 142 121
49.656774132169744 -1.464427754485451 -83.728996059666883 144 143 122
48.347128668602309 -1.743526282291806 -85.095053186199948 145 141 122
47.037502869694464 -2.032153744823969 -86.461021634126666 146 142 123
45.727893950357625 -2.330312659555148 -87.826900045156663 146 143 124
45.079945347796240 -2.191597550857673 -88.516081483255789 145 142 123
43.990990724344087 -2.356647570014595 -89.656313655066270 143 142 122
45.034450002766036 -1.074785177990820 -88.616671461851070 141 140 120
207.850297025823579 -1.638801660165626 79.272738982013493 152 153 148
203.518866980279824 -1.912831294509290 74.807026783281003 176 175 171
199.334365722935502 -2.169585512058796 70.492564301201071 184 183 179
196.325605533685064 -2.058683017970121 67.385589005748045 185 181 178
194.125199364345178 -1.693003722030799 65.108725106490255 176 172 169
188.103424307303811 -2.667156783643158 58.909120536218239 173 170 165
185.241598108812411 -2.579614026200892 55.953810746578711 173 170 163
180.983455738220869 -3.007131096548208 51.565476783562985 173 170 163
177.239712968565954 -3.282214716071326 47.705498935031329 173 170 161
173.936900014061393 -3.425700921050968 44.298380485538843 173 171 159
173.279849105419771 -2.628380548075886 43.606774204628351 172 170 158
171.887920956217727 -2.106709539961017 42.160979224835671 170 168 156
169.246609325210670 -2.060303491929428 39.433176117548982 169 167 155
165.649842768040855 -2.392504698200420 35.725191062611628 168 166 154
162.935037224590303 -2.416482550668897 32.922412803047138 162 160 148
160.146739637346627 -2.488645807694783 30.044429996978550 165 163 151
158.019957667475865 -2.325408026406033 27.845287250186004 164 162 150
155.672697172577074 -2.263970070901655 25.420091896015066 163 161 149
153.398961798010987 -2.190840947474961 23.070460918155902 162 160 148
151.419271642686255 -2.017438453987336 21.022563090825088 159 157 145
149.145590486019842 -1.976710190845102 18.673239693640198 157 155 143
147.459999034168476 -1.714336232770481 16.927165766355188 148 146 134
144.598301697010129 -1.945467498631261 13.975074601705643 153 151 139
142.765760976853926 -1.772897441700707 12.078507327504951 151 149 137
140.786237759975336 -1.675022532285097 10.031307080758410 149 147 135
138.512694145419630 -1.715240949818717 7.682751108747539 149 147 134
136.386206421610666 -1.709869259238445 5.485092590624447 149 147 134
134.700854810495002 -1.531556907604625 3.739769212697638 152 150 137
132.647956854868568 -1.524117293415453 1.617743200464588 151 149 134
130.595092178900643 -1.531761817962305 -0.504143464025390 148 146 131
128.689306284566271 -1.489997458639852 -2.475182934126593 145 143 128
126.048312718683320 -1.787396116236565 -5.199599248130653 146 144 129
124.583747362998679 -1.579594645486725 -6.718272905419411 147 145 130
122.898658312076265 -1.481696778878894 -8.462894144551569 145 143 128
121.066558779429499 -1.462815445254846 -10.358090486108949 145 143 128
118.866838982442673 -1.625400410162947 -12.629845054133625 144 142 127
117.255417477023911 -1.533112283932569 -14.298791965727247 145 144 124
115.423439819290721 -1.555072864087469 -16.193626205489807 146 145 125
113.738580837269168 -1.521613592948681 -17.937694209961194 146 145 125
112.127312065548864 -1.465792835267443 -19.606338811888463 146 145 125
110.516096536425650 -1.421758871161386 -21.274887557504286 145 144 124
108.537205674574778 -1.565717136474239 -23.319901010374480 139 136 119
106.705439751896364 -1.653155943717023 -25.214162543176656 142 139 122
104.947261582648835 -1.718223883190666 -27.032999594642035 145 142 125
103.262677568032231 -1.760100293327684 -28.776423674564711 145 142 125
101.725249798299430 -1.741630790390571 -30.369150198587818 143 140 123
100.408550971453522 -1.624568055371723 -31.735910907197962 145 142 125
99.165482997326308 -1.480210069103180 -33.027318442175840 144 143 125
97.407546968856664 -1.604957978601256 -34.845657017047330 144 142 125
95.355383279093644 -1.892270710140886 -36.965000265587122 142 140 122
93.082525679600948 -2.307729139337673 -39.310021890908217 143 141 124
91.692523673032085 -2.284192467306054 -40.751610783771781 144 142 124
90.008284009405685 -2.423764586840302 -42.494193969012883 144 143 125
88.765548001150606 -2.344518073489774 -43.785090090226134 139 138 120
87.449303448077814 -2.313086357356947 -45.151186678757540 142 141 123
86.648212924272400 -2.017736288993304 -45.990435638827506 144 143 125
84.743423731320192 -2.318258757718629 -47.958428597182319 145 144 126
82.691465876619930 -2.711964026039476 -50.076775164682488 144 143 125
81.743413233234094 -2.522337178441772 -51.066347458107998 143 142 122
80.648262555583528 -2.419855184008159 -52.206369300240681 143 142 122
79.847598145789746 -2.163515669644851 -53.045420556563670 143 142 122
77.795769969876531 -2.605050873694323 -55.163336824394918 145 144 124
77.436915217073704 -2.118846407887990 -55.550961112122309 143 142 122
76.562933953676236 -1.923900383826058 -56.465164767873830 141 140 120
75.689057472718190 -1.735197690455142 -57.379354285446027 140 139 119
73.858232615714769 -2.096347365813879 -59.271248577375360 142 141 121
72.542774267417172 -2.176251951995472 -60.636575243085957 144 143 123
71.153744416844802 -2.308065060993148 -62.077030118708848 145 144 124
70.353814275776671 -2.108822481969926 -62.915844919234900 146 145 125
69.553996522402102 -1.915255072090198 -63.754655068281323 144 143 125
67.944249587797415 -2.202509349990854 -65.420496268180983 144 143 125
67.070964895082327 -2.066790622016361 -66.334423504647447 144 143 125
66.197783772592700 -1.937288944502321 -67.248336293531196 144 143 125
65.472013502991658 -1.725950507464701 -68.011894546190831 144 143 125
65.040998639832225 -1.342506604175159 -68.474798803295755 144 143 123
64.536481559346427 -1.006522666189900 -69.012910207232011 144 143 123
61.674744626748961 -2.109366353593957 -71.956009455693561 145 144 124
60.359974892386376 -2.285581541924445 -73.320674178540088 145 144 124
59.782025373523652 -2.017213653512052 -73.933818634617012 145 144 124
59.572633234408130 -1.524373226428221 -74.171295861859477 143 144 123
58.258112719946794 -1.722228539212487 -75.535857057980479 144 146 125
56.575161951607498 -2.160838069316100 -77.275978704018456 145 144 124
55.186988606033566 -2.425663772779785 -78.715474163242078 143 142 122
53.577723243637209 -2.840984774065661 -80.380227490516518 143 140 121
52.631835545155283 -2.844332493385497 -81.368849102003907 144 141 122
51.538601143969416 -2.949143312685907 -82.507653915162109 144 143 122
52.583363166945389 -1.680238615105260 -81.468501570417857 144 143 122
51.859062421904198 -1.553050950276359 -82.231896632417772 142 141 120
51.651021838397256 -1.093512053182249 -82.469677649853168 143 142 121
49.599685366863284 -1.847102716536871 -84.584617003768187 144 143 122
48.211963110483481 -2.176982767369576 -86.023658625438173 147 142 123
46.897998995624121 -2.467914628348433 -87.387527917553371 146 142 123
45.141492682185302 -3.064316473381409 -89.201695492297858 146 143 124
44.638944327051007 -2.830366141184424 -89.739698444532365 143 140 121
44.726738604538895 -2.200679604659240 -89.677321720876336 143 142 122
43.884845610719026 -1.065530321154466 -90.616554279271412 137 136 116
207.866784069541751 -1.990218727643229 77.716444560337209 149 150 145
203.226113705235718 -2.365233129387260 72.956275817372870 172 171 167
200.502366405526743 -2.133883937762354 70.155147053822503 183 182 178
198.368467553375041 -1.723331857251891 67.956863268796724 187 183 180
197.193102633588751 -1.001164802620180 66.737978030602193 181 177 174
190.340351440192421 -2.247319305685510 59.719261708968077 172 169 164
186.215642266632557 -2.592216132863724 55.487961080036172 173 170 163
182.680776945801398 -2.759524824236965 51.859524249243748 173 170 163
181.063034734489889 -2.269964033591340 50.189511814576178 173 171 159
175.242300199652959 -3.304852867039748 44.226931986162754 173 171 159
173.919527311592901 -2.747315194155395 42.858543057806315 172 170 158
172.744285663119200 -2.145331372270638 41.640835953427967 169 167 155
170.168022722386809 -2.071631179339450 38.992491708257774 170 168 156
167.223060732290890 -2.154977735091613 35.967853960983888 168 166 154
163.688149993850033 -2.483122384438251 32.341094423132773 163 161 149
161.038156488609729 -2.499273961336665 29.618088631780040 166 164 152
158.535665215772781 -2.478021604438430 27.045851030401110 164 162 150
156.328179510202233 -2.360315455096708 24.774926469178496 163 161 149
154.046971192793819 -2.287793652395150 22.428876773017208 161 159 147
151.987037983578318 -2.144260379914777 20.308815521593999 160 158 146
149.410874190125583 -2.222503232994758 17.661987870807309 160 158 146
147.719763234650031 -1.962113654901620 15.918574881356875 152 150 138
145.143641482969770 -2.074916448859309 13.272082860763277 153 151 139
144.116417693241090 -1.569507523085238 12.206276383885722 151 149 137
142.425449140926730 -1.347082224043666 10.463186054647025 150 148 136
140.070693082393234 -1.414976937055263 8.042907838554441 150 148 136
136.904581856277161 -1.842839474898015 4.795036749068657 150 148 135
134.771136777926074 -1.853977256477497 2.600876545801327 153 151 138
132.785250871275395 -1.817348213867346 0.557350622506590 150 148 133
131.537068105220555 -1.475551808870255 -0.733642346373671 147 145 130
129.329967034329684 -1.562006439783332 -3.002649386035984 146 144 129
127.122890675362214 -1.664627649602746 -5.271501837079597 146 144 129
125.063382937259064 -1.717838914384636 -7.389741442066594 146 144 129
123.225229082638165 -1.686945125535556 -9.282165066980241 146 144 129
121.460893892867091 -1.636156663913960 -11.099249189069411 145 143 128
119.549048009317588 -1.665466225926033 -13.066657981525253 145 143 128
117.711019993757901 -1.674875891037555 -14.958726943716073 145 144 126
116.389511636796257 -1.458671051556145 -16.324207309090440 145 144 126
114.772935146104103 -1.389764007305631 -17.990447420176650 144 143 125
113.599135096855747 -1.124479245601393 -19.205378368113514 146 145 127
111.835100678038756 -1.147444081084066 -21.021847198258598 147 146 128
109.259400419110008 -1.570921058618214 -23.665342934098902 145 142 125
107.126455530790665 -1.800196129926830 -25.857497029856944 139 136 119
105.436307883064487 -1.830356766701676 -27.598380083111209 143 140 123
103.303410705013007 -2.089192250958715 -29.790252723117533 141 138 121
101.982347200328718 -1.963975572920545 -31.155009317442335 141 138 121
100.882767135843693 -1.738530937708221 -32.294177872328760 145 142 125
99.635659081892840 -1.594787130615597 -33.583646324912451 145 144 126
98.167197015240205 -1.571532201331908 -35.098556178771418 145 144 126
96.255917424816630 -1.783499624765083 -37.064355694790521 142 141 123
94.713739398134393 -1.820925193496947 -38.654234356119588 142 141 123
92.950156985522995 -1.983482666089298 -40.469482527345036 143 142 124
91.334249948439151 -2.082403211366874 -42.134315369054349 141 140 122
89.570736638414616 -2.270123099474399 -43.949337589337034 144 143 125
88.397874708189562 -2.160344134548197 -45.163116630913407 144 143 125
87.003598618129132 -2.176237404464937 -46.602254944684574 144 143 125
85.387878666929851 -2.320267898746917 -48.266712948273437 146 145 127
83.403008588165363 -2.674136426726111 -50.306705252483766 145 144 126
82.525756423078192 -2.444134079782117 -51.219704972420857 143 142 124
81.427074994160193 -2.340890713844971 -52.358045552428905 142 141 123
79.959236435419228 -2.447755838864328 -53.871914299249966 143 142 124
78.196037608489902 -2.728133938482789 -55.686133189648871 145 144 126
76.875987285917077 -2.775419344204276 -57.049598836217172 144 143 125
76.294588620254217 -2.419597754477279 -57.661993437168150 138 135 116
75.491735784316461 -2.192440850425092 -58.499697366657159 140 137 118
74.541261537928179 -2.054605390888126 -59.487578058731856 141 138 119
72.926043977681843 -2.302384203643721 -61.151208470869761 143 140 121
72.123477606362485 -2.095864685348850 -61.988837013071389 143 142 122
71.099385982731619 -2.022953373777256 -63.051689992262794 145 144 124
70.444801276463267 -1.742772855825049 -63.739152915618746 145 144 124
68.903689753415236 -1.985507940065143 -65.327428434649050 144 143 124
66.919247278554892 -2.500270132468652 -67.365969143787424 143 142 123
66.264922551406954 -2.242063502931053 -68.053330251991298 144 143 124
65.758532856871554 -1.900358613258206 -68.590604692414672 146 145 127
65.695733923007339 -1.296277409667548 -68.677638893924154 144 143 123
64.894031008001264 -1.138102990928954 -69.515182870270138 144 143 123
63.501111923502805 -1.344431510079046 -70.953010125163956 146 145 125
60.777641952990720 -2.373268236554946 -73.741299835333450 145 144 124
60.123962997110524 -2.150634822564297 -74.428603705320199 145 144 124
60.135802949368411 -1.521314419274617 -74.440745808950879 143 143 123
59.038815860223067 -1.581040217646709 -75.578219431821594 143 144 124
57.128530790327972 -2.157340741780106 -77.540744459421944 144 143 123
55.513984919599082 -2.561523283047622 -79.203086263374558 144 143 123
54.934778425543414 -2.322202117842707 -79.815330394313889 144 141 122
53.246324490764266 -2.793086569264183 -81.552487122411662 145 142 123
52.741285652096465 -2.518487189190519 -82.089717056930510 145 144 123
52.828173960544362 -1.866130516687299 -82.027140275889280 144 143 122
52.397475706358549 -1.548130575772542 -82.489522350060980 143 142 121
51.818982563101827 -1.329344002811132 -83.101896372703720 142 141 120
50.130789397971625 -1.841722261520194 -84.838750735504561 143 142 121
48.812534314998231 -2.122618237561498 -86.200670547587464 147 142 123
47.198285032129505 -2.609224032515388 -87.862305814199715 145 142 123
46.250082859040589 -2.663685189050644 -88.849294052682041 144 141 122
46.116139493982814 -2.179195372952841 -89.011920872862646 142 139 120
45.982426103231674 -1.695231253008198 -89.174652300708686 143 142 122
44.323933975970419 -1.108889309384407 -90.937025217211641 137 139 117
208.098471069246386 -2.269143649523311 76.389029674050619 147 148 143
200.118016466771792 -2.615352702264448 68.237655933454704 184 183 179
198.273026900959366 -2.110160946269446 66.343620302101527 186 182 179
196.058182816083189 -1.744384277957446 64.073662449844534 186 182 179
189.626630833623750 -2.845341437781179 57.517104589776238 174 171 166
186.967889433246228 -2.681840143982231 54.796434504223896 173 170 163
184.383134475930774 -2.511846685369393 52.151161615721691 173 170 163
181.354502515109857 -2.518373970243033 49.054901671379696 173 171 159
177.142150033093515 -2.971636026730644 44.755785873620084 172 170 157
175.149259671879349 -2.651652302478776 42.712694145295984 171 169 157
173.230384507805610 -2.319189502430364 40.744924231887040 168 166 153
171.015599385968670 -2.110167483960354 38.476551726271850 170 168 155
167.543055104737164 -2.386891221718340 34.930285872711949 169 167 155
164.514423030129024 -2.521719627604401 31.835346650696891 163 161 149
161.633766733805714 -2.622411029771067 28.890982704081608 166 164 152
159.197059350939469 -2.573596689385924 26.397849490807488 165 163 151
156.464398400112003 -2.657441351957956 23.604229436079777 164 162 150
154.545679393990667 -2.442540844309074 21.637594944975632 162 160 148
152.848985243548384 -2.153918955828781 19.896562327506217 160 158 146
150.634358477081264 -2.084335456527783 17.629549375950546 159 157 145
147.457775420793041 -2.418250216351017 14.385720922450275 154 152 140
145.539182820895746 -2.264325885497378 12.419653617461336 152 150 138
144.508651880679196 -1.760378138042443 11.355444310683680 153 151 139
142.664161082846420 -1.600605462511989 9.464725642557596 150 148 136
140.523692901928200 -1.577815644734133 7.273576033661215 151 149 137
136.459074558036662 -2.380616642035175 3.129100480365054 152 150 138
135.058707097129854 -2.081923874159397 1.689638065405831 152 150 137
133.362361976880919 -1.920205194543684 -0.050255248432194 151 149 136
131.962116516859652 -1.642975182871846 -1.489555101265296 148 146 133
130.709965125291262 -1.311445646965289 -2.778543811262068 147 145 130
128.939774765097127 -1.216593954129644 -4.593280404864998 148 146 131
126.207396243135065 -1.560843406369023 -7.384355095277670 145 143 128
123.845113175047160 -1.759779991232097 -9.799683535983092 146 144 129
122.075021130837115 -1.709328343431205 -11.614010131647689 147 145 130
120.008877729646628 -1.806174063444313 -13.728626106791012 145 143 128
118.312894916587240 -1.748712857519603 -15.467619572595481 145 144 126
116.839047482798563 -1.601148789685318 -16.981232661686732 144 143 125
115.365262648257755 -1.464284921158163 -18.494765555516750 144 143 125
113.965573725991973 -1.303425478172948 -19.933133793381387 146 145 127
111.973667442234316 -1.432436646503774 -21.972074571002594 148 147 129
109.907752056933489 -1.611196424343301 -24.085956445618677 146 143 126
107.989940369063945 -1.733988925427678 -26.049548950883207 141 138 121
106.590461055877725 -1.620254631941934 -27.487532382175573 140 137 120
104.080364187306301 -2.057515095662338 -30.051411789825238 141 138 121
102.310736509742611 -2.149801428336620 -31.864491263163274 141 138 121
101.503808874803369 -1.779105886259559 -32.701723338086055 146 143 126
100.326721453848180 -1.598551563552564 -33.914209445693018 144 143 125
98.927546118271607 -1.537934334432373 -35.351791538204651 144 143 125
97.528435269014381 -1.487440643079873 -36.789300274090550 143 142 124
96.277513122189106 -1.371672645124983 -38.076656108659478 142 141 123
94.508209315791490 -1.530727473601548 -39.889203239184326 142 141 123
92.368595971971786 -1.893862538881566 -42.076789280525162 141 140 122
90.525268239435974 -2.118514028515041 -43.964107284052517 143 142 124
88.756037672967494 -2.317773876642385 -45.776275601843878 144 143 125
87.727614309655564 -2.139212584817574 -46.838143799940582 144 143 125
86.477038908845699 -2.086043284398671 -48.125021156774068 146 145 127
85.596959186780325 -1.843802782877754 -49.036794156617816 146 145 127
84.716985625734210 -1.607823827527897 -49.948553490289072 143 142 124
82.725741182771372 -1.980583153871581 -51.985301868038874 142 141 123
80.734494800599478 -2.367839764552621 -54.021900090247271 143 142 124
78.965541125515287 -2.647449895121671 -55.833373786106080 145 144 126
77.715323207408872 -2.652978650017293 -57.119817952868857 144 143 125
76.761599339195627 -2.502443569535601 -58.106274760579311 142 139 120
75.956194471904638 -2.275619927972318 -58.942754376578421 142 139 120
74.632099250203481 -2.347198679554602 -60.304034893655540 143 140 121
72.937465677963189 -2.638780548372848 -62.040080955930534 143 142 122
72.058200119326457 -2.476614845211215 -62.951419198642213 145 144 124
71.623804155077821 -2.064814514365051 -63.412997835529353 146 145 125
70.893038415999044 -1.827605893975255 -64.174432567507182 145 144 124
68.753806788896824 -2.416245441516616 -66.359879989897564 144 143 123
66.911089764119239 -2.846610948182040 -68.245372636203996 141 140 120
66.328829704791303 -2.546641278482638 -68.856780237507792 142 141 121
65.969161485757766 -2.118591067147247 -69.243416754823272 144 143 123
65.832129647388896 -1.559960873613990 -69.405329224108101 146 145 125
65.472820645926276 -1.135733279086601 -69.792098241763057 146 145 125
63.852882331501007 -1.476413304914580 -71.452513982427462 146 145 125
61.713756658690031 -2.144793575871168 -73.637191281663206 146 145 125
60.464662013873451 -2.283847806256301 -74.922798373720923 146 145 125
60.773410279825058 -1.472344702657543 -74.635420155279292 145 142 123
59.895456993321503 -1.393652061418098 -75.546526954321735 147 144 125
59.017607009692895 -1.321144165799002 -76.457619510411860 146 143 124
56.804310123507776 -2.092313462953980 -78.716614381244142 146 143 124
55.629750692391312 -2.224413151016695 -79.927091565727949 146 143 124
54.603662420670560 -2.270754791614397 -80.987761824772861 147 144 125
53.651864530337207 -2.277026888659806 -81.973525918647965 145 144 124
53.665024042124983 -1.670650847519582 -81.986063117188849 145 144 124
52.639251870482326 -1.734676397818214 -83.046702568061477 144 143 123
52.430119875531432 -1.275735192251031 -83.283955305664023 144 143 123
51.404564462086498 -1.351251097585237 -84.344580176918839 144 143 123
50.007850149347959 -1.677881386157203 -85.779353481084485 144 141 122
48.239875740425830 -2.259840348538552 -87.588183426105701 143 142 122
47.659989942204575 -2.065452438588074 -88.199640059691859 143 142 122
47.228786448115002 -1.775751119820215 -88.661489136891618 143 142 122
46.797760877999991 -1.488823480337074 -89.123394781436758 145 144 124
208.032509814015015 -1.491144344512071 74.749693700970170 167 166 162
201.283112185416144 -2.579343273654451 67.901625241971772 180 179 175
199.654793156938922 -1.998737331611881 66.235735546901509 186 182 178
195.131878560737221 -2.411765910510792 61.641341916972095 186 183 179
192.464474149249554 -2.221770533213206 58.924543469329620 176 173 167
187.718815205560873 -2.771308460201897 54.105538476269203 173 170 163
184.606042135564763 -2.783832280993810 50.938734190581130 173 170 163
182.606650971846307 -2.425229495059603 48.898354898489742 172 170 158
179.939244397198593 -2.319999040218112 46.182430013624696 171 169 156
175.193449684083163 -2.984698723712353 41.364675390004578 171 169 156
174.307536758913074 -2.276285544604214 40.450894424976127 166 164 151
171.862843058969588 -2.148555628835827 37.960769520755775 171 169 156
169.047004476113159 -2.176754169632305 35.095509681675480 171 169 156
165.785767375941077 -2.392840187610450 31.780107677247116 164 162 150
163.415338004022942 -2.294827870395451 29.365619756147481 164 162 150
160.005617843257880 -2.612147496206129 25.900575817489255 166 164 152
157.338256777825336 -2.667336232909612 23.186280436497952 164 162 150
154.967861461490116 -2.626088501127079 20.772360529718100 162 160 148
154.156545306831561 -1.987950997979737 19.934474993129868 161 159 147
152.157434326180919 -1.827972835477246 17.896006205448657 158 156 144
148.302258406005876 -2.427307127119570 13.981816384302192 154 152 140
146.080442687124304 -2.393429841884025 11.718610144938538 152 150 138
144.155642073478617 -2.254404072125983 9.755666090821364 153 151 139
142.750623603972144 -1.915146608420498 8.318011149641734 150 148 136
139.415149988497092 -2.388907549274361 4.929917132178275 150 148 136
137.564698755088727 -2.264012347724949 3.042408927361521 151 149 137
135.937053054681996 -2.058307361193487 1.380056158319405 152 150 138
134.160948919700616 -1.927810051218616 -0.432218223940083 150 148 135
133.201729671298438 -1.458591125480973 -1.419326433517028 149 147 134
132.094079738180909 -1.060762117789869 -2.556408829855229 148 146 131
127.502583234202277 -1.338143321336855 -7.230248281681583 146 144 129
125.206862932951651 -1.501892948013855 -9.566923434000472 146 144 129
123.133964098738943 -1.582363482198004 -11.678476191155653 147 145 130
121.135364348716990 -1.644301288565339 -13.714905257268725 145 143 128
118.765434477214527 -1.890122890185631 -16.126092882401167 144 143 125
117.881008321268894 -1.470283100744585 -17.037614681863744 142 141 123
115.956802952929621 -1.538631419558615 -18.998708893625746 144 143 125
114.552588178322637 -1.378113117613047 -20.434908467707572 145 144 126
112.405622698557650 -1.577377759594748 -22.620664073001649 147 146 128
110.035822640002380 -1.897953868398749 -25.031144314507173 146 143 126
108.483179126292782 -1.845164738789677 -26.616944947925106 141 138 121
106.782012916813031 -1.875172218258479 -28.352558335529977 139 136 119
104.783723700045641 -2.061724056295883 -30.387853244858917 139 136 119
102.711162475833945 -2.299110350310632 -32.497952300737694 147 144 127
101.678781572425038 -2.039116318407366 -33.558765453319211 147 144 127
100.126391085664054 -2.044647399951859 -35.144086814731111 144 143 125
98.945569271578222 -1.875652850822008 -36.354667410908206 143 142 124
97.616216666240504 -1.789986120596474 -37.715051420412010 143 142 124
96.584170070959928 -1.563106846213276 -38.775683638021690 139 138 120
94.809095404136770 -1.723311297995010 -40.585458175049610 144 143 125
93.108367563921504 -1.858126223016022 -42.320202441320191 144 143 125
91.110401907115090 -2.159320401180770 -44.354472069427118 143 142 124
89.335410224815774 -2.358635564537685 -46.163883719765010 142 141 123
87.486119610839069 -2.609870929186632 -48.048075460069953 144 143 125
86.826103254391683 -2.245050613451935 -48.733811140556355 145 144 126
86.091881660927797 -1.924464100838036 -49.494450854172158 144 143 125
85.283445392767007 -1.648929792943283 -50.329981661744569 143 142 124
84.029088425268512 -1.620091951669494 -51.614799474104331 142 141 123
81.659658337849109 -2.206853299575823 -54.022716730147067 142 141 123
80.033652077899731 -2.403714302461964 -55.681709987923512 145 144 126
78.333324898358825 -2.653315276480130 -57.415464378421490 144 143 125
77.153499210534008 -2.626358688585479 -58.625059449898714 144 141 122
75.899388786354024 -2.649387844654488 -59.909461314677543 144 141 122
74.942793945599732 -2.514144641764750 -60.894387251987240 143 142 122
73.465728574249383 -2.680333677821164 -62.403231272464751 143 142 122
72.583669853659160 -2.518222199536085 -63.313232717908136 146 145 125
71.999218647865263 -2.191761246566622 -63.923864770340003 142 143 122
70.745489158688528 -2.255600042938605 -65.208028798990028 142 141 121
68.673590973264140 -2.803590840981025 -67.315247842157675 142 141 121
67.494319858678423 -2.844965816226686 -68.524404848465309 142 141 121
66.835872269284252 -2.588517642111210 -69.209775492837565 143 142 122
66.028760242756718 -2.424675634048446 -70.044790108116615 145 144 124
65.668183755991933 -2.000660323765995 -70.430950579999234 146 145 125
65.307781651465589 -1.578967179593172 -70.817170572524645 146 145 125
64.352246309819535 -1.518465343816997 -71.801834020137505 146 145 125
62.727035836073910 -1.870950959553727 -73.459606056986928 146 145 125
61.473945410192187 -2.008111858532435 -74.743321070090815 146 145 125
61.188489855794998 -1.560229984326436 -75.054805924136559 146 143 124
60.456614885895121 -1.389914305018196 -75.815021441244966 146 143 124
59.873747609567602 -1.132167129649732 -76.425703934672640 146 143 124
58.025439671676693 -1.669369875510462 -78.307422177936218 147 144 125
56.996059166125889 -1.705111871868602 -79.366626551064684 149 146 127
55.817840279256814 -1.842323488764448 -80.575300444808533 147 144 125
55.682174536666110 -1.324802187967579 -80.737443295146818 145 144 124
54.131793388125359 -1.713154234201921 -82.319785348573475 145 144 124
52.879307128911321 -1.921005544406219 -83.603061741025698 144 143 123
52.669620542370055 -1.462920222382138 -83.840040353873093 144 143 123
51.640762949967410 -1.539320186661128 -84.899076373970644 144 143 123
50.909962721579589 -1.427927966515111 -85.659199514968776 143 142 122
50.104784167622228 -1.370620225466703 -86.494042486169434 143 142 122
49.150696694605031 -1.417568853935563 -87.478292547564536 143 142 122
48.420242790614125 -1.322394223825802 -88.238414433165815 144 143 123
46.870147828973415 -1.781092010823787 -89.820169293376125 146 145 125
45.916268339498387 -1.849598805095233 -90.804296944354377 141 143 122
45.484238696043334 -1.571598525386659 -91.265630349856423 142 144 123
44.828752549905104 -1.448580819086649 -91.951044271696361 140 142 121
207.657154989989237 -1.967384712752168 72.827845530039383 164 163 159
204.013077362388117 -2.026053097394696 69.139678318283330 181 180 176
198.209491046064414 -2.833327977819510 63.277410781071012 186 183 178
195.161059047228491 -2.751643099483568 60.189715094936560 186 183 178
192.782825471142189 -2.463206115345960 57.777000541602632 177 174 167
189.659922467499200 -2.449219222827613 54.614769493358835 172 169 160
185.792314821064735 -2.717824498311994 50.703122607535164 172 169 160
183.414092084986692 -2.489500145505557 48.291021637890793 171 171 161
180.291165033494451 -2.543761783373442 45.129504610463982 169 169 159
176.795863047955777 -2.754759981804198 41.593449418643758 168 168 158
174.045287228029508 -2.720512592917361 38.807184195075848 169 169 159
173.082141805729975 -2.050083362309647 37.819883094886222 171 171 161
