ply
format ascii 1.0
element vertex 680
property double x
property double y
property double z
property uchar red
property uchar green
property uchar blue
end_header
184.639945350314775 -3.233138815685905 16.339167851541049 160 156 147
181.988766469561654 -3.182087397252977 13.948614040341113 159 155 146
180.466499600355121 -2.747772120333308 12.566071853859739 161 157 149
176.847675697328896 -3.075575637107078 9.312029229628479 162 157 150
174.922270113528953 -2.814662895140825 7.569837717164660 158 156 144
173.400136156365306 -2.419309079024764 6.187632995906199 155 153 141
168.813440562254414 -3.164241172728461 2.070603966047372 157 155 143
166.565479983087812 -3.069704300380149 0.040998708465139 156 154 142
165.124081717541827 -2.687377356860099 -1.268836713860168 154 152 140
162.876188528476860 -2.620255146564205 -3.298192017747624 154 152 140
161.515579830541782 -2.229040493640351 -4.535909493031795 151 149 137
159.509747247159964 -2.095732067302287 -6.349170394173143 148 146 134
157.907285955745294 -1.818950916256347 -7.802585150978075 143 141 129
155.336846481060547 -1.932700721928215 -10.119209150580389 145 143 131
151.878980012014438 -2.414902200582048 -13.226946193886391 143 141 129
149.227795504399865 -2.598371255868788 -15.615083276166132 143 140 131
148.190204459061107 -2.150151239586268 -16.564482534400724 144 142 130
146.023145189669833 -2.167257920535795 -18.520782613173509 146 144 132
144.017476608698587 -2.132834614105704 -20.333104098291130 145 143 131
141.366299606616650 -2.378201277953326 -22.720607628012374 143 141 128
139.279958479804776 -2.406376881293637 -24.604550166617344 140 136 124
137.677832018634945 -2.245448501006264 -26.056932574294848 143 139 127
134.784509442049568 -2.641100620791380 -28.659624182245750 143 140 125
133.505273304045801 -2.368331936420271 -29.824191902502264 140 137 122
132.468265426624384 -2.000032252329693 -30.773047486141735 139 136 119
131.350659858127244 -1.673497956496916 -31.793774383434396 140 137 120
128.780200935090079 -1.988249373794502 -34.108320068448592 142 139 124
126.613320040676840 -2.142797720658914 -36.063290725087455 143 140 125
124.930808722168990 -2.097252897728640 -37.586888476551593 140 137 122
122.198809262893661 -2.531474056487171 -40.044641730519714 140 137 122
120.112641015717088 -2.693518580864704 -41.927288994095449 138 135 120
118.510925926467834 -2.649968102272869 -43.378659970981943 137 134 117
117.878231711257257 -2.174652408096194 -43.967744969701499 140 136 119
115.226895630889260 -2.631989188815686 -46.352990482018384 142 136 120
113.140781836476975 -2.845210556137857 -48.235137006656430 140 134 118
112.346851178104586 -2.469263147479374 -48.967781965799475 144 138 122
111.956904712139988 -1.908591470760878 -49.341298612934708 145 139 123
110.436342864651593 -1.885763825973512 -50.720420827050503 145 142 125
108.350390929392660 -2.142706829185344 -52.602194735790619 143 140 123
106.264417127653132 -2.413618400337079 -54.483814398194369 143 140 123
104.259206725875572 -2.659423264493577 -56.293470545333349 144 141 124
102.334772890012601 -2.879293638494055 -58.031177996541999 145 142 125
101.299129526678271 -2.676087147347029 -58.978986971872928 143 142 122
100.667629616692295 -2.280111934315052 -59.567826630688586 142 141 122
98.824127445314701 -2.490921134189272 -61.233485899073202 140 139 121
96.495714043627075 -2.956825344979914 -63.329692785440955 139 138 120
95.056281210680979 -2.990228915388585 -64.636189140960170 139 137 122
94.101878643630499 -2.787062795524832 -65.512004134280744 141 138 122
93.875127533274224 -2.218432318666671 -65.741957034239221 142 139 122
91.708389550874060 -2.648795065908828 -67.694156963314981 141 138 121
89.541580591520187 -3.093706872803957 -69.646173176479493 139 136 119
87.374695591909074 -3.553173103772837 -71.598003196247106 139 136 119
87.148436567801099 -3.009342376006961 -71.827936232304324 140 137 120
85.547637336023300 -3.192410650158028 -73.277412651600400 138 135 118
83.542463618972675 -3.600981790919771 -75.085410913535100 138 135 118
82.669598805608643 -3.417530313149927 -75.889171471095949 139 136 119
82.201322980385513 -3.022068334030739 -76.334373919761305 135 132 115
81.005167708797984 -3.023704485587602 -77.425003769988194 135 132 115
79.970898620389249 -2.945026464571812 -78.372188359632105 138 135 116
79.584042535958389 -2.518141116790036 -78.745806304807900 139 136 117
79.035570569478224 -2.182801585571160 -79.262883208746644 138 135 116
76.706849143932970 -2.839280602694889 -81.356981055338537 137 134 115
74.782660259204931 -3.285429658596621 -83.092476490185078 136 133 114
74.477304526232686 -2.834655543969744 -83.394470938296223 132 129 110
75.872230437333371 -1.424294815200465 -82.191715220598525 135 132 113
73.867338327651197 -1.938089556843144 -83.998765083149380 134 131 112
70.566802848511145 -3.206779936914925 -86.951955237539551 132 129 110
71.395848105306627 -2.120372433346168 -86.251161735654989 132 129 110
70.848587266341767 -1.825037437543896 -86.768406252066029 134 131 112
69.167560858154147 -2.193628570567340 -88.288451470098835 134 131 112
68.458566877792350 -2.003836363759459 -88.948954770934051 137 134 115
68.316855573153845 -1.484221584010505 -89.108226994341635 138 135 116
65.987745273266313 -2.262067650870779 -91.200889512768669 140 137 118
64.954987745112717 -2.282582098444693 -92.147776189748214 140 137 118
63.841273324725208 -2.358415381205195 -93.166222827340164 140 138 117
61.673904659806141 -3.077105959429075 -95.115153136852882 138 136 115
60.722321547507605 -3.072860175753822 -95.990269360713171 137 135 114
60.986980813051716 -2.332842449948228 -95.791922165616683 139 137 116
60.684450954752805 -1.938620861143117 -96.094686378927435 142 140 119
60.463291822267877 -1.495923100954266 -96.326018173216028 142 139 120
57.426060333752574 -2.232855979323489 -99.078069046526196 141 138 119
217.956832721031702 -1.808532886237880 44.951090687660354 158 159 154
216.915136670196148 -1.049870951783413 44.000459715368379 167 168 163
211.830508046450717 -1.607773338461150 39.454561639862163 168 165 160
204.724161775590261 -2.861475971662371 33.111536455333408 160 157 152
201.013902620154681 -3.039984401005203 29.788840488186167 167 164 157
198.193129100054279 -2.946282752440994 27.257263381042804 167 164 155
195.614958147710837 -2.789638984653671 24.941554796965391 167 164 155
193.198539034144630 -2.595153458040876 22.769792933263204 166 162 151
189.488120003917231 -2.862100306040825 19.448083790739219 161 157 146
186.667294427480499 -2.844837680408608 16.917318412431484 161 157 148
184.008217666321229 -2.789729506848556 14.530501161927674 160 156 147
183.047705234717739 -2.150845876897870 13.653124047649385 160 155 148
180.065130685514191 -2.241304666013760 10.979129884279871 160 155 149
176.758967476026783 -2.468525720901779 8.017911649844194 158 156 144
174.099893322886658 -2.482194417963592 5.631801106552871 155 153 141
172.007081854467856 -2.305495617742330 3.748845082038201 157 155 143
168.215423414745629 -2.773034313318333 0.357206502286459 155 153 141
166.608023529058585 -2.448320148019047 -1.094339046541819 154 152 140
165.486123943959825 -1.950951547401781 -2.114770184329842 154 152 140
162.179800579517206 -2.293467019533526 -5.074725017828229 151 149 137
160.248909736593077 -2.129363732616211 -6.813295892775244 147 145 133
158.156229889848362 -2.040897807851919 -8.695406659336157 141 139 127
155.254390669348766 -2.282931606771019 -11.295605204579005 141 139 127
152.190663596795730 -2.608262528504437 -14.039217507015508 143 141 129
150.664463990876754 -2.342328111345377 -15.418145056957059 144 141 132
148.167185710348292 -2.476219116748201 -17.658702912660800 145 143 131
147.126686240442496 -2.037351411795943 -18.606614522512984 143 141 129
144.872252953356508 -2.100658478814691 -20.631498491851374 143 141 129
142.455942565437965 -2.245620134179489 -22.799818269163040 142 140 127
140.606229969741150 -2.171746909645857 -24.465436871047530 142 138 126
138.918453746704415 -2.042502809636730 -25.987377468937524 141 137 125
136.502159833950373 -2.231551981633624 -28.155251312955045 143 140 125
134.247758910030313 -2.367973014967589 -30.179398165936448 141 138 123
132.883920237046993 -2.138103256196989 -31.413909628180647 138 135 119
131.520166648062002 -1.917251821432483 -32.648368964178701 137 134 117
130.156498128614714 -1.705415844218109 -33.882776196518364 141 138 123
128.064150338065900 -1.822029513153380 -35.762934830344051 141 138 123
125.647893084598948 -2.095676911945004 -37.929955399991997 141 138 123
122.988651815122552 -2.493617727852120 -40.312030489439906 140 137 122
120.815269128872416 -2.691464522081866 -42.263445018480269 138 135 120
119.289810906193495 -2.611074511653610 -43.640817341834662 137 134 117
118.817376279169338 -2.061486897251517 -44.085616726563700 140 136 119
116.725087108550980 -2.257744422751064 -45.964983589737926 142 136 120
114.389765702302313 -2.580230691929519 -48.059361983322304 142 136 120
113.107558878053425 -2.428275786918971 -49.221264940539243 145 139 123
111.987473775167018 -2.208820321975873 -50.239703420881085 146 141 125
111.110564511536111 -1.881954566723963 -51.043005362500708 146 143 126
109.342485757228232 -1.984552130846320 -52.635001926888918 142 139 122
108.222696232181136 -1.788485566930978 -53.653341056947994 144 141 124
105.077033339220208 -2.576733020465972 -56.463849396263214 145 142 125
103.308956674961124 -2.717095383742480 -58.055458228474521 145 142 125
102.432449712609966 -2.433251681977803 -58.858509782038425 143 142 122
101.150798686562041 -2.354623449361670 -60.019923842934475 143 142 124
98.491162990624517 -2.967622975046017 -62.399596532779384 143 142 124
96.642085535454243 -3.193835225535407 -64.062430053170317 140 139 121
95.928046062069711 -2.861961718786841 -64.721982121633800 140 138 123
95.781738104773240 -2.247479975188768 -64.880031835481844 140 137 121
94.338281026436590 -2.294429680653526 -66.184463568626995 141 138 121
92.165023678242136 -2.725117028864666 -68.133541314172419 140 137 120
90.559398814926510 -2.877362391075367 -69.581026443598404 138 135 118
88.953789852186389 -3.040262718350161 -71.028409502897176 139 136 119
87.672652409317138 -3.044164001278392 -72.189219742462740 139 136 119
86.797189498205157 -2.843025260588000 -72.991919442849053 137 134 117
85.516219085569446 -2.862379046135543 -74.152650528733659 137 134 117
84.235312614607452 -2.890155370844269 -75.313325506669116 138 135 118
82.711038154625754 -3.056948849694339 -76.688719754210751 136 133 116
81.267930122136846 -3.190032329142904 -77.992431851487567 135 132 115
80.068325747494583 -3.200382897168956 -79.081321960769145 137 134 115
80.005122722782303 -2.597380153147335 -79.168151745475853 139 136 117
78.968120081161089 -2.530216079257116 -80.113910093790906 138 135 116
77.038214416757114 -2.964060850268130 -81.846797295021474 137 134 115
76.001326714037631 -2.913453646312208 -82.792440201533395 136 133 114
76.750913997040740 -1.868645417949077 -82.164064960028782 136 133 114
75.977464735950051 -1.051706023239920 -82.911047501474769 137 134 115
73.398033521820054 -1.897803705467565 -85.215831459154231 134 131 112
71.711935115380669 -2.248471802145408 -86.733634741425618 132 129 110
71.894370948217656 -1.531488379595088 -86.606573919226008 134 131 112
69.558369696511704 -2.275669471368434 -88.696286360423670 135 132 113
68.197300142299738 -2.465932644220997 -89.927797920274514 132 129 110
65.535914743952844 -3.429324014740370 -92.303026799203678 139 136 117
65.393926682800952 -2.921463145278604 -92.462045634340626 140 137 118
65.008370264524700 -2.559049112411335 -92.835621699717905 139 136 117
64.541759964148540 -2.247408785341250 -93.280758111388252 139 137 116
62.205237893707945 -3.063124927117937 -95.369485048482659 136 134 113
61.982811336657221 -2.615939299954010 -95.600256707072617 137 135 114
62.248664141988641 -1.872945470901065 -95.402511131845102 139 137 116
61.701520592308952 -1.625051740683690 -95.919323422269002 142 140 119
61.642706872595284 -1.080182196836367 -96.007654641208831 141 138 119
59.306052288504432 -1.944302655062902 -98.095819934281678 141 138 119
58.677997588669044 -1.761402784036904 -98.684114478289047 141 138 119
219.426699769488323 -2.759103019468914 44.922849335390964 133 133 131
217.489770873087139 -2.277331895225335 43.183897129898440 154 154 152
214.174101445508313 -2.249096090657731 40.224597091828201 168 168 165
210.939504827676160 -2.216849170594407 37.337329695963120 164 164 159
205.677123943342849 -2.867828181454636 32.655708007247966 160 159 154
201.306823078065975 -3.259970497575940 28.764101693208431 165 165 157
199.045411227491343 -2.979148831741694 26.739013954799844 164 163 153
196.378435865671804 -2.849824224919049 24.355211420747025 165 162 153
193.386977418415199 -2.848530976046457 21.684522833935375 165 162 152
190.152125690365523 -2.950713868154206 18.798761235512359 161 157 147
187.322862476290425 -2.934028579565933 16.272038336949265 162 158 149
184.250197235785095 -3.021363869524354 13.530252214827044 161 157 148
183.530317493405619 -2.298513077332538 12.869469585422820 158 154 147
181.269012971509994 -2.129822684701856 10.845484724867106 159 154 147
177.547254290656781 -2.501659849928689 7.530280121061026 156 154 142
174.961377592176433 -2.485895492481615 5.219708082064841 154 152 140
171.564059543994802 -2.784770844614806 2.191976698764933 155 153 141
169.221582098881498 -2.716222850955338 0.096996617538423 154 152 140
167.528316342545111 -2.421016658512377 -1.424026137627152 154 152 140
165.348193009075146 -2.320401762090482 -3.375288180258735 154 152 140
162.356526189638373 -2.542623416768998 -6.043576331347140 152 150 138
160.257573376599197 -2.442681645015784 -7.922804258992727 146 144 132
158.889118170542986 -2.074305575920100 -9.156532902670847 142 140 128
156.465581838405939 -2.126454281510750 -11.322351183354073 142 140 128
154.042042360613323 -2.194762696708793 -13.488001619157586 142 140 128
150.806756717540395 -2.601229543037378 -16.370423486520764 144 141 132
149.357301759636982 -2.314910297985982 -17.675416359367858 145 143 131
147.177293076702199 -2.332905537397431 -19.625512336709761 142 140 128
146.133891596755092 -1.903108001980994 -20.571942271093974 140 138 126
144.847041374760749 -1.580035536411180 -21.733385241758640 139 137 124
142.585968363283143 -1.668286971558234 -23.754836024794997 140 136 124
139.594119343973006 -2.076202734331503 -26.421125569349158 139 135 123
137.820215444210334 -1.992329011681848 -28.012254846748561 143 140 125
135.153094546554769 -2.298555860318454 -30.391504407022950 143 140 125
132.973183075943098 -2.414579128911562 -32.340637838657557 138 135 118
131.036912857375597 -2.440284937067908 -34.074681438368231 136 133 116
129.750414826541828 -2.197106861149962 -35.235470502988733 140 137 122
127.895447373894115 -2.210846563508234 -36.897673355450621 140 137 122
126.121736514247104 -2.201129815562922 -38.488131647585789 140 137 122
123.292039852825624 -2.671746628946238 -41.009631141089017 140 137 122
121.518338380547689 -2.689132116553394 -42.599814947183859 137 134 119
120.394605766023645 -2.425519284562720 -43.616963004422587 137 134 117
118.864747387885444 -2.353610169438237 -44.992143010371962 139 135 118
117.497452561704321 -2.217513075744663 -46.224035811624077 140 134 118
116.292750915176626 -2.015570896198847 -47.312672639405093 145 138 122
114.356786881255019 -2.160808720786311 -49.045632313708012 147 140 124
112.014487916370271 -2.508782915221991 -51.136410307139215 146 139 123
110.809958993397728 -2.336868569435166 -52.224820673699384 145 142 125
109.280412166688635 -2.326953005427608 -53.599511594019987 141 138 121
107.588348389514508 -2.404745049218817 -55.117269913672914 143 140 123
105.977601596806295 -2.454661390880839 -56.563358053648187 143 140 123
105.586326348010928 -1.924856191636068 -56.935921291473306 144 141 124
103.650532788265323 -2.150460175996966 -58.668135270782642 142 141 121
101.145572213869656 -2.668321574411703 -60.901065543287530 142 141 123
97.989999225114303 -3.524460859746723 -63.706134082012994 142 141 123
97.355134950624887 -3.147298498403388 -64.293170590249076 143 142 124
97.127077359479699 -2.570394595129927 -64.522583636810680 139 137 122
96.736595930320377 -2.076739654883655 -64.895154522452458 142 139 122
94.719548632457943 -2.411433284560976 -66.698232962360464 144 141 124
91.400921588083719 -3.424852228588392 -69.645395811083915 142 139 122
90.848018375989113 -3.037413052599180 -70.160889110125964 137 134 117
88.342677551949635 -3.664697080749479 -72.392511130407655 139 136 119
88.196824900965964 -3.078680593209154 -72.550485654054683 139 136 119
87.400246635281803 -2.834843695474314 -73.280504127079439 138 135 118
87.336249071600520 -2.209293855686187 -73.367185895650238 137 134 117
85.481992102954152 -2.535398488259173 -75.026513312077725 137 134 117
83.302110011310262 -3.047982590276872 -76.971578798636301 136 133 116
81.610542273481087 -3.312255456197354 -78.487654881029556 134 131 114
81.547181713625122 -2.705832033859065 -78.574444512223835 136 133 114
81.809791076052989 -1.921905440125789 -78.375568626538524 136 133 114
80.118506354191197 -2.207507466094046 -79.891560551041209 136 133 114
77.124227972848189 -3.223355488419433 -82.550430144979543 136 133 114
76.654411836882133 -2.857613562886038 -82.994589790823653 135 132 113
77.650954519429121 -1.675628362895315 -82.153192542687918 134 131 112
76.285660864305669 -1.814003181255486 -83.383217420040950 137 134 115
75.327747275141036 -1.731025849629801 -84.256115588841908 136 133 114
74.695865975339530 -1.468809281618159 -84.843395947149332 135 132 113
73.819711780537077 -1.350375695593618 -85.644913614083151 133 130 111
72.617706262643324 -1.425180623708924 -86.731991563556136 133 130 111
70.274675376139740 -2.168595451619055 -88.818348939101071 136 133 114
67.442342889836951 -3.212684224307457 -91.332684428051181 132 129 110
67.218488813456432 -2.747499594770490 -91.562958439060225 142 139 120
65.201145801888899 -3.340434785235902 -93.363237200430746 142 139 120
64.977644910008593 -2.883570956536264 -93.593594523511086 140 137 118
64.835987448321561 -2.379109794845440 -93.752736521398930 139 137 116
64.694642233493710 -1.875088977256594 -93.912023364430837 138 136 115
63.656275765017611 -1.912581769226453 -94.856051976957872 139 137 116
63.433863050441431 -1.462026568703471 -95.086864942451513 139 137 116
62.395774744873407 -1.510069428647937 -96.030918030010753 141 139 118
59.888814565494769 -2.465684521678591 -98.258385679658687 140 137 118
60.646328302465847 -1.424919677938731 -97.633760805973594 140 137 118
58.792220252490324 -1.998145207192086 -99.290615725050287 141 138 119
219.119648406745966 -3.172166939113892 43.300251370545681 129 129 127
214.492438474659934 -3.540804395012836 39.198730871361477 151 151 149
212.956496539317612 -2.955498779415743 37.821176570238322 164 165 161
209.874887174166645 -2.877983701517567 35.081972399038619 165 166 160
205.816967170131193 -3.138558130592554 31.483005397059628 158 157 152
202.653918441193582 -3.132137037694854 28.672634459526421 164 164 156
201.524900049575876 -2.471619294179795 27.653929558288837 163 163 153
196.978645375734089 -2.964317996881246 23.625816250708880 164 161 152
194.710565359587633 -2.715895718412689 21.604252043023564 164 161 152
191.710174019962494 -2.732988916744929 18.938026182239184 160 157 148
186.431297791107966 -3.556836698406275 14.266075234901308 161 158 149
185.465181487832865 -2.912270618001102 13.391320501305131 161 158 149
184.255042613603621 -2.359982910837478 12.301678542105066 157 154 145
180.766298267223760 -2.625365960637677 9.206481548466570 155 152 143
178.905191950014000 -2.330203755489608 7.544035825255889 156 154 142
176.067475639160875 -2.400950753918583 5.022256843669055 158 156 144
172.171644404811218 -2.877178199997476 1.569684724545994 154 152 140
169.578020695118823 -2.899242777294436 -0.736791778611973 153 151 139
167.961164515509637 -2.575160289181640 -2.183806966670772 152 150 138
167.483996602988157 -1.833971644417148 -2.628314209499848 154 151 142
163.343776983502153 -2.483201543236349 -6.294767616473365 155 152 143
160.831578422807922 -2.537995585978905 -8.529001846059799 147 144 135
159.459135408599224 -2.170205830297017 -9.760816700768345 146 143 134
158.168196921991751 -1.779807818895153 -10.920996875320157 144 141 132
156.388841835638459 -1.589456083642210 -12.510614355413423 138 136 125
153.306777654551695 -1.926073243233976 -15.245338073065739 142 140 128
149.654660736581548 -2.510547525345100 -18.480811391938801 144 142 129
148.282466202143553 -2.202468509894438 -19.712130485872621 142 140 127
146.828925769805295 -1.936442724204999 -21.014959990982106 139 137 124
145.701218696919227 -1.546809006894577 -22.031503877243836 140 138 124
142.619011431150284 -1.970247191814143 -24.765265451245824 141 138 124
140.269737282103335 -2.109630084746680 -26.854853675536418 139 136 121
138.327703020115109 -2.094025634177624 -28.586565003877695 140 137 122
136.222786359811039 -2.160074419044534 -30.461231223248348 140 137 122
133.466204372947118 -2.517439297091468 -32.908015400586521 137 134 117
131.279803009694149 -2.648557797378581 -34.853888707024055 137 134 117
129.663673020092659 -2.547657330086974 -36.298953977236039 139 136 121
128.373490168613245 -2.315443260839429 -37.457867378261625 139 136 121
125.779760802367903 -2.664000287648575 -39.760932584888280 140 137 122
124.082275821533742 -2.633332870801074 -41.277213847006294 140 137 122
122.873755931542178 -2.395954069263472 -42.364388807154057 137 134 119
120.768924416340369 -2.569033731523594 -44.237994037061043 137 134 117
119.479053315676353 -2.387361672627157 -45.396536324305458 140 135 119
117.537254292729799 -2.511320613861994 -47.126923594095473 140 134 118
117.307116129610947 -1.862244271619630 -47.356084209327065 141 134 118
115.609975542121589 -1.893031344249715 -48.871897646108522 144 135 120
112.445544019227910 -2.618595992931993 -51.674072362796892 144 138 122
110.259230673390235 -2.906285128692812 -53.618376116258844 143 140 123
107.176058196861135 -3.632324450188880 -56.348561111229117 143 140 123
106.864905067524532 -3.059571609828456 -56.649037693092225 141 138 121
106.961675268682257 -2.293197384969680 -56.592362015594915 142 139 122
106.732540885067266 -1.683279765268018 -56.821599755097736 144 141 124
104.546382240420698 -2.025887432848299 -58.765412213042595 142 141 121
101.218349716403125 -2.941838562540501 -61.709078797720537 142 141 123
98.624171249641492 -3.518366184472575 -64.009582540341370 142 141 123
98.150720188622486 -3.059982595204819 -64.452956857683546 140 139 121
98.166938344543027 -2.359981035790627 -64.467921035586414 139 137 122
97.530766239727626 -1.987720686792171 -65.054281423401761 142 139 122
94.283865790713648 -2.941193533710842 -67.925516199858748 143 140 123
93.892634286506507 -2.461033277349560 -68.297589344608383 138 135 118
92.603974255961290 -2.443652566024728 -69.455019870273020 138 135 118
90.825714767075553 -2.687543017646273 -71.040691607465249 137 134 117
89.129057318330908 -2.900785046685003 -72.554858075642301 143 140 123
88.983288927138759 -2.313943861587807 -72.712881397911076 138 135 118
88.429624886322614 -1.942594034913814 -73.227845103345487 137 134 117
85.426932090229258 -2.872409319478822 -75.883574848298423 137 134 117
81.770793451207297 -4.170720185232708 -79.109776311049444 135 132 115
81.788800870095770 -3.521817942152311 -79.125070475289959 134 131 114
82.542094237450399 -2.475462861555592 -78.498484134362826 136 133 114
82.479120752035911 -1.867303887471470 -78.585476805549121 135 132 113
80.537796331802895 -2.286361724158241 -80.313053522474632 134 131 112
77.942883764781826 -3.077881905501754 -82.610993047630615 138 135 116
77.716975028840437 -2.575303035613446 -82.840669034249657 138 135 116
77.409632268905270 -2.119325119568150 -83.141766460814893 135 132 113
77.184261958692431 -1.619206786763989 -83.371674700912706 138 135 116
74.425739817303523 -2.548370833539720 -85.811644898885561 137 134 115
73.138125804313773 -2.661753014648724 -86.968229827621826 133 130 111
73.894098584466050 -1.617635060638566 -86.342902280725013 131 128 109
72.770301547881132 -1.646935989110509 -87.357004410186988 131 128 109
71.237779739986649 -1.919534053380509 -88.727364055007371 130 127 108
69.051075578384129 -2.582147607369457 -90.667621558164370 131 128 109
68.336232919950561 -2.399543818832596 -91.325252877457245 140 137 118
67.539770377029541 -2.269435966146384 -92.054156041661969 143 140 121
65.271053311945437 -3.014462880964807 -94.065189415706669 140 137 118
65.211001504256075 -2.461861523197161 -94.153007925047490 140 138 117
65.969496819073598 -1.420015547239259 -93.528863763476608 141 139 118
65.664733538447862 -1.011865787302309 -93.830702884864138 143 141 120
64.050771346036214 -1.396995322889246 -95.271802270841022 141 139 118
60.717817019617343 -2.837990534219120 -98.207709739628854 139 137 116
60.085857947994825 -2.649895111099077 -98.794189925984057 141 138 119
58.880957087203143 -2.818042293912123 -99.878921934620337 141 138 119
219.213136118897467 -3.458080676298482 42.039022489103814 122 122 120
212.215614372610275 -3.506075202855337 35.853242835641879 165 165 163
209.287992249855307 -3.381664322528333 33.261606743292162 168 169 163
205.870727704965702 -3.435471089653705 30.240895081589201 158 157 152
204.493593783345318 -2.843671687457819 29.009018497083019 164 164 156
201.239518114345856 -2.882098278687898 26.131797290482922 163 163 153
198.230240287038384 -2.860320951933535 23.469422581103856 164 161 152
193.670244827342941 -3.382018658138379 19.448181319687734 164 161 152
192.129989797721350 -2.904575180921311 18.073800667259292 159 156 147
188.630902489871687 -3.111638334373793 14.982951394944791 160 157 148
186.682607538385497 -2.802933493559407 13.251218129441725 160 157 148
185.142493867110147 -2.363905657863828 11.877165283161560 159 156 147
182.541264819981336 -2.310953488956571 9.573554962310425 156 153 144
178.715533555339391 -2.713106772769683 6.197543660318331 155 153 141
176.848976424154415 -2.433605047438856 4.537866789015482 158 156 144
173.594596334329708 -2.671959304267967 1.662849172191756 156 154 142
169.360440637151072 -3.292060901358077 -2.069824254362572 153 151 139
168.555283399846303 -2.668469008195503 -2.799647585710687 152 150 138
167.423663641007806 -2.172327794096712 -3.815415991593596 153 151 140
163.924214429547902 -2.577669668758118 -6.904051147977327 154 152 141
161.894492064944927 -2.446418708287754 -8.705862081140054 149 147 137
160.028122587153803 -2.265836715288527 -10.364610494685365 145 143 133
158.651782447907920 -1.907673539227928 -11.594461886914303 145 142 133
156.948862243093799 -1.686250139195377 -13.110106503673251 143 141 130
153.694246810891570 -2.087840980931583 -15.983331257338733 142 140 127
151.501322969276202 -2.088917444563306 -17.927422820495650 141 139 126
149.880164553873726 -1.875275087701852 -19.371243017946455 140 138 124
147.278874361149747 -2.068569124355472 -21.672289351057174 138 136 121
143.533931365141143 -2.745266884635123 -24.973264574708338 140 138 123
141.994503131500949 -2.540498713442774 -26.345233979595037 144 141 124
140.128362929177371 -2.481233496438147 -28.002843303218526 142 139 122
139.160956443931696 -2.058965901698716 -28.874692588196297 142 139 122
137.294934124626877 -2.021310903839825 -30.532135861810190 140 137 120
136.164323384694626 -1.683943236585559 -31.546752643000474 140 137 120
133.399562951356131 -2.052830545821126 -33.989505673406086 138 135 118
132.187370515588952 -1.770906884366142 -35.075382222863709 135 132 115
129.259110138862184 -2.242285377590273 -37.660580217380243 139 136 119
127.229753299682471 -2.339660092370962 -39.460212657725464 142 139 122
124.791741476453780 -2.630677349859449 -41.616647119086394 141 138 121
123.171053995658539 -2.574650792203638 -43.059070191438451 138 135 118
122.040869757062040 -2.309699488635942 -44.073145591395587 137 134 117
118.867115529898001 -2.973920185743558 -46.871491802426675 137 134 117
118.799804768656429 -2.247621381746009 -46.957625608341885 139 136 119
117.179343661864067 -2.232564239076940 -48.399735258471253 140 135 118
115.885980901290381 -2.077354699275697 -49.556334755580650 141 136 119
113.039101224386016 -2.652166978699961 -52.068541417100022 142 137 122
111.173387711702588 -2.786874582543921 -53.724358207896188 143 140 125
107.835639735264323 -3.627459040422703 -56.664152740451811 145 142 125
106.624116128938596 -3.481314864418898 -57.748951609168159 143 140 123
106.803143890444503 -2.678607910217971 -57.621142772700807 141 138 120
106.818872569701483 -1.953083891976483 -57.636135502135687 143 140 122
104.789782333087189 -2.218113575722678 -59.434169727416190 143 141 122
103.660572523821770 -2.057476589580283 -60.447637531353024 143 141 123
101.631487857114635 -2.346304763559769 -62.245429451442703 142 140 122
99.847834962377107 -2.527143120394327 -63.829170028648832 140 138 120
98.146010015140519 -2.678994536737649 -65.341496307676493 141 140 122
96.444193816240571 -2.842055623404224 -66.853711385110557 139 136 119
94.742383452568262 -3.016327955272751 -68.365813851118560 141 138 121
94.759420441804977 -2.328490689260142 -68.381044542890322 139 136 119
94.285611521150742 -1.891348556869294 -68.824029012423267 137 134 117
91.847282225368787 -2.468521194467363 -70.977366054923351 131 128 111
90.145660303106268 -2.680116310607080 -72.489174488487976 140 137 120
89.590331428938015 -2.305076254441161 -73.003379728739333 138 135 118
86.169189869999542 -3.437841604006183 -76.011130377499370 137 134 117
83.566652347783176 -4.160950638839857 -78.306126340523946 137 134 117
82.110546335990861 -4.291839955719428 -79.603642834672968 133 130 113
83.275565363837714 -3.029908599086022 -78.621949248750923 134 131 114
82.802771010555517 -2.641659295253966 -79.064915805391053 133 130 111
81.756716060564713 -2.566912149053048 -80.006421616783456 135 132 113
80.464963806299451 -2.632897133811708 -81.161514708230555 136 133 114
79.582976670721308 -2.482558668607680 -81.960570329239971 138 135 116
78.455273397879694 -2.473511645292074 -82.973198463398319 138 135 116
78.311171724917983 -1.925610808634205 -83.131618305387008 135 132 113
77.101773959201054 -1.973549598795170 -84.215436375494249 137 134 115
74.580798323370914 -2.766565099138958 -86.437872798107264 134 131 112
72.797473941933305 -3.159243925873294 -88.019589954573831 134 131 112
72.572006133191678 -2.677531166051849 -88.249262093900796 133 130 111
71.690776200958567 -2.572281583610293 -89.048215835874032 133 130 111
70.809678989335438 -2.472616120054146 -89.847175590791210 131 128 109
70.174789813204427 -2.236050933333681 -90.432752948818916 133 130 111
70.442479635790505 -1.477801370943611 -90.236043231276369 136 133 114
67.921044397734377 -2.351281493838016 -92.457431518977955 141 138 119
66.219887268383246 -2.758251319403494 -93.967451217846360 140 137 118
65.421378174840157 -2.641537219165263 -94.695237450626053 139 137 116
66.592860932893842 -1.355784241822501 -93.716881298988113 140 138 117
63.765634380361433 -1.875963969761383 -96.239052308139179 143 141 120
60.832969004613474 -3.070853017673856 -98.814695508623117 138 136 115
59.460165109919629 -3.334429483491178 -100.039838749655473 140 137 118
60.633458406156777 -2.046119253860761 -99.062375076360951 140 137 118
219.557332308137802 -2.579323224532863 40.978443640712328 144 144 142
213.101761329676492 -3.538061122299346 35.318783531055715 172 172 168
211.475053642992805 -2.994698591268941 33.874224110574602 170 171 165
209.766562943372577 -2.488522927030146 32.358313301334192 160 159 154
204.129116627627809 -3.276745654807334 27.414098808231188 162 162 154
202.011336769437548 -2.941222611245918 25.541452718075504 163 163 153
199.648012593956366 -2.701525787079684 23.454683920310174 164 161 152
196.384214312797496 -2.780511324799438 20.582531471652146 166 163 154
190.255063120748815 -3.854942537392709 15.211339684139745 161 158 149
189.283397548037442 -3.200050345684551 14.339133410169524 159 156 147
187.083770592787261 -2.977040608167462 12.395941961759547 160 157 148
184.966045862510441 -2.739919964906118 10.524282403938457 159 156 147
182.930232285239896 -2.487867009476342 8.724142010417182 157 154 145
181.058220314833136 -2.190871208009856 7.066894640186490 155 153 141
178.203646034513440 -2.259760214167096 4.553161328160400 154 152 140
173.219961869502583 -3.120669446440068 0.183808541124506 153 151 139
170.774699643513543 -3.084418735559439 -1.972526086011896 153 151 139
168.657016519169758 -2.943203119863424 -3.843218349341356 152 150 138
167.604034853169367 -2.418734883528487 -4.786039648638877 153 151 139
164.176026135963269 -2.795185757441930 -7.798290197259973 152 150 138
162.222221252366865 -2.634506560703101 -9.525863827811804 151 149 137
160.432272734503272 -2.423949193883087 -11.110621433297894 148 146 134
158.888114760516771 -2.130217454580690 -12.481243893313120 146 144 132
156.197203348541024 -2.293570051322587 -14.850582829532385 145 143 131
154.489301604233219 -2.088336709110430 -16.363677642474443 144 142 129
152.126065618060551 -2.154115242722344 -18.447344218387485 138 136 123
149.517039583208998 -2.333747651826486 -20.744830377135969 138 136 122
146.334455774142214 -2.761791013855908 -23.541383638405279 137 135 120
143.315651327920079 -3.144342460872287 -26.195038886764252 139 138 122
141.443933918464609 -3.076907006703240 -27.850064193968450 142 139 122
140.473645111387100 -2.649489227029350 -28.720587599502352 143 140 123
139.585435472010602 -2.194224534198273 -29.519805154866390 141 138 121
138.451504741496137 -1.847864650053729 -30.532926225347865 139 136 119
137.317688307411004 -1.508868963113727 -31.546026171468156 140 137 120
135.938098263913275 -1.282069438459246 -32.772970628587359 139 136 119
133.329082133030596 -1.592584848121757 -35.069114280885884 135 132 115
131.375788641945235 -1.636398637975921 -36.794827610822637 139 136 119
129.586467293692209 -1.621530382373959 -38.377870925773152 141 138 121
126.239519913052959 -2.303310165885966 -41.314899151181834 138 135 118
124.942095295955568 -2.099260946277960 -42.470058201412343 139 136 119
123.562770298911715 -1.940259751456575 -43.696431573578650 138 135 118
121.937533857383499 -1.900880498555817 -45.136507079637880 138 135 118
118.016264741486495 -2.912367546636945 -48.571400107447772 141 138 121
116.636997992979289 -2.789749061767480 -49.797426840003709 140 137 120
115.913918264806142 -2.374502975953127 -50.453512277402808 138 135 118
114.616867698909061 -2.229685223538866 -51.608240573198259 142 139 123
112.007501608253108 -2.705408418599816 -53.902516239212446 144 141 126
109.233974116152069 -3.275494324615543 -56.339004100526807 145 142 125
108.429202936257639 -2.932544078007183 -57.066123334966534 144 141 124
109.019314575114151 -1.930219364345528 -56.582735957621196 141 138 120
107.312416931603408 -2.025785615311614 -58.093214847621510 143 140 121
105.851705759884950 -2.013629564664834 -59.390000686874771 144 141 122
105.375789717915950 -1.531972741753661 -59.832435328865131 144 141 122
103.915266907620676 -1.535559953269704 -61.129149226271437 141 138 119
100.895381603028696 -2.317725684499552 -63.778173965114803 141 138 119
98.449864172022345 -2.834720830121176 -65.928691665517817 140 137 118
96.989288941782490 -2.875545705308013 -67.224997179423553 138 135 118
96.349708490482314 -2.512798944773849 -67.809629097818146 138 135 119
95.792413887919921 -2.112426340422189 -68.323154700988169 140 137 122
95.235319016775136 -1.715453956901085 -68.836740854802571 138 135 120
93.857262058590734 -1.743358780750551 -70.061796934869108 132 128 116
90.836785519428474 -2.628796053554765 -72.709475803264013 139 136 120
89.212293923786618 -2.808368911694783 -74.147653856971118 138 135 116
86.766416488438594 -3.428475385122390 -76.296937955835261 138 135 116
84.073943630178860 -4.194648838408933 -78.659324763596828 137 134 115
85.242527654545384 -2.932028312766574 -77.679343753752875 133 130 111
85.425697072843491 -2.186941452948119 -77.552923159121121 136 133 114
82.486725983042575 -3.116318387560384 -80.128282777180374 134 131 112
81.437600147613864 -3.044375909810024 -81.068290617644095 136 133 114
81.621391800178500 -2.309090908876271 -80.942066802295102 137 134 115
80.901385620425359 -2.066575733288342 -81.597844608691588 138 135 116
80.099348220393125 -1.873766228091699 -82.324726199971224 137 134 115
78.228687705421109 -2.277710958112558 -83.975404968836557 136 131 112
77.015732454624739 -2.327625857720634 -85.057500809188582 134 130 112
75.227216497299779 -2.707968519795763 -86.636861315885909 133 130 113
74.836735454065149 -2.311913876556610 -87.008427737265436 132 129 112
73.706244867374721 -2.337884862044291 -88.019361972076439 130 128 112
73.562958326052026 -1.807954726778885 -88.177986788790122 132 129 114
71.055753782146979 -2.031999153736892 -90.412867959661611 131 128 111
71.324591723470419 -1.272206175861779 -90.216723385338497 136 133 116
70.441640850713043 -1.182981258284964 -91.014688885338245 141 138 119
67.336421794151065 -2.404890430616108 -93.729222634511842 139 136 117
67.605960692787406 -1.653538573648366 -93.533326507066562 140 138 117
66.476276403190795 -1.731488476893916 -94.544111426531089 138 136 115
65.923063957359020 -1.472231984512499 -95.058137340457364 142 140 119
63.475909668963496 -2.354702534950997 -97.204109951955274 142 140 119
61.934483395018688 -2.705990375496434 -98.569399737341570 140 138 117
60.722510406140358 -2.867142367209492 -99.650820469158447 139 136 117
60.252073568811369 -2.582914320362176 -100.093844110295777 139 136 117
221.037424324309711 -2.431611395386497 40.934005530967937 139 139 137
213.249061327418673 -3.803002956991586 34.142454047233031 161 161 158
213.998417403611370 -2.502782864085090 34.768310814653631 164 165 159
205.963368314797435 -4.028447524858168 27.763784467473982 159 158 153
204.906640310828095 -3.335293476971009 26.821019035620736 160 160 152
202.043711524614082 -3.243114827602903 24.309624540285796 162 162 152
199.262874846413638 -3.142564247947682 21.869730170301722 162 159 150
197.795799450073247 -2.619584699207438 20.570730791411250 163 160 151
195.014986882764674 -2.551380262623245 18.131157841959151 164 161 152
190.263358754593867 -3.175815087408535 13.980932747211170 161 158 149
186.497006853173446 -3.491293333134487 10.686481256600899 157 154 145
183.059054666027919 -3.717116389115493 7.677437142116588 158 155 146
181.920565319121692 -3.156054591930589 6.664286863443351 159 156 147
180.946443154783537 -2.544040055932787 5.793697175736924 155 153 141
178.247656617880125 -2.557039409348002 3.426578010824898 153 151 139
175.138173350128284 -2.736517603842994 0.703353979940829 153 151 139
170.960823958075423 -3.326643146305439 -2.945945061938460 152 150 138
169.083332895445324 -3.096530356408040 -4.599882792793011 153 151 139
167.780914949053994 -2.664862373517138 -5.754996045681366 151 149 137
165.164191886060735 -2.734961142261402 -8.049927457335201 150 148 136
162.876064977299990 -2.697904914162192 -10.059725603371248 149 147 135
160.916576834190579 -2.550407255699080 -11.784444697857367 147 145 133
159.285771559284512 -2.289179865819202 -13.224139687437798 145 143 131
156.997711778050615 -2.294031956179710 -15.233538563677797 145 143 131
154.956163898994362 -2.217350399467564 -17.029130500974304 143 141 127
152.421603322405218 -2.348926838235104 -19.251876459032758 139 137 122
149.722664378989094 -2.562707563507426 -21.616855969667142 136 134 119
147.681133948637893 -2.530118941378507 -23.412002383638338 136 135 117
145.310882116364610 -2.644133503347512 -25.491816085153488 138 137 119
142.776235579222401 -2.840903654578859 -27.713849848345063 140 137 120
141.556664332389403 -2.512850562469400 -28.796671233284457 141 138 121
140.419396783773493 -2.158595985350533 -29.808277245464694 143 140 123
139.775464065690016 -1.605332577227020 -30.392788137909434 140 137 120
138.638453930085831 -1.264155618902314 -31.404382681092187 138 135 118
136.432794687706121 -1.384634699854443 -33.341152601053949 138 135 118
134.062692830949715 -1.590067932342275 -35.420097032041895 136 133 116
132.185895599080425 -1.598134699248366 -37.071914987324874 139 136 119
129.322396440884035 -2.047778452837496 -39.577459368476610 140 137 120
127.363357222162136 -2.119819741031508 -41.300133402186077 142 139 122
125.404329290783863 -2.204723184340069 -43.022680439098025 140 137 120
124.843437866761576 -1.680294076261992 -43.535762311124017 136 133 116
121.404049721450662 -2.449994275619203 -46.538521067486869 137 134 117
118.787007451490396 -2.870979756753975 -48.829687918420916 139 136 119
117.074727852765974 -2.897540019538152 -50.338302412796821 140 137 120
116.020597092249119 -2.633669592889607 -51.277891525048176 135 132 115
114.472964856620237 -2.604470039977184 -52.644128947518396 142 139 124
112.431726863047373 -2.814920349643070 -54.436913540424683 145 142 127
109.896775122540788 -3.270005223802996 -56.656142332163597 144 141 124
109.089777562039373 -2.926779359861083 -57.382199310820056 141 138 121
108.694406348216106 -2.393214326497842 -57.752841754876926 141 138 120
107.805450638124967 -2.098182488235256 -58.550053035302199 141 138 119
106.175878550190518 -2.165608373847796 -59.986954984037027 143 140 121
105.616408892337603 -1.724690073778714 -60.499857405425956 142 139 120
104.645538096090505 -1.488198015749738 -61.368137094970308 139 136 117
102.192923365159047 -1.986523250121733 -63.515451650192119 140 137 118
99.657864584705038 -2.541821425804939 -65.733597688531717 140 137 118
98.851819717274864 -2.252147860551363 -66.459559191575039 137 134 117
97.551849359004706 -2.215440613128546 -67.611777832969523 137 134 118
95.840180140301499 -2.395122745308812 -69.119108170731778 139 136 121
94.869764855510866 -2.209163379891377 -69.987085617005050 138 135 120
93.158156977581456 -2.408758311699706 -71.494240327533447 139 135 123
90.787530090112682 -2.959021547432243 -73.569384077177091 139 136 120
89.075844624857922 -3.183287882213300 -75.076247715050272 138 135 118
87.364144616329511 -3.418776498018097 -76.582988878895009 138 135 118
86.146825767885943 -3.405859827116805 -77.663643946008875 136 133 116
86.660148151768510 -2.486208079824345 -77.253528742841809 133 130 113
87.091470892202594 -1.606459893388414 -76.914633328843024 136 133 116
84.555921002091594 -2.311431830268487 -79.131003754792459 136 133 116
81.855310392754348 -3.122043807877004 -81.489040062277581 136 133 115
82.039914073053183 -2.386957870441311 -81.363202669152599 137 134 116
82.142432222000707 -1.695108624303040 -81.308509667131545 137 134 117
80.925957164752106 -1.725935375568180 -82.389118128041673 136 133 115
78.802401290743475 -2.265360649077081 -84.249994709464374 135 130 111
76.431278327505908 -2.956266125516925 -86.323453436924495 134 130 112
72.987630649900723 -4.262087999490944 -89.318655877916996 132 129 112
75.070772254282346 -2.484178512521753 -87.562052473523920 136 133 116
75.174599227372767 -1.811171528235224 -87.507791655619769 134 132 117
75.196281416607917 -1.183876066799148 -87.524621407940288 135 133 118
72.660027058517542 -2.019802858096320 -89.739306834720509 135 132 117
71.361541761455555 -2.160070478341578 -90.890414233089132 133 130 113
71.879100706491755 -1.257345813689286 -90.482151547291238 130 127 110
70.828576303406322 -1.263953977699622 -91.420681756565756 131 128 109
68.869907456243624 -1.809243946417082 -93.138661588351283 138 135 116
67.654294375763726 -1.929694587535361 -94.218759872271505 142 140 119
66.273548409139906 -2.155861094844994 -95.440488732811730 141 139 118
65.058000177564068 -2.292584424747266 -96.520450537265020 142 140 119
64.338159548994440 -2.140123065607048 -97.175380573608351 140 138 117
62.709641272762013 -2.539798719667373 -98.609366648474690 139 137 116
60.998405755868873 -3.000283874743948 -100.114014021118322 139 136 117
60.609402814517154 -2.666184485175102 -100.485649824822445 140 137 118
217.992367459231332 -3.693761231472782 36.971656878849302 135 135 133
216.520893957785148 -3.083046366132010 35.673858434677840 156 157 153
212.579175189189073 -3.267475258539585 32.240235125548907 162 163 157
209.872576343180299 -3.081056035591430 29.874800626948712 158 157 152
204.860179087107468 -3.660869393361022 25.516290623209954 158 158 150
201.906434843544019 -3.598723547230420 22.937792189192095 160 160 151
199.117378488771607 -3.501477841000932 20.501864103027771 161 158 149
196.740102485358733 -3.284849523013849 18.422007267644830 162 159 150
195.186459734574953 -2.805636538360564 17.054013040702159 161 158 149
191.409044735454302 -3.095129393660725 13.764586617432997 162 159 150
186.313650831371689 -3.863410059341869 9.336863029371131 157 154 145
182.783111191479406 -4.121174438198972 6.261582338079421 158 155 146
181.476600595637962 -3.621538823226383 5.107727369678571 157 154 145
180.170185513989026 -3.130418215974793 3.953914356867472 155 153 141
178.451961575793348 -2.795112133597603 2.444418742042359 153 151 139
176.404262953392191 -2.589985040099747 0.650447144843412 151 149 137
172.049734834829451 -3.238502409567041 -3.135206915023360 151 149 137
169.837224298761157 -3.128454539790597 -5.071072129279429 152 150 138
169.025450838720985 -2.513491880587436 -5.797641457309368 151 149 136
167.225032877514337 -2.273687235187426 -7.377691573917474 149 147 134
164.683045453164965 -2.325586773749546 -9.597704707824533 147 145 132
162.305856441197363 -2.331441322239914 -11.675313031706310 145 143 130
159.763845484407966 -2.416209833206457 -13.894976570929799 144 142 129
156.809743984216141 -2.677311600318763 -16.469976744532460 146 144 131
155.339111062090439 -2.378280604766207 -17.764969000321344 143 141 126
152.220111529716604 -2.738296502814208 -20.481782117552257 140 138 123
150.337426784646141 -2.627646249435243 -22.132005520628610 139 138 120
149.114227489972677 -2.265136420278525 -23.213445940421053 136 135 117
146.737042349568725 -2.376708533875228 -25.289967912439948 135 134 116
144.359841398818901 -2.503893273259967 -27.366321612243269 139 136 119
143.054394619260222 -2.206686816303529 -28.518601801692199 138 135 118
142.243736659821764 -1.713217985973547 -29.244454184372529 141 138 121
140.773605899126380 -1.500083556861715 -30.538802495959317 137 134 117
138.066685124145920 -1.816583432981269 -32.898906185911358 136 133 116
135.524624847362247 -2.081005013431457 -35.116696871324564 137 134 117
133.064982550738051 -2.326921258482005 -37.263247635733933 139 136 119
132.089803859745103 -1.950045372103845 -38.130911484466054 140 137 120
129.960072630769844 -2.080245537398621 -39.993046156856025 142 139 122
127.582884682556141 -2.332558266934335 -42.068118071766492 144 141 124
126.360487253090454 -2.091940744371086 -43.148687402380546 141 138 121
124.725725864353578 -2.042223989445883 -44.584312615445327 140 137 120
121.771031940565763 -2.593198322205838 -47.156045571692601 138 135 118
119.641252260116730 -2.792131083671809 -49.017449565922874 140 137 120
117.098899573513734 -3.192186382946149 -51.233704217476458 140 137 120
115.876714392202402 -3.005674040187052 -52.313818155084164 135 132 115
114.654626737336244 -2.827049882615245 -53.393897551956144 144 141 125
112.442307061936390 -3.115436375945243 -55.325752788246092 144 141 126
110.807673979991577 -3.148593241683677 -56.760586323030822 143 140 123
109.255614496315161 -3.153590192901503 -58.124353763414518 139 136 119
107.951236931897583 -3.051410736608429 -59.275137950831009 142 139 121
107.224805264714874 -2.682077319997565 -59.929147229928816 143 140 121
105.920633375507762 -2.594820401954776 -61.079876206478360 143 140 121
105.111932261205652 -2.276440447725014 -61.804862459405598 141 138 119
103.395099370591382 -2.405390334740321 -63.310244726710380 139 136 117
102.091170121559216 -2.343139335286300 -64.460832383005993 137 134 115
100.952488587376948 -2.207792516427638 -65.469508621812395 140 137 118
99.400947559959775 -2.284949844071237 -66.832781306888592 137 134 117
98.675435510153292 -1.959022918204913 -67.486783722972234 137 134 118
