ply
format ascii 1.0
element vertex 682
property double x
property double y
property double z
property uchar red
property uchar green
property uchar blue
end_header
-114.241929353764846 -112.766777710594056 -15.704051139863680 22 22 20
-114.245043871613348 -112.221428841951365 -15.486456945224376 19 21 16
-114.251637987002354 -111.678304028596500 -15.156316344809909 20 22 17
-114.254827526024172 -111.130535542777309 -14.938711166633510 25 27 22
-114.244305378189154 -110.570678328671832 -15.171225587484798 29 31 26
-114.244141970568094 -110.019365628573055 -15.066119814787925 28 30 25
-114.233717680025421 -109.460892018587316 -15.298573178913642 25 27 24
-114.213047722265415 -108.897704622647069 -15.868553211245171 26 28 25
-114.182146952965965 -108.332250486524998 -16.776027616205738 32 34 31
-114.171888967596502 -107.779517901839853 -17.008342325249203 38 40 37
-114.178815951589286 -107.233488909624526 -16.678072375807631 37 39 36
-114.185775481710877 -106.685835480053044 -16.347803577559318 37 39 36
-114.175648162375097 -106.133669092377744 -16.580049948269902 32 37 33
-114.175836110542733 -105.583513263247923 -16.474764179914047 30 35 31
-114.179483432803494 -105.032852295369750 -16.256969773576202 28 33 29
-114.183166224045621 -104.481107902182131 -16.039169551240263 31 36 32
-114.169796468033297 -103.930830835276510 -16.383806529735381 33 38 34
-114.156477342877253 -103.382188480817874 -16.728402459686009 34 37 34
-114.160281533323669 -102.829909031657522 -16.510549667986794 39 41 38
-114.170947330521031 -102.273890901405252 -16.067735021419168 38 40 37
-114.185054438843309 -101.714099748944804 -15.512454016097706 32 34 31
-114.192368116349712 -101.155329225541266 -15.182130228786036 26 28 25
-114.186079547050767 -100.603494419571348 -15.301677856579573 26 28 25
-114.173020521010542 -100.057030087068455 -15.646126936530607 25 27 24
-114.160011380922512 -99.512195331278207 -15.990535377161365 24 26 23
-114.157266124833995 -98.960115669460833 -15.997531531564221 27 29 26
-114.154562618998909 -98.408032356074671 -16.004507750376433 28 30 27
-114.148498962799522 -97.859446489387466 -16.123914337549934 28 30 27
-114.125476159891733 -97.330268465723535 -16.805528772302068 30 32 29
-114.112709325992796 -96.792210830100061 -17.149751534180155 32 34 31
-114.106788831879868 -96.247142874249036 -17.269053421478674 32 34 31
-114.107707375908163 -95.693432001128059 -17.163454732421059 34 36 33
-114.122249552785874 -95.119722136615181 -16.608108864089331 37 39 36
-114.126639143411793 -94.558684543198993 -16.390066170929288 37 39 36
-114.124280732557523 -94.007360576637723 -16.396869481147235 33 38 32
-114.115181657916395 -93.467381370262274 -16.628498494340988 26 31 25
-114.109522617860321 -92.922529058066175 -16.747673083186442 31 36 30
-114.103910494150526 -92.378208515075158 -16.866819753645075 30 35 29
-114.108512729720516 -91.814937803294569 -16.648698318481905 30 35 29
-114.106380377942983 -91.264096529067587 -16.655388514217691 18 24 20
-114.107681067939225 -90.706202686220323 -16.549650065247590 20 26 26
-114.092096680370886 -90.184298011886369 -17.005913349518693 13 19 19
-114.100261991428724 -89.611480251863270 -16.675326738898434 10 15 18
-114.098317208482356 -89.060574334926571 -16.681927867748215 9 14 17
-114.089654616403919 -88.525901852175195 -16.913293444407941 7 12 15
-114.067516020428158 -88.025890309468608 -17.594184652354159 5 13 15
-114.045437582987134 -87.529123377118907 -18.275013682259186 10 16 19
-114.043701865694402 -86.981947118538315 -18.281476403569798 11 16 19
-114.038637153103352 -86.443962920517379 -18.400295971243736 11 16 19
-114.037004074756041 -85.897013287511712 -18.406707257663783 12 16 19
-114.045556837637065 -85.320763764224395 -18.075970616282632 9 13 16
-114.057534974830943 -84.732825373905854 -17.632856722031249 9 14 18
-114.049302097536753 -84.204500214837083 -17.863951388419849 12 17 21
-114.051253839581165 -83.645511084290931 -17.757912752728060 16 21 25
-114.053259544949356 -83.085948810884133 -17.651854200814569 15 20 24
-114.045196898118064 -82.559170274573447 -17.882851509368209 13 18 22
-114.023698685358795 -82.079015702006558 -18.563231962409787 11 16 20
-113.992145988765103 -81.637086882653747 -19.580605623934417 11 16 20
-113.991015987381317 -81.092600519712335 -19.586750884383349 13 18 21
-114.010178079242564 -80.474829688244284 -18.918789521305939 11 16 19
-114.022651365759913 -79.878716747047264 -18.475522894074146 10 15 18
-114.028440259006075 -79.305893815844087 -18.256932091739344 9 14 17
-114.000583377400304 -78.862194776377095 -19.161697024886422 13 17 18
-113.979537568610823 -78.396217802304676 -19.841715112276006 14 18 19
-113.982150338384074 -77.838478364881780 -19.735347379465480 19 23 24
-114.005045399037670 -77.197097712426967 -18.954984319740873 16 21 23
-114.004418331847617 -76.650661788895420 -18.960909046001916 17 22 24
-113.970170002827629 -76.248050770436706 -20.090026455883788 14 24 25
-113.983157982395397 -75.645607530991626 -19.646578762200875 13 23 24
-114.002951645009418 -75.011071544113733 -18.978487830006884 13 23 24
-114.026183295304662 -74.358010406625027 -18.198083980051678 14 24 25
-114.032645292184426 -73.778466613870748 -17.979240348449935 15 25 26
-114.062758326580791 -73.087531134032119 -16.974216557719473 16 26 28
-114.076106276221367 -72.471743851825735 -16.530734012523197 18 28 30
-114.086163917097423 -71.870012221727848 -16.199539742793945 20 30 32
-114.092933058176186 -71.283151952820361 -15.980624486624777 19 29 31
-114.113255716563472 -70.627778510323566 -15.312494975064624 21 31 33
-114.130293847971430 -69.986181246465179 -14.756653849746215 28 38 40
-114.167627471994393 -69.237477254566031 -13.527052624162565 27 38 40
-114.215156473677908 -68.429729037019669 -11.960605081967401 34 45 47
-114.262779645665191 -67.614271383116829 -10.394191846122965 34 45 47
-114.323976330604012 -66.718285037279145 -8.378678470806989 33 44 46
-114.368430054254873 -65.904782788546555 -6.924620245135515 29 39 41
-114.399509212715500 -65.159104293035981 -5.919697761325097 14 25 26
-114.420582516708379 -64.465498448989820 -5.251602688795742 2 10 9
-114.451871934425824 -63.710644928578333 -4.246674060818037 0 4 4
-114.463045555294372 -63.068201148321556 -3.915364980699309 2 7 3
-114.477697483960966 -62.404186657547356 -3.471755043291694 2 7 3
-114.499203911765946 -61.697664288037863 -2.803585722100507 1 4 0
-114.527571164069187 -60.946991893394163 -1.910870894533133 1 6 2
-114.542565364394861 -60.274493954537519 -1.467184539929860 1 6 2
-114.550929169392845 -59.641576684834604 -1.247980489854029 0 6 2
-114.559410423126153 -59.007460944333125 -1.028732589167731 1 8 4
-114.564635567826684 -58.393624647220747 -0.921692538303859 1 9 4
-114.546343530281760 -57.931411865830654 -1.600354484242985 2 8 3
-114.538293775152866 -57.406282208759464 -1.942187537628485 2 7 1
-114.543875323089708 -56.793470467256427 -1.834966438412494 3 8 2
-114.583381777766036 -55.954240850304153 -0.605257563826939 4 9 3
-114.606134813329177 -55.223111477135362 0.063254837992531 4 9 3
-114.622267160914390 -54.534815283649429 0.507323058972247 4 9 3
-114.625007713943262 -53.937782496390916 0.502488571744664 5 7 2
-114.638036912569220 -53.269605219329833 0.834420466092183 3 5 0
-114.617349728485877 -52.839084251796329 0.044080025099106 8 10 5
-114.623882122290894 -52.218514613570356 0.151676149791030 6 8 3
-114.620391341483483 -51.670726881102254 -0.077350251937986 6 8 3
-114.633991081908704 -51.000057516471031 0.254828935341322 2 7 3
-114.657923369202706 -50.252470914743917 0.923736084625773 12 18 16
-114.688812627637063 -49.450808807665247 1.817132568556445 0 4 2
-114.713090069305309 -48.695773872393247 2.486128169071492 0 3 1
-114.710362920272900 -48.144183051227039 2.257427939063689 1 7 5
-114.697586733974561 -47.671931282959761 1.692160306039597 1 5 3
-114.698556641218687 -47.096603419963401 1.575843282706387 2 5 3
-114.699684454220289 -46.521646515726886 1.459605619411207 9 13 12
-114.741841864524019 -45.623524445458017 2.689976492475182 7 11 10
-114.770583354976836 -44.828113743607460 3.471550955499367 10 14 14
-114.779066050635805 -44.193726501992899 3.579937866380135 27 31 31
-114.709236279522798 -44.197659798831964 1.107676562385905 71 73 73
-114.663381259558633 -44.017068050970380 -0.579002517376438 132 134 133
-114.576616215520502 -44.184553772927387 -3.611976495217704 127 129 128
-114.599338252382907 -43.451142622284863 -3.054361295472688 130 132 130
-114.663343357992389 -42.368132178031814 -1.150288399252588 126 128 125
-114.802993839997370 -40.633983787180782 3.222165964006905 130 132 129
-114.795624589935443 -40.143922026055627 2.770160548461917 132 134 132
-114.805583964830873 -39.507268799243619 2.879230572703761 134 136 134
-114.829485079881124 -38.749872561890960 3.437162948865790 132 134 131
-114.764234619901970 -38.776350682938400 1.078183321743012 130 132 129
-114.771709470082556 -37.630674059115272 0.848248469579318 131 133 130
-114.886980082658610 -35.513737795020830 4.096510509791045 131 133 130
-114.957185091379429 -34.332084827253745 6.113392926280341 127 129 126
-116.328959336369536 -0.676475481463260 32.475048885223828 111 111 99
-115.666220421856835 -0.874504454634691 -2.427936823286075 93 95 82
-115.663014580829795 -0.636118535387966 -3.318795392030125 91 93 80
-115.608963028892006 -1.037003164738870 -5.668563545656895 90 91 77
-115.610116930837776 -0.760782277327216 -6.446866997720150 84 86 72
-115.591786117453950 -0.735087697890852 -7.786207502269889 80 82 68
-115.577613127334743 -0.665736660953721 -9.013149411349360 79 81 67
-115.491840482106539 -1.502876521734795 -12.260473312386296 77 81 66
-115.477824470273518 -1.449842305567323 -13.487172166358675 77 81 67
-113.971362441463043 -150.740453403083563 -21.983281513351614 185 189 190
-113.938117488417163 -150.038844208112806 -22.782419995279923 189 193 194
-113.891474416967313 -149.250567045593840 -24.032295747737948 137 141 142
-113.845070834207817 -148.468467300414574 -25.281993342367429 121 125 126
-113.812469815543707 -147.781002514088044 -26.080678172791039 123 127 128
-113.790225576670267 -147.163036286079659 -26.541116316927599 93 99 99
-113.778294700903132 -146.612097797393915 -26.663353978551214 71 75 74
-113.752984576346378 -145.976660534664575 -27.236297554947271 60 64 63
-113.741339126339909 -145.428167422891448 -27.358373498372316 51 55 54
-113.736564311926657 -144.921836311613731 -27.255010788787729 46 50 49
-113.738632866560621 -144.456021457944729 -26.926239410873961 26 30 29
-113.737432795932719 -143.968481649444414 -26.710114242875761 30 36 32
-113.722901421351509 -143.400259940721924 -26.944632764004893 31 37 33
-113.715207743746433 -142.872545934073457 -26.953745418370630 31 37 33
-113.710976005775336 -142.364317312213132 -26.850142434907326 26 32 28
-113.713538646967294 -141.893855485512063 -26.521182521305633 24 30 26
-113.712844503358070 -141.403023891539419 -26.304849203557382 18 24 20
-113.712241890169565 -140.911198193645760 -26.088482330780664 22 24 21
-113.718398686476661 -140.454945095788418 -25.646797843187301 22 24 21
-113.711305151440527 -139.924555177302750 -25.655650935909989 20 22 17
-113.710968021953363 -139.429733312376527 -25.439187897692960 19 21 16
-113.704068620803483 -138.898978461912236 -25.447951873858045 20 22 17
-113.707228480044961 -138.419886044807782 -25.118795092191220 20 23 16
-113.693879243056813 -137.854646390296523 -25.352717386965878 22 25 18
-113.697206111476177 -137.373809720061047 -25.023498663154498 28 30 25
-113.693985475637788 -136.858669879374077 -24.919483112543901 29 31 26
-113.704077240502741 -136.407461066187011 -24.365005341203812 27 28 25
-113.704315433249988 -135.906118538755550 -24.148334191256737 26 27 24
-113.711230096176863 -135.434866297885293 -23.706441536584208 22 24 19
-113.721503651002877 -134.976784326382500 -23.151947546421155 26 28 23
-113.728537467879647 -134.501035971674753 -22.710044169665792 18 20 15
-113.729048886780518 -133.993702489502311 -22.493303977170115 11 13 8
-113.726343133217298 -133.470881502465033 -22.389121174541998 11 13 8
-113.720427967326827 -132.933389361871491 -22.397483646244496 16 18 13
-113.724438995107107 -132.437712015265390 -22.068090385477205 20 22 17
-113.728511199064755 -131.940459459796472 -21.738684072652461 20 22 17
-113.732643515898047 -131.441630142613235 -21.409265232434507 20 22 17
-113.743381645349970 -130.967421766949258 -20.854714988542071 18 20 15
-113.744354889606257 -130.452062223112392 -20.637836476664063 15 17 12
-113.748658571333578 -129.948221077140033 -20.308387245339617 15 17 12
-113.746488186577253 -129.418233197582964 -20.204022096534430 16 18 13
-113.737858932893658 -128.863732007502080 -20.324716946145514 20 22 17
-113.732564741888552 -128.321562026211410 -20.332830496955637 21 23 18
-113.720825122708007 -127.756510249353639 -20.565980822169365 21 23 18
-113.725435868399174 -127.248555634700509 -20.236427034496671 20 25 19
-113.723593648812155 -126.717171442315177 -20.131919265548760 19 24 18
-113.728310385319631 -126.206580801306870 -19.802341906176395 18 23 17
-113.726582398841828 -125.673647418019783 -19.697795435100801 19 24 18
-113.721668079712927 -125.130106881905263 -19.705741364316737 19 24 18
-113.716815740538621 -124.586605390200759 -19.713657240631107 19 24 18
-113.708784685968467 -124.033583264574730 -19.834050689083284 22 24 19
-113.707292738859678 -123.499714227630392 -19.729400928735771 22 24 19
-113.712324743524221 -122.983363507709399 -19.399732037543544 25 27 22
-113.717400720613426 -122.465413328239762 -19.070058574134748 27 29 24
-113.725750272702825 -121.954332031684785 -18.627889453883796 27 29 24
-113.724453698135207 -121.416513108191538 -18.523186886148750 23 25 20
-113.716756290468737 -120.862330205211634 -18.643432667530305 25 27 22
-113.715564964701201 -120.324026727498179 -18.538684736890048 25 27 22
-113.717644265837365 -119.792587893617323 -18.321442603401920 22 24 19
-113.719767673054406 -119.260087647766440 -18.104190295362429 21 23 18
-113.712282958391967 -118.706015557568435 -18.224333184488273 21 23 18
-113.704853619900419 -118.152512744590751 -18.344443721987432 20 22 17
-113.703904849026742 -117.612162697991124 -18.239600820278980 19 21 16
-113.696579656163095 -117.059251109867233 -18.359655449092287 21 23 18
-113.698934278362188 -116.524150055134101 -18.142319300030294 24 26 21
-113.701329109180449 -115.987981811596612 -17.924974900413247 33 35 30
-113.726198455941031 -115.487173482967165 -16.920502597594748 54 56 53
-113.735064536695106 -114.956827830754122 -16.478284669491501 56 58 55
-113.750363955940884 -114.433644150943252 -15.811197562684697 45 47 44
-113.749690623708020 -113.885274251880205 -15.706305444444894 39 41 38
-113.755453772907430 -113.344608793675448 -15.376537060029193 32 34 31
-113.738882743015097 -112.775420102731033 -15.833759068742580 29 31 28
-113.741532721749508 -112.229853643353337 -15.616389347793870 28 30 27
-113.741027713012386 -111.679913516691258 -15.511432867312152 30 32 29
-113.750132737696973 -111.138526408495153 -15.069214284504767 33 35 32
-113.736949258334249 -110.575684764393884 -15.413891482394234 33 35 32
-113.739751514667404 -110.026906351505673 -15.196481974615267 29 31 28
-113.723480883243226 -109.463779392741998 -15.653497877276692 27 29 26
-113.704083039896005 -108.900898424187588 -16.222866180222582 24 26 23
-113.668837162394979 -108.332406462671301 -17.354168309756801 30 32 29
-113.665462547081546 -107.783322871750883 -17.361434707392789 38 40 37
-113.671662728053462 -107.237619462539399 -17.031509106635696 37 39 36
-113.687422764276647 -106.692847944519585 -16.364423856709266 36 38 35
-113.674630947325554 -106.139597674458557 -16.708814955812244 31 36 32
-113.674581618805590 -105.589217825959935 -16.603645005754288 29 34 30
-113.671397558617045 -105.038262778959236 -16.610839506309276 28 33 29
-113.674593466528307 -104.486840770033211 -16.393268888826753 30 35 31
-113.665148922892683 -103.936364844395342 -16.625171221207751 32 37 33
-113.662084107482784 -103.385420541130713 -16.632308564878684 33 36 33
-113.659058843332062 -102.834478407854448 -16.639426965026018 39 41 38
-113.671893253885656 -102.276920881216881 -16.084731822122023 36 38 35
-113.684752587685210 -101.716644772816608 -15.530052739750403 28 30 27
-113.697637132685088 -101.153649381772439 -14.975389587369222 24 26 23
-113.682109619075334 -100.607186591260572 -15.431878452360223 27 29 26
-113.669791430233275 -100.060486823572361 -15.775975541787631 27 29 26
-113.651207397768360 -99.520782717785323 -16.344715949305481 26 28 25
-113.648454804514586 -98.969020290274756 -16.351712348330977 29 31 28
-113.642587830232870 -98.420481318032216 -16.471024360841113 28 30 27
-113.643069422900936 -97.865484301558652 -16.365647946736146 28 30 27
-113.637285309314223 -97.317480113289250 -16.484914814173720 29 31 28
-113.622093041943671 -96.782142459525559 -16.941128781891706 31 33 30
-113.613249686776541 -96.240344612311745 -17.172654179949319 31 33 30
-113.607599951931547 -95.695040813242372 -17.291828964594941 32 34 31
-113.617726990431748 -95.125979974794546 -16.849406313488913 34 36 33
-113.624740303220548 -94.559865428251882 -16.519301815348030 35 37 34
-113.619211126030692 -94.013719902297808 -16.638427589942268 30 35 29
-113.607440131699079 -93.479457187142188 -16.982134882562008 27 32 26
-113.595718443850259 -92.946815371429963 -17.325801902397131 32 37 31
-113.593468939318882 -92.397138259429667 -17.332536160302169 33 38 32
-113.588122851286300 -91.853939074887876 -17.451544017498918 30 35 29
-113.582822571668814 -91.311270511704137 -17.570524498154668 45 50 47
-113.577568517019984 -90.769131750228198 -17.689477411428726 44 50 50
-113.575497779204596 -90.220215478686029 -17.696118316236550 21 27 27
-113.579743459462719 -89.656126299608388 -17.478175880807441 3 8 11
-113.590300228846544 -89.075231168922272 -17.035669464234701 4 9 12
-113.582093397744956 -88.540877384777517 -17.266813725880468 7 12 15
-113.573937320062825 -88.007593096462060 -17.497922698406512 6 14 16
-113.553305045799448 -87.510044044227797 -18.178067939557252 10 16 19
-113.554648454031351 -86.953168172262892 -18.072298575844030 11 16 19
-113.549778671605267 -86.414148277912716 -18.191035550537805 12 17 20
-113.538701514338996 -85.894615844439898 -18.534259287694539 11 15 18
-113.527679441087301 -85.376692513862494 -18.877440109543045 9 14 17
-113.541734336802904 -84.780160644688166 -18.322562273207780 8 13 16
-113.530817946643069 -84.263275723231942 -18.665681847760624 11 16 19
-113.532463186255953 -83.705711560788345 -18.559775173868957 15 20 23
-113.531034834150006 -83.158418854423402 -18.566092051383322 14 19 22
-113.532785432895821 -82.599981594646323 -18.460143961273104 10 15 18
-113.522093301335858 -82.086521275492657 -18.803121000128641 11 16 19
-113.502090463475596 -81.609642958257254 -19.482752346802215 11 16 19
-113.500889027492050 -81.064405268229891 -19.488939515105926 14 19 21
-113.515356836986470 -80.458111641042535 -18.933964624913330 11 17 17
-113.514268957958478 -79.911444293995189 -18.940112184136638 10 16 16
-113.522604662812341 -79.326493767212767 -18.609568946371610 9 15 14
-113.493548872107908 -78.896127094277176 -19.625629081696104 13 17 17
-113.492646182183051 -78.350980784883276 -19.631672390282603 13 17 18
-113.485566443605265 -77.832926016519522 -19.862109680770999 15 21 20
-113.509747420043595 -77.177536728859153 -18.970416756341763 12 19 18
-113.502795953502670 -76.658852430983643 -19.200799161990886 15 21 21
-113.492793310361265 -76.155595909317327 -19.543341319136857 13 23 23
-113.492215590305719 -75.609961469195170 -19.549234187826556 11 21 22
-113.513534641429345 -74.959784610343050 -18.769715629430237 10 20 21
-113.522448125482342 -74.366545108292669 -18.438981306663322 12 22 23
-113.537667683195608 -73.740674059930811 -17.883848302930545 13 23 24
-113.552958533471028 -73.112025015648456 -17.328709788388068 14 24 25
-113.565204903024096 -72.496613640479282 -16.885750365929766 16 26 28
-113.565056205856592 -71.944126521425332 -16.891508529607108 15 25 27
-113.555632238558999 -71.441269656138644 -17.233769736349046 12 22 24
-113.568109786484982 -70.822139015280982 -16.790738003219701 11 21 23
-113.561962239020190 -70.303414250558717 -17.020736233283998 13 23 25
-113.580837382762752 -69.646668547800815 -16.353313333132519 13 24 26
-113.587325938996699 -69.057198489233230 -16.134559171667291 20 31 33
-113.631315511355680 -68.251452285308389 -14.569784272596877 22 33 35
-113.669161070663392 -67.474395739197121 -13.229371101090919 27 38 40
-113.728930266160035 -66.561414199951187 -11.103856686973955 30 41 42
-113.788801502027610 -65.637988075868847 -8.978400968451979 32 43 44
-113.845659922658257 -64.723130695008180 -6.965157252954185 34 43 44
-113.890150328014371 -63.875528367212297 -5.400573603204407 27 35 36
-113.931631388392873 -63.039761246737150 -3.948166672962685 7 13 13
-113.951383280674406 -62.335664253697573 -3.280811749933491 0 2 1
-113.965003019617882 -61.668418745652879 -2.837728867035281 1 2 1
-113.991218651234163 -60.917362875656366 -1.946047314733875 0 5 1
-114.014429735745168 -60.182495602064698 -1.166495375034117 4 9 5
-114.012777986553331 -59.611136981844204 -1.284025732410072 2 7 3
-114.001866414298135 -59.103828878405174 -1.737903308015518 1 7 3
-114.012932628022426 -58.448270945791521 -1.406780601664678 1 7 3
-114.014744374808146 -57.856211327596355 -1.412008235287800 1 7 3
-114.007296167044785 -57.330107112622450 -1.753563542089665 4 7 3
-114.031231993153597 -56.582569462738583 -0.973795311041982 5 8 4
-114.061559858777116 -55.785945972593453 0.030243354427967 5 8 4
-114.082644362121627 -55.052805775443929 0.697936837731959 5 8 4
-114.069438070684768 -54.570539261978979 0.132360357080586 5 9 4
-114.068875126660288 -53.997319428930332 0.015331721965907 2 7 2
-114.080971726998627 -53.329858953216217 0.346824842885638 3 8 3
-114.090076278206809 -52.684557928953090 0.566255791202678 6 11 5
-114.080511461068909 -52.183292075879407 0.113084694547439 4 9 3
-114.093030687137173 -51.512675563467333 0.444747511496502 1 3 1
-114.064904150036085 -51.162143051094780 -0.680905183889962 18 24 18
-114.096544257341364 -50.341302343956855 0.323511973522386 48 54 50
-114.118935032081680 -49.591296992960466 0.991656771083740 109 115 111
-114.166638609494399 -48.633187309976819 2.556640083610517 127 133 129
-114.164226544385002 -48.080935306189716 2.328083782786535 120 126 122
-114.165108606139114 -47.503482469053154 2.211702861045694 115 121 117
-114.150401633739250 -47.058432044649550 1.534932658745561 107 113 109
-114.138981246118789 -46.589820397002853 0.970351104751870 112 118 114
-114.159227636207618 -45.854233513464195 1.526759567654523 92 98 94
-114.185968859280464 -45.061258516759203 2.307402181557137 118 124 120
-114.105575289308646 -45.199370593925671 -0.722826062612285 119 125 121
-114.003115412605098 -45.546580227883460 -4.537470600534817 124 128 126
-115.613890501721158 -1.598949775485120 29.814421313768577 114 115 101
-115.645299893194831 -0.777326012692307 30.153566727609842 113 114 100
-115.006175242523554 -1.343313389537087 -7.949242080019559 85 87 73
-114.989048969001189 -0.894946379782412 -11.066099275213674 77 81 66
-114.936511691250971 -1.392054589952841 -13.525011412524094 75 82 66
-114.883860633374411 -1.901142718100200 -15.983854666542982 76 82 68
-114.970439876003795 -0.538375270547258 -14.293579829764013 77 83 69
-114.896847713736832 -1.001342862107740 -19.201811446445703 81 84 73
-114.848244808481439 -1.500967113715248 -21.547956609641574 80 83 72
-113.536050796814195 -151.203120060177355 -19.969592953293443 178 182 183
-113.451056299009366 -150.106240753888670 -22.682157997522410 178 182 183
-113.401055989935386 -149.271970622658074 -24.155831039524912 145 149 150
-113.354453162486820 -148.467359971351328 -25.516714553116458 136 140 141
-113.320647959993238 -147.757926434255239 -26.427060481264789 127 131 132
-113.296447812456506 -147.118534767702471 -26.999513753124205 103 107 108
-113.284940650165922 -146.568282089146209 -27.121541652284805 72 76 75
-113.270439715800748 -145.997409900736301 -27.356072893637872 76 80 79
-113.259199856416487 -145.448775773079433 -27.477956255446855 60 64 63
-113.257442374963958 -144.963047062735171 -27.262079108333410 29 33 32
-113.252672170155947 -144.455867992318275 -27.158722921998873 43 47 46
-113.251119638088014 -143.968454251467904 -26.942765072667811 40 46 42
-113.240346982731566 -143.420281676846457 -27.064420174674069 38 44 40
-113.232796203802508 -142.892415955481340 -27.073466028478805 36 42 38
-113.228453616435658 -142.384033740444181 -26.969917655998159 39 45 41
-113.224211453735194 -141.875207243795018 -26.866325813915182 37 43 39
-113.226249396071736 -141.403596858411845 -26.537628737138903 34 40 36
-113.222195539835980 -140.893327576497938 -26.433961661202147 38 40 39
-113.227487227724055 -140.437461381289523 -25.992687055927803 34 36 35
-113.220531990750274 -139.907454923084686 -26.001470040182170 30 32 29
-113.219828603084778 -139.413015576954791 -25.785178281164121 24 26 23
-113.216136070772507 -138.900105815949729 -25.681365528878615 21 23 19
-113.212532588418640 -138.386735098207964 -25.577514920257585 21 22 16
-113.205950627979405 -137.855981804499010 -25.586127017850345 17 18 12
-113.205586499036855 -137.358601916508576 -25.369703227096664 19 20 15
-113.205300135389322 -136.860208597021426 -25.153252665451930 15 16 11
-113.208146247851658 -136.376900437789629 -24.824289373920294 17 17 15
-113.204955251227233 -135.860373792516981 -24.720273919087646 25 25 23
-113.210993497116306 -135.390038231999426 -24.278791103470496 27 29 24
-113.220138311096946 -134.932872495787450 -23.724827667788730 22 24 19
-113.229335908727251 -134.473047366619596 -23.170866355057598 21 23 18
-113.232504370352956 -133.981088125303586 -22.841837902724961 21 23 18
-113.232698256626904 -133.473093366948234 -22.625256423597563 16 18 13
-113.229925289741985 -132.949879431446192 -22.521109820408128 12 14 9
-113.233287985723393 -132.454018446991626 -22.192028609627727 14 16 11
-113.233681409506389 -131.942934940873101 -21.975383466472294 18 20 15
-113.237164933840305 -131.444192051045746 -21.646274116721997 18 20 15
-113.249775385724604 -130.983172472428237 -20.979833516361765 18 20 15
-113.256384805713736 -130.493279950475880 -20.538278762641596 16 18 13
-113.257008823082955 -129.976148186047539 -20.321585562066105 15 17 12
-113.251662651095515 -129.433410591248105 -20.329729823130975 16 18 13
-113.243373474504153 -128.878711365988011 -20.450264019502384 18 20 15
-113.244186907165130 -128.359820765943226 -20.233498307879188 19 21 16
-113.233028128027726 -127.794021852976684 -20.466378451854496 20 22 17
-113.239972996296203 -127.296520628649859 -20.024741541023133 17 22 16
-113.237955814200291 -126.764119310536074 -19.920327943325844 17 22 16
-113.241996303894851 -126.252513791252625 -19.591084544762680 17 22 16
-113.237092815492929 -125.708184244506299 -19.599033414278779 17 22 16
-113.232250571944604 -125.163893970600128 -19.606952580211725 17 22 16
-113.224476117935723 -124.609809236360675 -19.727234209799263 17 22 16
-113.219755472847197 -124.065865760305869 -19.735091633681378 19 21 16
-113.221068172314219 -123.540533453323818 -19.518153382255008 21 23 18
-113.219443287324978 -123.005130673819238 -19.413583006516490 22 24 19
-113.232785328325960 -122.512933998179747 -18.747113337952129 25 27 22
-113.234232161918499 -121.983617542324751 -18.530151928065777 26 28 23
-113.235724450244021 -121.453243080842952 -18.313179663374285 25 27 22
-113.216426524136295 -120.866320321531489 -18.882747640485093 25 27 22
-113.209099916744563 -120.312766937010977 -19.002809552336515 25 27 22
-113.210745543317344 -119.781933418554743 -18.785768656457179 26 28 23
-113.218373435204967 -119.264259031240002 -18.344012641968391 24 26 21
-113.223066694371866 -118.737594502129255 -18.014611970680335 23 25 20
-113.215933569346987 -118.183055700967117 -18.134591464619177 21 23 18
-113.220708255829578 -117.654262020320630 -17.805173755208784 20 22 17
-113.210709894906714 -117.093746397709225 -18.037444375526093 19 21 16
-113.206686243968363 -116.545840962265217 -18.045009142234136 21 23 18
-113.193835714501120 -115.981521062473817 -18.389542274463309 26 28 23
-113.201733506229985 -115.455296604754750 -17.947745150985440 31 33 30
-113.203753153386941 -114.917046069000293 -17.730601672025784 48 50 47
-113.220569700758915 -114.401036332634177 -16.951856046399456 48 50 47
-113.234453762217200 -113.876845205178924 -16.285456412071426 44 46 43
-113.245410817479879 -113.345287990431189 -15.731391755231840 36 38 35
-113.223982236038864 -112.768717518222516 -16.412731354179641 34 36 33
-113.223230344285312 -112.220445149267448 -16.307875814618825 35 37 34
-113.219574235903494 -111.668340197809528 -16.315307977955683 36 38 35
-113.224782835165797 -111.125339088162420 -15.985828930362715 34 36 33
-113.221204441066902 -110.572443214030258 -15.993232056817391 32 34 31
-113.226479459647976 -110.027017906114153 -15.663746187940546 26 28 25
-113.214170032626697 -109.466684729955759 -16.007979421265190 26 28 25
-113.198976960602238 -108.906050562398420 -16.464454163651197 24 26 23
-113.166242793996318 -108.337577580710857 -17.594554503933665 29 31 28
-113.162888635968272 -107.788538056522256 -17.601810661273447 33 35 32
-113.171289809033766 -107.244012955437825 -17.159961099605198 35 37 34
-113.182644172353875 -106.698174095956787 -16.605853380096534 36 38 35
-113.170614120297827 -106.144959395495690 -16.949879687349068 32 37 33
-113.164480571042702 -105.594003620143752 -17.069344105781255 29 34 30
-113.164233775703195 -105.043674532259331 -16.964268100668448 27 32 28
-113.169864237349330 -104.492339927493816 -16.634673016408698 26 31 27
-113.163844875185802 -103.941396615594599 -16.754082679835079 30 35 31
-113.160784514728448 -103.390223185470148 -16.761220250789876 34 36 33
-113.157761907633756 -102.839051875434933 -16.768339738842201 38 40 37
-113.172267991729029 -102.279958554462482 -16.102001796828063 35 37 34
-113.178053161885430 -101.722380510981736 -15.772396967398407 25 27 24
-113.183867495544220 -101.163171085042464 -15.442794978888372 25 27 24
-113.166424307333827 -100.619420137780381 -16.011031266597513 26 28 25
-113.154851979868695 -100.073570614670999 -16.354762786504295 27 29 26
-113.140417784610918 -99.532030797967593 -16.810677937100792 24 26 23
-113.137659337863084 -98.980855445251152 -16.817671093362037 29 31 28
-113.134938919132495 -98.429676800477736 -16.824646091036954 28 30 27
-113.132256677836111 -97.878494175120935 -16.831602865732378 28 30 27
-113.129612788947512 -97.327306875468494 -16.838541340882216 27 29 26
-113.127007452991023 -96.776114201867387 -16.845461427758266 28 30 27
-113.124440896035821 -96.224915447968755 -16.852363025480571 27 29 26
-113.116115464551953 -95.682877122403312 -17.083643125987948 30 32 29
-113.110731975999286 -95.137063475733157 -17.202695787437364 31 33 30
-113.111183508842927 -94.581530496894985 -17.097339270779230 32 34 31
-113.105881887109234 -94.036243515796016 -17.216347346189764 28 33 27
-113.100622854753283 -93.491490702833261 -17.335329548526971 28 33 27
-113.092513718436521 -92.953214644530362 -17.566467447260891 33 38 32
-113.087341973514683 -92.409799878621868 -17.685394118398335 31 36 30
-113.085104603654230 -91.860429759067088 -17.692119411090943 35 40 34
-113.074239982868690 -91.331324508305386 -18.035340009341127 4 7 3
-113.072089924827068 -90.782743874555734 -18.042015405784895 2 6 5
-113.067095026202622 -90.241451997865099 -18.160835622294655 34 40 40
-113.073691662972422 -89.670388083536295 -17.830981406861980 21 27 27
-113.080326090778485 -89.097676034324707 -17.501126077407434 3 8 10
-113.075460791181840 -88.555791689779639 -17.619890392755849 8 13 16
-113.070642525734598 -88.014433434570208 -17.738626791826533 7 15 17
-113.054341130167771 -87.508253358485533 -18.305930113997732 11 17 20
-113.058267608872427 -86.942226912730860 -18.088160324756757 12 17 20
-113.053594817536350 -86.402713587195137 -18.206808138723403 14 19 22
-113.040331386930063 -85.892160874268995 -18.661844233697934 12 16 19
-113.035760603392163 -85.354507694697631 -18.780424100066682 13 17 20
-113.036997223765113 -84.797327978616082 -18.674708950919239 12 17 20
-113.026771793325267 -84.280761964142769 -19.017494690040735 15 20 23
-113.016601599047561 -83.765802871889051 -19.360237463513869 18 23 26
-113.006487241930813 -83.252449736485389 -19.702936993760005 17 22 25
-113.016556768014027 -82.662917614913070 -19.260752577598197 12 17 20
-113.012300465677328 -82.128100098524556 -19.379152808332606 12 18 18
-113.016721455207005 -81.558827852479581 -19.161179857460922 12 18 18
-113.012574703026615 -81.024221033127759 -19.279525510965613 15 21 21
-113.019976079683403 -80.441323324592418 -18.949408121917969 13 19 17
-113.013069942936042 -79.919123013872550 -19.179805034035780 12 18 16
-113.014838825936565 -79.359741139778649 -19.073857920190477 10 16 14
-112.996567816453478 -78.890899963705920 -19.752578035773126 12 18 16
-112.995586397157481 -78.345550426840290 -19.758661100143343 11 17 15
-112.991795714625738 -77.813723811470069 -19.876807793112363 9 18 15
-113.008156005472017 -77.185561819482231 -19.210293763472066 8 17 14
-113.004489293292011 -76.652835971801522 -19.328390405699679 11 20 17
-113.003756724669543 -76.106232511646667 -19.334367328023035 15 24 21
-113.000221114584718 -75.574235434375737 -19.452393749857748 12 21 18
-113.013962929127928 -74.953194709326922 -18.897917972447914 11 20 17
-113.016297804785566 -74.390166161151328 -18.791737626703735 12 21 18
-113.030173017162525 -73.764668892890541 -18.237243905665565 13 22 19
-113.032646443289607 -73.199359522582043 -18.131020755499662 14 23 22
-113.046661740382135 -72.569397967070842 -17.576505971565041 16 24 26
-113.040677884077766 -72.050658281189186 -17.806426045930294 17 25 27
-113.037636823908812 -71.516393309883526 -17.924239221353048 16 24 26
-113.026070667792155 -71.033108229295252 -18.378182666591755 14 22 24
-113.026051344685982 -70.483528487501431 -18.383849011066985 14 22 24
-113.034712936010024 -69.881757256853746 -18.053323014286491 13 24 25
-113.052057537551349 -69.225338541074862 -17.386628954436617 14 26 26
-113.072353145283884 -68.547659241802464 -16.607883104285804 16 28 28
-113.084132158905263 -67.920676512812662 -16.165266373061087 13 25 25
-113.113205251138979 -67.180636975480638 -15.050386654907641 14 26 26
-113.165314818329946 -66.285147301757078 -13.039215413078637 20 32 32
-113.214655890335877 -65.398772276502925 -11.140133673121511 22 34 34
-113.264100168309909 -64.503040411172336 -9.241098874438364 30 40 41
-113.345210556802968 -63.382801191044251 -6.109778349885801 33 41 41
-113.371922680850801 -62.623993561199647 -5.107080185144724 37 41 42
-113.390133753204694 -61.920497469241191 -4.440456199710724 28 29 31
-113.422805361214628 -61.111744532976708 -3.213703380558030 14 18 17
-113.461335824903671 -60.255587502363447 -1.762917889246864 3 7 6
-113.465530537102055 -59.643319271329581 -1.656354652868146 2 6 5
-113.475580651885096 -58.988009409163780 -1.325715491254101 1 5 4
-113.491492574842212 -58.288015533840060 -0.771014245855980 1 5 4
-113.521894469821291 -57.476463526751886 0.343765053200116 2 5 4
-113.506436582107781 -57.011607216681156 -0.333568256343028 5 7 6
-113.514090072629330 -56.371594613597928 -0.114777054108771 6 8 7
-113.533373062783767 -55.640116445642889 0.552071699561566 6 8 7
-113.549913313149091 -54.928074006115509 1.106949512713982 6 8 7
-113.532049056856280 -54.490503493231380 0.317886986188086 6 8 7
-113.534453266486409 -53.892945117222872 0.312886183282387 5 10 6
-113.542748244130252 -53.247940562830841 0.531932886094523 9 14 10
-113.574234544654004 -52.410252659621392 1.646961931137810 18 22 19
-113.571283353763661 -51.857420217010002 1.418141739639765 88 93 89
-113.554041656613435 -51.427939721331505 0.629460317884877 191 196 192
-113.536919630668649 -51.002149408466309 -0.159125868670031 55 60 55
-113.525692977985145 -50.529992060288727 -0.723651238210692 89 94 88
-113.529038580993387 -49.933916467036326 -0.728186418723340 124 129 124
-113.480500916056755 -49.798047475073041 -2.748265167613368 125 130 125
-113.489893896842460 -49.154894292542870 -2.528674126761189 126 131 127
-113.597255746647534 -46.497697280503644 1.153678752849515 118 123 117
-115.004054905606125 -0.854590096786437 29.736733756662517 114 115 101
-114.434247575566729 -1.147926390086399 -10.442039230436592 79 81 67
-114.390404763036074 -1.587288018457871 -12.786527495043458 77 81 66
-114.408956572094141 -1.132519763801905 -13.114910186042920 76 83 67
-114.373575208956836 -0.838433629269056 -19.010384585994728 76 81 73
-114.283831590299215 -2.013985671195862 -22.810419165127087 72 78 69
-112.965886238212036 -150.196758110241461 -22.469894411281217 147 152 153
-112.899047990245720 -149.202904783798402 -24.729277529973558 135 139 140
-112.873005200426434 -148.533599680955803 -25.413779114532304 129 133 134
-112.847144850308112 -147.867717925602193 -26.098158182328035 125 129 130
-112.827229564547139 -147.248936983749417 -26.557490549537420 112 113 115
-112.798836747541912 -146.567773310404078 -27.354097330190598 98 102 101
-112.787872217369866 -146.018327483309236 -27.475857330678309 68 72 71
-112.774165256517080 -145.448530287082662 -27.709997672389989 42 46 45
-112.772057572699481 -144.962929333855982 -27.494286745819352 59 63 62
-112.767186945809812 -144.455876069429223 -27.390977306080202 61 65 64
-112.762421961722154 -143.948387343507335 -27.287621809610670 46 51 47
-112.757760809245667 -143.440460412084974 -27.184221151123552 44 49 45
-112.750351045104622 -142.912440719141102 -27.193201128843867 43 48 44
-112.748742868168563 -142.423281219833285 -26.977287869795759 41 46 42
-112.735853130175073 -141.856708322669903 -27.211004065562747 41 46 42
-112.731600664808340 -141.347822036489674 -27.107417767683700 39 44 40
-112.733114865610332 -140.875601676042493 -26.778977525842066 40 42 41
-112.740372653350036 -140.438405666118854 -26.225711278621162 42 44 43
-112.736378964107388 -139.926519378208070 -26.122032063656235 46 48 45
-112.732475582366973 -139.414174910404597 -26.018314362167558 39 41 38
-112.731482783199411 -138.918836089721708 -25.802170315363497 36 38 35
-112.727751837184385 -138.405295404824955 -25.698382434478305 29 30 24
-112.712845699652974 -137.823609252872473 -26.044077722116896 24 25 19
-112.712109408425860 -137.326875555202349 -25.827825320962916 22 23 18
-112.714257689199655 -136.845501078013740 -25.499175965358432 19 20 15
-112.722085133236959 -136.394766788434879 -24.945776552830949 14 15 12
-112.724362223162444 -135.909719360401880 -24.617103382898051 16 17 15
-112.723905875182382 -135.407549792747460 -24.400773011994715 16 17 13
-112.726316501209382 -134.919640855000949 -24.072065413805547 18 19 15
-112.723204168788286 -134.400141327181018 -23.968042927661145 18 19 15
-112.728536708644185 -133.924374361752513 -23.526953627570549 20 21 17
-112.736711766294647 -133.460954114772136 -22.973518500814492 21 23 19
-112.733797646318280 -132.938098758831842 -22.869435733740602 22 24 19
-112.742080134447406 -132.470437199490789 -22.315992870570540 15 17 12
-112.742072987456453 -131.959165560961225 -22.099541295641785 14 16 11
-112.753232062557160 -131.500359065160438 -21.433772248586735 17 19 14
-112.753337588930918 -130.985927489002819 -21.217299297931930 17 19 14
-112.759044376039299 -130.496118460392950 -20.776175501248986 17 19 14
-112.762031769589726 -129.991623549127894 -20.447362707211113 15 17 12
-112.756776390531272 -129.448688703832545 -20.455465563648403 14 16 11
-112.754351066739304 -128.917814528745936 -20.351231499889167 17 19 14
-112.754746827538753 -128.398182354103341 -20.134673234452691 18 20 15
-112.755197435315637 -127.877505806360560 -19.918099480667223 19 21 16
-112.752946888444299 -127.344587991927511 -19.813802840434619 16 21 15
-112.750754119045084 -126.811167756006725 -19.709483731334217 16 21 15
-112.751368122846159 -126.287894700133506 -19.492858536613340 16 21 15
-112.746537655733974 -125.742814650809805 -19.500780198294734 16 21 15
-112.736276081834902 -125.177559868601136 -19.733225521348203 16 21 15
-112.734311015552649 -124.642933443801752 -19.628809895765187 16 21 15
-112.729657932015797 -124.098236104624192 -19.636642758324399 18 21 14
-112.730537650018988 -123.572152627174262 -19.419919375921154 20 22 17
-112.728727469168277 -123.035995862202938 -19.315445406238780 21 23 18
-112.735168416560995 -122.525563020150926 -18.874182681064610 22 24 19
-112.730718712012390 -121.979090502366944 -18.881936520618126 23 25 22
-112.734509634973264 -121.457251161564699 -18.552917855790838 26 28 23
-112.724703107401595 -120.894162371428052 -18.785123190596551 26 28 23
-112.720406055144664 -120.347503396069527 -18.792805921118457 26 28 23
-112.718881822446704 -119.808255683031916 -18.688226971501109 26 28 23
-112.725565038368032 -119.289827515474826 -18.246930645795203 25 27 22
-112.729561160818093 -118.762406462778344 -17.917871269600255 24 26 21
-112.725442290461231 -118.213670526439330 -17.925490137714689 22 24 19
-112.724085008135603 -117.671253685219355 -17.820863941039875 20 22 17
-112.711918858092233 -117.104215994480256 -18.165097644086046 19 21 16
-112.707942279906348 -116.556088724573186 -18.172642174804253 19 21 16
-112.695883898206290 -115.991539506015812 -18.516798706750109 21 23 18
-112.694708654391718 -115.449475250800688 -18.412081794130756 23 27 23
-112.688162921723190 -114.897011813741258 -18.531758918814404 26 30 27
-112.705991535114634 -114.387090394759014 -17.641607569243632 41 45 42
-112.721131160884582 -113.868440947540662 -16.863691349033587 46 51 47
-112.720090341867731 -113.321275731527493 -16.758962634803765 41 45 41
-112.710994497359408 -112.762035370176790 -16.990788367457156 37 41 37
-112.704642440243788 -112.207473441183680 -17.110394439251877 37 39 38
-112.698334237118502 -111.653468544506296 -17.229973797634415 36 38 37
-112.702838190755998 -111.112151051680129 -16.900814519779260 34 36 34
-112.707371016147036 -110.569213534020477 -16.571658105505662 30 32 31
-112.719998676952557 -110.032122050567139 -15.905992318788265 23 25 24
-112.708461274214400 -109.471824718485976 -16.249855849381049 25 27 24
-112.688916404769188 -108.907333228428811 -16.930169951935568 25 27 24
-112.664062260368738 -108.342767252545883 -17.834742529991019 29 31 28
-112.660728271571557 -107.793769797569240 -17.841988605400388 33 35 32
-112.665472603719579 -107.248167621054009 -17.512758435691381 37 39 36
-112.675601698416145 -106.702655460428559 -16.959233517616951 38 40 37
-112.669688526133228 -106.150917220733390 -17.078600562759561 34 39 35
-112.663815127829153 -105.599728125268967 -17.197942927549661 29 34 30
-112.660655301352804 -105.049129204009290 -17.205122168998628 24 29 25
-112.660204208847873 -104.498304098249463 -17.100149004710630 26 31 27
-112.659786178403650 -103.946938561738861 -16.995165586571346 29 34 30
-112.654062237953056 -103.396579935299698 -17.114427902801737 33 36 33
-112.656381149068110 -102.843629504264527 -16.897292570396985 37 39 36
-112.664063061546614 -102.286957356370053 -16.455912136183144 35 37 34
-112.671769238731770 -101.728110838177912 -16.014542475702569 26 28 25
-112.679499889131677 -101.167089305181861 -15.573183495839970 25 27 24
-112.665957717604371 -100.620959808596297 -16.028719149222098 27 29 26
-112.652462923166965 -100.077004300088888 -16.484209759615396 26 28 25
-112.633696550144037 -99.540576641629855 -17.163862557033298 23 25 22
-112.628272972139243 -98.992663530081813 -17.282956007985916 26 28 25
-112.625545001679058 -98.442070052719345 -17.289928594960287 28 30 27
-112.625508746073820 -97.887979855595603 -17.184790583347024 28 30 27
-112.625506390726017 -97.333341416493866 -17.079641997296989 27 29 26
-112.620232665175735 -96.786227563830451 -17.198655532175763 27 29 26
-112.617649959979360 -96.235343073632507 -17.205561620287142 26 28 25
-112.601853315432137 -95.707354966645042 -17.772847952318273 30 32 29
-112.596702513518011 -95.162668891685072 -17.891777690615328 30 32 29
-112.599535170724025 -94.603145591578823 -17.674464241684888 30 32 29
-112.602401032238973 -94.042526045980637 -17.457146192132484 26 31 25
-112.602655170908193 -93.486477759843950 -17.351889412487651 24 29 23
-112.589724646483916 -92.959576505604588 -17.806934530034340 29 34 28
-112.584771756842713 -92.416203604735045 -17.925756070617837 27 32 26
-112.579860694544081 -91.873363076022187 -18.044552121169971 30 35 29
-112.577632712263338 -91.324298153986234 -18.051269781325232 1 6 2
-112.575445200213920 -90.775220177094170 -18.057968215040745 0 3 1
-112.581214800495459 -90.204228552797133 -17.728508906911628 0 3 1
-112.573831291549098 -89.669449948662745 -17.959263666946043 32 38 38
-112.582313878149634 -89.088680463712279 -17.517748238972445 4 10 10
-112.556567683995681 -88.611224967681991 -18.532709783563064 7 13 13
-112.557229146731842 -88.054769534076073 -18.427262332454234 8 16 18
-112.552665046452049 -87.515071755532787 -18.545860047659573 11 17 20
-112.563943921984304 -86.922307796744107 -17.992271464870157 13 18 21
-112.559467593909531 -86.382027099837998 -18.110833190425012 13 18 21
-112.544515077298897 -85.880173296597789 -18.677446681027419 13 17 20
-112.529617860399824 -85.381018091091747 -19.244005938415285 12 17 20
-112.527922652420045 -84.834460541189529 -19.250442911530229 12 17 20
-112.526275366556902 -84.287879273595166 -19.256857203006916 15 20 23
-112.522049157695349 -83.751837426807327 -19.375255639773798 17 22 25
-112.509993415218830 -83.248822741768137 -19.829636388178841 16 21 24
-112.503246271904317 -82.725741292108253 -20.059966308389050 14 19 22
-112.520181832503539 -82.101296032667989 -19.282279928555113 13 19 19
-112.534534950767579 -81.484664500326332 -18.616607434584580 14 20 20
-112.530564833449233 -80.948210264836320 -18.734887602959077 16 22 20
-112.524026807608649 -80.424465716803923 -18.965124307691269 12 18 16
-112.514923611156078 -79.914246223643445 -19.307307845987850 10 16 14
-112.513746658408152 -79.367401994594431 -19.313499838508761 10 16 14
-112.504761818186736 -78.859563110314440 -19.655602250786842 10 16 14
-112.506322732676438 -78.300178066676892 -19.549754660989976 11 17 15
-112.502700503508180 -77.767326714461603 -19.667831314578450 10 18 15
-112.504379739059630 -77.207320134271583 -19.561933518179131 9 18 15
-112.500879991666096 -76.674933511625838 -19.679946793211542 10 19 16
-112.507920780223486 -76.085549919832928 -19.350068670729286 13 22 19
-112.507166170199028 -75.538430456821402 -19.356061449060405 14 23 20
-112.516950846684708 -74.931587601484111 -18.914191492048502 12 21 18
-112.518944380452027 -74.368094920723522 -18.808179220644433 11 20 17
-112.526240913618821 -73.773080384946212 -18.478236712952878 13 22 19
-112.523133833499600 -73.239328436235226 -18.596076191294230 12 21 18
-112.525332545775740 -72.674051182182978 -18.489984132704279 13 21 23
-112.519750360640117 -72.157020713641330 -18.719694455126472 15 23 25
-112.519476171853157 -71.607916621831393 -18.725477830365520 15 23 25
-112.519276264369822 -71.058755596479074 -18.731226255729098 14 22 24
-112.511300807271923 -70.560833799734297 -19.072743701016890 16 24 26
-112.516487894845795 -69.977627294360445 -18.854547683798046 13 23 24
-112.524370581872319 -69.375623255666028 -18.524396708573903 14 24 25
-112.537567882540387 -68.736084339691203 -17.970371835907343 14 24 25
-112.545613353230323 -68.130131710061846 -17.640183630366693 13 23 24
-112.558977768367427 -67.485548628820183 -17.086130732838058 15 25 26
-112.577664147818666 -66.800696104172360 -16.308228569593382 16 27 27
-112.596440537929851 -66.111951028409692 -15.530323413541595 16 28 28
-112.617927506435038 -65.400029380595797 -14.640501209255746 20 31 31
-112.639510236222264 -64.683663360770694 -13.750678941254591 23 31 33
-112.703090573650883 -63.645620752590553 -11.070334181706329 24 30 30
-112.758927837072306 -62.654691917072903 -8.725785371253608 24 28 29
