ply
format ascii 1.0
element vertex 686
property double x
property double y
property double z
property uchar red
property uchar green
property uchar blue
end_header
-3.103169445678631 -0.977441760765370 -40.867269987093806 137 136 118
-5.405230938909327 -0.848918915982263 -45.421097740688509 143 141 126
-5.719725960742196 -0.564959734352735 -46.049579529191021 144 142 127
-6.261261015630922 -0.519329477777786 -47.121287329358353 144 141 126
-7.029858532120571 -0.716110273737730 -48.636168392062615 143 140 125
-7.480624733462690 -0.589290727909121 -49.530417652936364 143 137 123
-8.203873691571673 -0.754291573405775 -50.956461552602576 142 138 124
-8.881743598475069 -0.879643693456492 -52.293763874147515 143 141 126
-9.377987141722258 -0.819543524061590 -53.276429039399034 142 140 125
-9.647170140975888 -0.522107758389146 -53.815867780516044 139 137 122
-10.279694967233070 -0.618591980831979 -55.064301300063761 139 137 122
-10.912247522662440 -0.722375459449280 -56.312646419159961 138 136 121
-11.590248324125511 -0.882876857751804 -57.649524312017689 138 135 120
-12.086592001729358 -0.852437535221910 -58.631836259339138 140 137 121
-12.355836156549401 -0.577795128230672 -59.171011120351466 138 136 120
100.481961329067104 -0.551472277840934 161.001524792139037 129 131 117
96.662679921641086 -1.259733469426698 153.523800080975604 130 130 117
95.120028067863515 -0.842280519405232 150.488300299833782 131 131 118
88.897627640019536 -0.550348086260812 138.274403094617213 136 136 124
13.763164728214718 -0.517321833963063 -9.142463002030127 146 143 126
9.721091256057818 -0.556819226409190 -17.074783099438520 142 139 122
8.766581281667428 -0.724362241610050 -18.944460778384638 140 137 120
7.857647349531319 -0.861854002751787 -20.725392327457598 140 137 120
6.720555466267726 -1.217671135138310 -22.949220986650090 139 136 118
6.267772828132777 -0.959816016993307 -23.843854406046432 139 136 119
5.678097650669145 -0.833425329180805 -25.004222329194221 143 140 125
3.091006103512299 -0.612222550160432 -30.087799992636263 142 139 124
0.184025935837028 -0.821029266776857 -35.789929927195175 142 141 121
-0.497160042322406 -0.849858117304682 -37.126639414120120 144 143 123
-1.360934976667693 -1.065728060836743 -38.817509202018499 145 144 124
-2.224750508601986 -1.291671660423451 -40.508255874967091 143 142 124
-2.769106337262144 -1.210394803402630 -41.578981154996683 139 138 120
-2.857038632044961 -0.679389158679785 -41.764098324275722 139 138 120
-4.082764000796004 -0.681120219555191 -44.170887583473700 144 143 125
-4.901083263128626 -0.901453109366843 -45.772598384785454 143 142 124
-5.399888384374137 -0.804483111498935 -46.754417619569296 143 142 124
-6.397550054759535 -0.627621179173024 -48.717855693122544 140 139 121
-7.623561883127280 -0.712388952894470 -51.123653172422479 141 140 123
-8.350749564963053 -0.885463657806053 -52.547729691867659 140 139 121
-9.077969680228449 -1.066941140962462 -53.971704201253630 141 140 122
-9.120307748971825 -0.527850992509940 -54.067857824923692 138 137 119
96.849883559567942 -1.736322426555949 151.221970573415803 130 131 117
95.848140420591065 -1.043067737278600 149.255169570385817 131 132 118
91.921490080322300 -0.699704607975539 141.596267121398000 133 133 121
89.545921925336629 -0.781467640159950 136.968910396076808 135 135 123
85.933947561486136 -1.553412227825434 129.946960655646023 134 134 122
84.611240484666808 -1.129276423073923 127.360465681736429 138 138 126
8.246847322390835 -1.075322899825916 -21.463681342414958 139 136 119
7.241206668077993 -1.307820354300583 -23.419088555594215 140 137 120
7.198779498224880 -0.674266349721098 -23.516171917524446 143 140 123
4.460177888890968 -0.545138213712836 -28.858896570760578 145 142 127
0.806896007629874 -0.783332747774555 -35.977437978807728 143 142 124
0.305566848098252 -0.633794232441366 -36.958590836485570 143 142 124
-0.471088927483891 -0.758676129610648 -38.470356947145490 144 143 125
-1.339551171944890 -0.982650493869480 -40.158900919077411 143 142 124
-2.345716737150056 -1.352668857637849 -42.112641444881064 140 139 121
-2.801256592190455 -1.187228782569862 -43.005004546697023 139 138 120
-2.935572654182351 -0.705880676299778 -43.278279615664843 142 141 123
-3.712375122733377 -0.871854863551623 -44.789552565326460 143 142 124
-4.167953662492607 -0.721910079776623 -45.681737659688110 143 142 124
-4.669440400388012 -0.623804460129645 -46.662285707783894 142 141 123
-5.764257884495919 -0.539129464324684 -48.800013616467197 142 141 123
-7.088657670717538 -0.718250669468244 -51.379489176547764 140 139 121
-7.957460813469027 -1.035411352905080 -53.066910850309881 137 136 116
-8.642685992512710 -1.169326521310018 -54.400606291116247 142 141 121
-8.731159480868527 -0.679358219739518 -54.585042137256551 139 138 118
-14.115544291427966 -0.850046834971397 -65.088762336964152 136 134 119
103.966337813685541 -1.205852212155095 162.334536779589513 127 129 115
101.532470351127458 -1.173945745144706 157.623041300999432 129 131 117
99.282583437907903 -1.078406926325630 153.266310698156758 131 132 118
96.802427792186052 -1.126787106931915 148.466926873605530 133 134 120
94.966566579978476 -0.872939677651895 144.908228208789495 136 134 121
92.578224706278476 -0.928585968052130 140.286713553973584 133 133 121
91.110414730384917 -0.527892002274692 137.437299953473229 135 135 123
86.788405355349624 -1.664233828037373 129.095896178618943 134 134 122
84.445689859620217 -1.786224020129182 124.564095817004841 136 136 124
67.642592060188150 -0.577065033744675 92.015841846284616 139 137 124
10.151822297696228 -0.615919505150688 -19.275694933045884 140 137 120
9.279160429252229 -0.711201730369918 -20.963554512095982 139 136 119
8.590914678929749 -0.650502496125816 -22.297808185768588 140 137 120
5.791551228601335 -0.529814782196900 -27.722236585962975 147 144 129
5.057053181083816 -0.551991939907152 -29.144369115781643 145 142 127
2.349401585681235 -0.505562183600091 -34.390190008707918 141 140 122
1.660893484131321 -0.524467493093117 -35.723498764893975 142 141 123
-0.358655647969414 -0.583566720631187 -39.634535980994940 143 142 124
-1.554731145811104 -1.132349115863458 -41.939019677684797 142 141 123
-2.243384514623258 -1.193473428697842 -43.271824357100087 137 136 118
-2.793655937638334 -1.124890263847296 -44.339588974516971 140 139 121
-3.067119407442092 -0.785734110100688 -44.877409402108015 143 142 124
-3.478999530978257 -0.588789858952578 -45.680124573212822 145 144 126
-5.406843288565682 -0.733998726376637 -49.412429186519205 144 143 125
-5.772633982025937 -0.512047539083593 -50.126591907026693 143 142 124
-6.553749553137465 -0.724095432867803 -51.635327223400651 139 138 120
-7.196453288252428 -0.800956449699308 -52.879093179354385 136 135 115
-7.885330333784168 -0.933446674103448 -54.211056247414859 141 140 120
-8.112721028194571 -0.587864794986942 -54.660124991128527 141 140 120
-13.205952950897043 -0.953844359880206 -64.525109312104405 134 132 117
-13.941241738043900 -1.214582579966540 -65.944407925936986 134 132 117
98.403061287726473 -0.882696371136515 148.918124481412434 131 132 118
92.032382373612663 -0.613754131371584 136.664540960460442 135 135 123
86.946656604811778 -2.142697550521698 126.918795577282168 134 134 122
85.192939500223673 -1.947594604726928 123.543121909267683 136 136 124
84.966461250053399 -0.946741012503389 123.086871614433875 137 137 125
75.594504092518648 -0.685131792682295 105.063337280240887 136 136 124
23.653782565154842 -0.634728354960969 5.194836057600440 143 142 123
16.406566711617373 -0.670585936019851 -8.742596551863443 147 144 129
10.915074963974632 -0.500269329186769 -19.309446182979769 142 139 124
6.206901933390782 -0.707166946247185 -28.362548904194455 146 143 128
5.653927446761315 -0.558856613687261 -29.429841057032263 145 142 127
3.531210742260058 -0.588638254666190 -33.513542810612961 142 141 123
2.699931288907493 -0.731997897803030 -35.109845825260635 141 140 122
2.146853241653147 -0.619501399326603 -36.176719785264936 142 141 123
-0.714914552489816 -0.866734930133919 -41.678365848003295 142 141 123
-1.731890200480663 -1.245304594761105 -43.626846844420612 132 131 113
-2.285099490307161 -1.176941415837393 -44.693203731999432 141 140 122
-2.977472854995838 -1.253236526209804 -46.024072617498263 143 142 124
-3.206029452287439 -0.873341540712360 -46.472936799311441 144 143 125
-3.712895086311420 -0.775955410210016 -47.450904195873363 142 141 123
-4.358935227817270 -0.825119269176259 -48.693359127205753 143 142 124
-4.865831234053843 -0.739933928936932 -49.671186404942006 142 141 123
-5.326349864049178 -0.612935754432266 -50.560771976091303 143 142 124
-6.711349845617349 -0.854769373414856 -53.221469964978951 138 137 117
-7.357492873815218 -0.939155652917912 -54.463513113601721 137 136 116
-8.003658192376477 -1.030848875036401 -55.705470384559987 139 138 118
-8.371457483885948 -0.836665226260420 -56.418386373422464 140 139 119
-9.753292268603417 -0.576299649707505 -59.085767970236986 139 136 119
-12.152786232582358 -0.909869697872328 -63.699086694434129 137 134 118
-13.170408629821708 -1.469616917640028 -65.645393336636943 135 133 118
-13.027761141037359 -0.757707902231500 -65.388386788683249 135 133 118
88.770473820677424 -1.739078152693668 127.926734059159514 136 136 124
87.146921362873897 -1.464935214937927 124.820553126708148 137 137 125
85.895516789417201 -1.009603221505808 122.421343931393608 136 136 124
78.655655456906075 -0.590448605893021 108.586568160081555 136 136 124
30.240583648747901 -0.732682527119054 16.123819673276188 147 144 127
29.499027670239443 -0.505439031091120 14.702496221363930 146 143 126
25.228282500013975 -0.708985388785615 6.548683864139576 149 144 125
24.346809636108389 -0.643098965025778 4.863380445248680 145 140 121
23.511884731588268 -0.550220015999073 3.266389679438788 144 139 120
22.537175833346836 -0.579404367885306 1.404950901199982 141 138 123
16.365406824479109 -0.548057520331627 -10.387050323283574 145 144 126
15.576776914348670 -0.504992904252201 -11.894816806849406 146 145 127
13.859639575882241 -0.566578098807456 -15.174489004693498 146 145 127
13.117517231825502 -0.511083972063599 -16.593773606731276 145 142 125
6.573681004445717 -0.927111996372314 -29.090045174284228 145 142 127
5.971137603314489 -0.822977782427478 -30.244027886271766 145 142 127
5.415188372549920 -0.682545731774362 -31.309815836598574 146 143 128
4.023557220541292 -0.682701833112651 -33.969829204374747 142 140 125
3.187858391261784 -0.826534138286152 -35.564013139379512 141 139 124
2.678450582058062 -0.670297150406082 -36.541370149488472 138 136 121
-0.058648298518705 -0.782415909287975 -41.771471542609504 141 140 122
-0.941135106638527 -1.023596335520264 -43.453129100719707 136 135 117
-1.730404600559524 -1.183120609734214 -44.958504260372820 137 136 118
-2.146681218285877 -0.982560319806026 -45.759153385430665 143 142 124
-2.702851347647950 -0.925828707880074 -46.823974087962284 144 143 125
-3.072512821702063 -0.688633262978379 -47.536441957103193 141 140 122
-4.001764624084032 -1.018888756893575 -49.305669292756733 142 141 123
-4.604618417029954 -1.029186472534443 -50.458325609027213 144 143 125
-5.254125275831825 -1.093754984265528 -51.698963506858576 142 141 123
-5.437283477538614 -0.687965241415496 -52.058953788332133 139 138 120
-6.226731926890963 -0.908557787004465 -53.563614729924893 136 135 115
-6.503169794969097 -0.606646448404353 -54.099628835984305 138 137 117
-7.385944876496097 -0.939302862105357 -55.780206876792079 137 136 116
-7.802324324186088 -0.793389067313417 -56.580244304521329 137 136 116
-8.451933113252124 -0.897711417937869 -57.820424233029343 136 135 115
-9.054916577599215 -0.959922155306878 -58.972484148134470 142 139 122
-9.284733265104975 -0.631418753330339 -59.420216507722245 140 137 120
-9.887739695440985 -0.704924168547397 -60.572149174183892 139 136 119
-11.000500732432542 -0.771134868461643 -62.699739806408530 133 130 113
-11.883486589699345 -1.168980364133310 -64.379545988855938 136 134 117
-12.299946922188866 -1.066298267737187 -65.179099715985046 134 132 117
-12.296489192469437 -0.506163143803539 -65.186519634249066 135 133 118
98.819440452452966 -0.605569504153352 144.503439883199150 133 134 120
94.428085343610562 -1.663395955491458 136.194402671509295 133 133 121
90.462304598356610 -1.409153547530837 128.665996323414191 137 137 125
89.952640140667071 -0.536642371413633 127.681389123016373 138 138 126
32.319141925216428 -0.522018279265899 18.342183708277105 149 143 127
30.871367807433899 -0.812173283767785 15.601155162357969 147 144 127
30.125839155152121 -0.585407549212678 14.181737141800511 147 144 127
24.899346274204973 -0.762286177793497 4.267699010614479 145 142 125
24.153621326670304 -0.595758215058837 2.848994954679398 142 139 122
22.986407443430366 -0.774993877001274 0.637758915243808 139 136 121
14.262661868869074 -0.774953741524704 -15.919442997646598 141 140 122
13.469745044512209 -0.761182573587703 -17.424857103963348 144 141 124
12.770490267453283 -0.675055051015390 -18.754105843126837 145 142 125
12.164905559545261 -0.514943751595967 -19.907209804638370 146 143 126
11.231372298504397 -0.650445699796248 -21.676393601226977 142 139 122
10.625744942879521 -0.505987939373095 -22.829316030476406 139 136 119
7.312840913218039 -0.806235639308277 -29.112324327317737 143 141 126
6.660249841070126 -0.744103346003107 -30.352790943091350 146 144 129
4.796081888340296 -0.514651892515645 -33.897696640234557 142 141 122
3.815388856073724 -0.789195648647019 -35.753747021661781 140 139 121
3.068970173160793 -0.853771675514226 -37.169740327508180 141 140 122
1.298235258659162 -0.647775679063318 -40.537384861234898 140 139 119
0.270520986730034 -1.015299486196846 -42.480842237329199 142 141 122
-0.663496036370560 -1.303350414139784 -44.248224340524075 138 137 118
-1.222578629844548 -1.235150564214589 -45.311769778542526 135 134 115
-1.547309900503421 -0.942556217982818 -45.935443466780811 143 142 123
-2.012662630501467 -0.792693469498009 -46.822951777604857 142 141 123
-2.478022473322952 -0.647984570039458 -47.710403634521498 142 141 123
-3.599673785449014 -1.165677042006156 -49.829093860910405 146 145 127
-4.299464100555767 -1.271172937990427 -51.156113924396863 145 144 126
-5.093038008427186 -1.479520480253276 -52.658927304745674 145 144 126
-5.089645093830384 -0.884819758777265 -52.666672016736982 145 144 126
-5.742599205348498 -0.962321360492531 -53.905527633892774 140 139 119
-5.926720394998242 -0.564020578328487 -54.264980137600816 139 138 118
-7.885711382841066 -0.854080901394034 -57.980892993916711 136 135 115
-8.491856174885925 -0.915958957440335 -59.131443965143376 143 138 122
-8.675977730223224 -0.537463308249732 -59.490692429724760 142 136 120
120.782086320002605 -0.607027655202561 183.328804180905138 124 126 113
117.638099976756280 -0.749879488202135 177.406801626838785 120 122 109
102.061865462264990 -0.736711207807276 148.053133486385292 135 133 121
93.942878153262612 -1.307848181136766 132.764521093991704 134 134 122
92.160986767066177 -1.079409869946417 129.401982768062908 139 141 128
23.950996047493305 -0.558511656200635 0.839227982665903 145 142 127
18.557647423742253 -0.537714460802656 -9.329598364417819 147 145 130
13.492784794346449 -0.601073380064806 -18.878692829637430 145 142 125
12.365993488596459 -0.891076197936402 -20.997267824686105 145 142 125
11.521712986343374 -0.946445926803865 -22.588256906493484 143 140 123
10.959967268232077 -0.762309283326856 -23.651721710471520 141 138 121
10.398209059453961 -0.584503841593383 -24.715115368717306 144 141 124
8.241867113920136 -0.514996592997075 -28.783752952664571 143 141 126
4.490515966772534 -0.707913395135632 -35.855844426505200 140 139 121
3.645960425720517 -0.860328337874136 -37.445702995556218 143 142 124
3.178249456763695 -0.666313262848482 -38.332537615023114 141 139 124
2.474979132212852 -0.701324550347011 -39.658618387403607 138 137 119
1.630351946380159 -0.879353110865976 -41.248179028002198 140 139 119
0.597241085093444 -1.248151646899021 -43.189041572820855 142 141 121
-0.153220777713742 -1.355152525063107 -44.602663934957889 136 135 115
-0.526774081447215 -1.103749116170566 -45.313416215831126 131 130 110
-0.570501030311647 -0.533534194673189 -45.409225786936616 141 140 120
-2.822068927270763 -0.936884161853398 -49.649158015105172 145 144 126
-3.714011952612495 -1.229818064990608 -51.325759026773142 145 144 126
-4.558862822030690 -1.485311697206584 -52.914415271013098 145 144 126
-4.791090065166699 -1.129397095112062 -53.361276586303063 145 144 126
-5.211822516368855 -0.968024325121065 -54.159390679070583 144 141 124
-7.083316149791813 -0.564782178697353 -57.702580710587881 136 133 116
95.610567309141587 -1.006419408890516 133.404767064367832 134 134 122
93.866517062107192 -0.749847507714195 130.134694958918175 136 136 124
91.933318904487791 -0.612578112618185 126.512903066493209 139 141 128
83.726905585878271 -0.545963979220498 111.148691399983733 135 135 123
40.572799429601034 -0.555131738158493 30.357682531365100 145 142 127
39.441152936820117 -0.520215971915147 28.238085690938476 147 144 129
20.014022633002526 -0.607572906560869 -8.141003140767396 147 144 129
18.834245555153885 -0.858236967733277 -10.345493742569346 147 145 130
18.080380686252795 -0.768162360468140 -11.759516715229324 147 145 130
17.468483254311636 -0.567765768859435 -12.910015367951729 146 144 129
16.572584469423845 -0.613615793431246 -14.587267316298465 145 143 128
14.922698842329766 -0.614461279035662 -17.678019956839819 147 144 127
13.790039285974629 -0.893429269564215 -19.793901187934949 144 141 124
12.846682316259773 -1.021350414994346 -21.558463388977941 143 140 123
12.045305983592769 -1.036216661884082 -23.059535716218846 143 140 123
11.480600333299620 -0.852564823217229 -24.121579508447439 144 141 124
10.963223937793614 -0.633461498072841 -25.095771488974236 145 142 127
8.653533842207082 -0.692352243343400 -29.422302833278650 145 143 128
8.136102957480190 -0.500685810534581 -30.396186324633049 146 144 129
4.459715559122515 -0.645778468773495 -37.282914707037492 142 141 123
3.705434149621865 -0.717312602936363 -38.695074888141647 139 137 122
2.903774984233735 -0.842058541118838 -40.194880862316978 137 135 120
2.149448066670686 -0.930754826379026 -41.606842613877291 142 141 121
1.158305546035933 -1.254431460130381 -43.457388246495412 140 139 119
0.640727688058817 -1.133463287171887 -44.430473693646263 136 135 115
0.123142331696272 -1.018208505094603 -45.403496742792726 135 134 114
-0.722591951386136 -0.619233177305748 -46.998467142746051 143 140 121
-1.334925746853287 -0.613336038920768 -48.146754960073167 145 142 123
-2.326214757642191 -0.989751879847611 -49.996687641150373 146 143 124
-2.985956991655684 -1.046811280091009 -51.232506265621140 145 142 123
-3.693086720867527 -1.158678746040436 -52.555949592786789 145 142 123
-4.258119106253773 -1.135130906266759 -53.616189045176810 145 142 123
-4.491544037315762 -0.781575810748208 -54.062453103081850 142 139 122
-4.867083899317919 -0.575331320458500 -54.771790177853603 140 137 120
106.909491101044310 -0.676286882105682 151.941521574670816 134 132 120
103.873978368636088 -0.952029232747851 146.301570180613965 136 134 122
100.743306475590018 -1.310044626856047 140.486271710753783 138 136 124
99.797895063675213 -0.602478601556647 138.714092258656194 137 135 123
92.970365119057334 -0.625915581663298 126.016921001409116 138 140 127
90.599283142775477 -0.736201849824870 121.609429477411055 139 141 128
88.893291820955938 -0.519538873183839 118.432419800122943 135 137 124
85.524183401029802 -1.217592257879280 112.180394304685422 133 135 122
71.682451569492926 -0.536118804474840 86.424422222029534 140 138 125
34.513805376950032 -0.549257949312353 17.292544627252283 147 141 125
30.295109683319524 -0.545108743934518 9.444270718828989 145 143 128
29.204672767434346 -0.601307523351823 7.416756130781039 146 144 129
23.469887828785261 -0.552254834137041 -3.254172411116258 144 141 126
20.673426440160412 -0.615563676993602 -8.456377408850358 148 145 131
19.630209807251561 -0.748904900950470 -10.394829067561460 148 146 133
18.729678586245470 -0.775990229503957 -12.070058028790555 146 144 131
18.114569386629483 -0.575534138484657 -13.219020795323644 145 143 130
13.801710750490017 -0.741945792429280 -21.242209576047742 144 141 124
12.853411139210507 -0.878562179274536 -23.004317729820144 143 140 123
12.047833049974415 -0.901315997503993 -24.503298760386684 144 141 124
11.337402909880481 -0.849547276765915 -25.826847571772504 145 142 126
10.864889415258162 -0.595475935517432 -26.712002868740569 144 142 129
10.059254158777165 -0.642890162283646 -28.210702708719737 146 144 129
9.206006223493205 -0.741919354119178 -29.796952392517994 146 144 129
8.352732420763985 -0.850508994617657 -31.383091290918230 147 145 130
7.832579164698885 -0.666717245336534 -32.355591351082467 147 146 128
4.799942343337051 -0.873446612267153 -37.997628956436643 140 139 121
4.041731812293236 -0.946267577447285 -39.407896213264308 137 135 120
3.140697995124313 -1.161821853185375 -41.080944728659858 137 136 119
2.382441704214727 -1.252349256016216 -42.491007832866927 140 139 119
1.909787388600066 -1.079484995072398 -43.375259856282440 140 139 119
1.579945749530864 -0.775063188080865 -43.996610507785334 139 138 118
1.012076101600343 -0.703424413049452 -45.055987647654945 139 138 118
-0.361739029741898 -0.810864829273451 -47.612560922381078 142 139 120
-1.120088430365797 -0.945992517699704 -49.022120390075088 144 141 122
-1.640394782862600 -0.854845500158844 -49.993593570666633 145 142 123
-2.113092615337379 -0.722176015022243 -50.877411030745890 143 140 121
-2.823873123562407 -0.832065345531787 -52.199128199687266 143 140 121
-3.487054522577594 -0.902060312000682 -53.433168387128347 143 140 121
-4.007393842921175 -0.835278300943391 -54.404374994763288 145 142 125
-4.670601336675290 -0.919077257273880 -55.638260607168519 139 136 119
107.303092611274977 -1.037609127398386 150.094059958905945 134 132 120
105.541047315291408 -0.685362921788400 146.831611799513524 137 135 123
101.104697955537176 -1.679090182012125 138.654298762978158 137 135 123
100.822831682432096 -0.640309962570223 138.113296625714923 137 135 123
98.439682116028123 -0.670455877006120 133.710753270547144 138 136 124
96.390723199540162 -0.556501557253475 129.922863152312289 134 134 122
89.670161873446730 -0.659184304811586 117.507910845876239 134 136 123
87.811864072318485 -0.540149432567461 114.072192346587798 133 135 122
85.714670868812661 -0.571613003224066 110.198015320406057 136 136 124
35.245326150728999 -0.558436340777345 16.942682074313979 147 144 127
31.004626483950688 -0.553943187545778 9.104931250793243 148 145 130
29.812897156546882 -0.682799551043612 6.904904736386470 146 143 128
29.003580109031915 -0.531965759164367 5.405925586170696 142 140 125
27.763968482229103 -0.722479087429063 3.118581580861274 143 141 126
23.190922656346515 -0.583757550719884 -5.337569853956211 143 140 124
21.332820876229974 -0.623584548370336 -8.771746883992648 149 147 132
20.092912304895293 -0.913130740855554 -11.057929437034545 147 145 132
19.283330204171136 -0.862531799809937 -12.555750019030341 146 144 131
18.856288262769709 -0.504101574396771 -13.352874084695486 144 142 129
17.998851024472174 -0.509371301515746 -14.938084733562789 145 143 129
16.140431414246123 -0.669996667217961 -18.370866276478040 147 144 127
15.139441302246354 -0.826964923357666 -20.218416868219720 144 141 124
14.425379262587725 -0.749356652271722 -21.540494170775276 143 140 123
13.663472779663010 -0.720948149988459 -22.950035302653760 143 140 123
13.045035279100262 -0.576521113637035 -24.096829086216104 144 141 124
12.235264122712152 -0.606073033984984 -25.593734191549544 145 142 126
11.521135353245867 -0.560561557627333 -26.915449182361726 145 143 130
10.567823554877094 -0.734586004243804 -28.674774463059549 146 144 129
9.566647214721172 -0.961847510937082 -30.521512400149419 145 143 128
8.613274269398445 -1.157435006310229 -32.280586469060864 145 143 128
8.329595826766081 -0.759827274965955 -32.814121760116450 146 145 127
5.568306487784270 -0.703142916299154 -37.923529211222274 141 140 122
4.566957502607764 -0.997243858427678 -39.769496543639889 138 136 121
3.565574816222721 -1.302507684739376 -41.615332848340216 138 136 119
3.186175003611424 -1.033531439760052 -42.323469065436143 139 138 118
2.902477052297016 -0.678042016713938 -42.856561478699291 139 138 118
2.427387630227173 -0.507848936456464 -43.739621059728790 138 137 117
1.665185250215941 -0.617902723967498 -45.147595373548967 139 138 118
0.950816720951906 -0.690265551440044 -46.467982324671453 139 138 118
0.427851261533462 -0.584944366814525 -47.438329299448640 142 139 120
-0.238688052309556 -0.625310620369701 -48.671068055172185 143 140 121
-0.809525049080520 -0.579132457631247 -49.728763546655102 145 142 123
-1.380369579882029 -0.539187353757635 -50.786391273877513 143 140 121
-2.809257642491787 -0.764505206940076 -53.426263360304830 143 140 121
-3.523727420944283 -0.888954298496749 -54.746065724080438 143 140 123
-4.190348612514015 -0.972958852996087 -55.978316118826598 144 141 124
-4.330440690363602 -0.529952884674899 -56.248433286719290 140 137 120
-5.615847635500018 -0.679340558508347 -58.625151180652352 139 136 119
-6.426124225722859 -0.937453673637993 -60.119461792974619 138 135 118
-6.566186067658037 -0.509127684068739 -60.389442317229197 137 134 117
-7.232860729701713 -0.631442808508056 -61.621272781941940 140 137 120
106.589980071446362 -0.723053539754962 146.219335047953933 135 133 121
104.002654288794091 -0.793631238796029 141.471449539770020 135 133 121
98.587640780556896 -1.144299703802147 131.538529051655331 138 136 124
96.960024822240754 -0.815010432651845 128.544583319928421 138 136 124
85.700306805713907 -1.127138880562120 107.882568762554371 138 138 126
30.708430476947498 -0.546100438543233 6.918513092583311 146 143 128
29.318285911694744 -0.833795194631675 4.371607211539583 143 141 126
28.168357912747638 -0.952548341579750 2.262337972319187 144 142 127
23.619630031885251 -0.783268962046082 -6.094902746347771 141 138 121
23.046230489893560 -0.510256951531943 -7.153707239727453 145 142 125
21.799958586229806 -0.786834764025464 -9.436979086444808 146 143 127
20.793958598085879 -0.882010455658778 -11.282769032519923 146 144 129
19.980184881382115 -0.831067462103213 -12.778587901303979 144 142 127
19.454783353052548 -0.551537607529540 -13.749562686418926 144 143 125
18.496776152767410 -0.636761732090989 -15.507555769258801 145 144 126
17.779080909866011 -0.531917898561459 -16.828175309162845 146 145 127
16.821024186149330 -0.637159820042057 -18.585938646923069 147 144 125
15.622586742926202 -0.956538275771598 -20.780794882109944 144 141 123
14.760611219621623 -1.002559067271334 -22.363414959808608 141 138 121
14.283198018801130 -0.728305117312307 -23.246434003856621 140 137 120
13.661559541181219 -0.583814540662515 -24.391697105019063 143 140 125
11.219645014698145 -0.699334815412252 -28.876107588455824 148 145 130
10.597952380918713 -0.585547608476842 -30.021028736288656 146 143 128
9.832006761642205 -0.607183233837156 -31.428122429835582 145 142 127
6.816135163194417 -0.734460255452168 -36.968139418348727 142 141 123
5.905838140383594 -0.930781622117311 -38.636954421911582 142 141 123
5.332142283380705 -0.825789447559838 -39.693887646628184 139 138 121
4.277529090261837 -1.174635930949199 -41.624668926103112 138 136 120
3.848083740630486 -0.949821116198176 -42.419267838964686 138 137 117
3.466734937749976 -0.684341507189090 -43.126435673165787 138 137 117
0.931296806454156 -0.637368511644628 -47.789495179333898 143 138 118
0.117031397405583 -0.817920526762718 -49.282695929768181 144 139 119
-0.360533621241473 -0.678902353851322 -50.164250294898579 146 141 121
-0.934308015144055 -0.639438864635230 -51.220471428154525 145 140 120
-2.081875358068459 -0.579193809027416 -53.332712515544415 145 140 121
-2.607558827366503 -0.510378599465484 -54.301383429371356 143 140 123
-3.518134339799076 -0.833618818626746 -55.968758764946529 144 141 124
-4.473313650087405 -0.631002229323189 -57.731067589734238 139 136 119
-4.999019011589894 -0.586479285994259 -58.699477977905957 141 138 121
-5.717198587975545 -0.745181001223163 -60.017153007603980 141 138 121
-6.146677893462368 -0.613720000037229 -60.810774738400738 141 138 121
-6.913001970637097 -0.836397239626661 -62.215617956656530 141 138 121
-7.390608839779702 -0.766162460330066 -63.096444278628951 139 136 119
-9.734204272307892 -0.997893612890416 -67.404976292818503 132 130 115
98.291957033938374 -1.835990764197062 128.583054288305618 138 136 124
98.248089612305080 -0.706353292222721 128.481553501549485 140 138 126
87.557485990076330 -0.675111930331177 108.984907594723808 135 135 123
85.679671373025940 -0.600575077298823 105.558983913740093 136 136 124
31.364429151659493 -0.591302277570133 6.494291975492473 148 143 128
30.063727969103084 -0.805882989949584 4.125561857012741 143 140 125
28.956177573066128 -0.887364513838481 2.106494547199048 143 141 126
24.528918421915662 -0.600214189560788 -5.977493045488160 141 138 121
23.227968916169559 -0.903694782709242 -8.345189275872912 144 141 124
22.168510384744948 -1.027683815267930 -10.275967132810820 147 144 128
21.157328493453264 -1.124393238233922 -12.119262286715099 146 144 129
20.435973849628539 -0.996321518731740 -13.438370278059722 144 142 127
19.617983780712066 -0.955459787106553 -14.932068286904297 144 143 125
18.655038998321004 -1.043301938924988 -16.687672298719576 145 144 126
18.030259686128872 -0.860795177387528 -17.831824155077300 146 145 127
17.115585046333223 -0.927696692797410 -19.499877105223788 145 142 123
16.055939266341127 -1.126801895154630 -21.429792174618001 144 141 123
14.996261676248281 -1.337662594470387 -23.359571020933402 142 139 122
14.661326597305333 -0.941827434831607 -23.979425951820474 142 139 122
9.803960618225531 -0.514777218162418 -32.856821936465479 144 142 127
7.590867820513296 -0.565345163305647 -36.897074112966493 142 139 120
6.675919269930972 -0.760497603307846 -38.563675873936916 142 139 120
6.050954332163812 -0.698837533649386 -39.706494991948205 140 137 118
5.425981612741055 -0.643994895436809 -40.849240211995408 139 136 116
4.897676490570788 -0.505914316141024 -41.817369919321180 140 138 117
0.857568677852129 -0.637230262721832 -49.195390822361304 143 140 121
0.087482743028374 -0.778645794100557 -50.599270848397339 145 142 125
-0.634270683090321 -0.881272455854247 -51.915813369328333 144 141 123
-1.017578255529415 -0.659431630734733 -52.621594938961891 144 140 122
-1.545937078190434 -0.584879444895138 -53.589045026489202 144 140 123
-2.651015852493529 -0.501087489894755 -55.610995994612779 143 140 124
-3.324455015673863 -0.589523710665514 -56.839939077743281 142 139 122
-4.433142525521589 -1.124847276913018 -58.853790772074916 139 136 119
-4.671368256847316 -0.788298987694577 -59.297583083988798 136 133 116
-4.957938436443570 -0.503507184484641 -59.828573706970673 127 124 107
-5.679775872452652 -0.668605236047781 -61.144432988459840 136 133 116
-6.836927179115307 -1.290993743397942 -63.245062450259212 140 137 120
-7.220234134626480 -1.122740861569607 -63.950292707408437 138 135 118
-7.264942491992187 -0.605058436310749 -64.045092032677047 139 136 119
-8.850125766471066 -0.592195356726675 -66.945221396235524 133 132 114
99.922208699988943 -1.559376528114692 129.130606769056726 139 138 126
97.598742372367752 -1.576870653422614 124.921098695651978 142 140 128
96.681572273693121 -0.902902255161269 123.246613418277008 142 140 128
94.988404006430386 -0.639709393798721 120.173849165085045 142 138 127
92.519189810363727 -0.800284224387481 115.702962519178357 141 140 127
39.714267076905642 -0.574815710769956 20.015292245824412 147 144 125
33.133078261171235 -0.580702870403958 8.086962667151568 148 140 127
31.777212739852501 -0.818358250347281 5.634001613472691 147 141 127
30.809644541861914 -0.778016122673566 3.879289962649409 143 140 125
29.842050655860575 -0.748423232928952 2.124701248188387 144 142 127
29.020066184059061 -0.618052838555049 0.631992790361437 144 142 127
24.133055317431683 -0.719244697148267 -8.225783720648280 143 140 123
23.165286562286795 -0.764203990866637 -9.979521375234242 146 143 127
22.391706103573881 -0.663613564362233 -11.384220721917785 145 144 126
21.472446647817378 -0.689566039012297 -13.050501820871546 145 144 126
20.553164616040817 -0.725674635953218 -14.716667577466040 144 143 125
19.439631786723453 -0.931433493160467 -16.731593662681007 145 144 125
18.714532878332804 -0.828340632782811 -18.048653290746387 146 145 125
18.037981070568833 -0.692811195463526 -19.278412686406682 144 141 122
17.070054296944591 -0.808829818526072 -21.031343296119701 144 141 123
15.907853820156092 -1.099347077009321 -23.132973369720389 144 141 124
15.279815571124686 -0.949201598914044 -24.275233050917507 143 140 123
13.395658976477392 -0.540002919675215 -27.701567593854207 146 140 124
12.621887025638571 -0.544260647905376 -29.105096076633203 145 142 125
9.623800276467477 -0.559264835872360 -34.543918071836231 146 143 124
7.545118891165515 -0.501819661063998 -38.317007385853913 143 140 121
6.674078543906134 -0.660858465122999 -39.894127531665561 141 138 119
5.900180022643497 -0.739928363140704 -41.296825384341645 139 136 117
5.417763112899053 -0.557305538666221 -42.176507465985566 140 137 118
4.789595863619056 -0.515743128150329 -43.317587733843908 140 137 118
2.710700867387573 -0.616300083544927 -47.088948461825453 141 139 118
1.645189102845904 -1.020459989549185 -49.013946533242802 141 138 119
0.919786118781133 -1.109722347550231 -50.328880683654205 141 138 120
0.291557129170613 -1.113002317086285 -51.469469830005295 146 143 126
-0.288083542834059 -1.075861043439384 -52.522860652193685 145 142 125
-0.770534537577987 -0.950002327457759 -53.401942126206166 143 140 125
-1.252982665401518 -0.829276984202384 -54.280972131359221 142 139 124
-4.203447032565705 -1.423252825646618 -59.625757979878387 140 137 119
-4.637308905700607 -1.284753934310918 -60.417355549873321 133 130 111
-5.116133721959756 -0.624128008859476 -61.303676402774471 136 133 114
-6.862479623892753 -1.845385080569967 -64.446579353853565 138 135 116
-7.296349424285111 -1.730305406701724 -65.237932065705508 141 134 116
-6.903752823396744 -0.761504126133002 -64.548850212763085 142 135 117
-8.351074460319779 -0.596984261998746 -67.183916535885885 128 126 111
115.377914471977249 -0.600632414957882 154.541011207135028 129 129 117
109.977140697934630 -0.719709267751222 144.820612360026047 133 133 121
107.593380532157099 -0.670925668969198 140.528407537295806 134 134 122
100.144832356636783 -1.984791450857756 127.143882340668256 139 138 126
100.149045632934303 -0.832030278478833 127.130000773884660 142 140 128
97.764878186237681 -0.891919110317274 122.839109412870755 141 139 127
95.916789743178484 -0.703384297355100 119.508650278793652 141 137 126
91.684186142231667 -0.669739934628322 111.888444026927431 136 137 123
89.397143276210457 -0.778915836707498 107.773313705848125 137 135 122
87.207503211554084 -0.861515434465410 103.833030425054631 138 136 123
85.115272477436335 -0.915905911756789 100.067574253615646 140 138 125
83.900447112318119 -0.514235307090849 97.873135823887708 142 138 126
72.953887379790402 -0.511038431903518 78.166650464113530 142 140 127
41.185720404667961 -0.888484389979230 20.977466040638689 145 142 125
40.457327000893287 -0.584372374514610 19.659913296725790 146 143 124
33.793740970024942 -0.625797086274515 7.660509184295080 147 139 126
32.382182507907686 -0.899973552343587 5.123708487560435 147 139 126
31.409671004225444 -0.860086252461628 3.371366379006759 146 143 128
30.534713454702256 -0.757146599669360 1.793423533467973 144 142 127
28.882322699175035 -0.505371378757198 -1.187872129135229 146 143 126
25.964455591584880 -0.540294045556342 -6.443148125150941 139 136 119
24.845397380126812 -0.688937152068468 -8.456018807603613 143 140 123
24.019092330093486 -0.617166882392237 -9.946057115092458 146 143 126
23.143972353506513 -0.593543093722567 -11.523105818046361 145 144 126
22.220033891215678 -0.618871067411519 -13.187154924614561 145 144 126
21.247273315568975 -0.693956400278473 -14.938194406928034 145 144 124
20.323291387192242 -0.739861479133266 -16.602010908989229 144 143 123
19.643305735688472 -0.595202188734693 -17.830221543738816 144 143 123
17.941666919718372 -0.612971575091010 -20.896041429904699 142 139 121
17.066417954063041 -0.656316065919912 -22.472339086787571 144 141 124
16.435193303115412 -0.503126963421185 -23.613105733785005 144 141 124
15.559913694210536 -0.564286446771639 -25.189205352374870 145 142 127
14.053361277990746 -0.505151964285751 -27.905709973954373 146 140 124
13.275660166092123 -0.509061738949312 -29.307362341211245 143 140 123
12.449130543548620 -0.564029597206434 -30.795988634762409 143 140 123
6.858269422900818 -1.023170321237044 -40.865385438242100 141 138 119
6.275747001799772 -0.925342589690256 -41.918022317738036 140 137 118
5.937361968535598 -0.608685297518194 -42.535411784737903 140 137 118
4.674659605804678 -0.532766743780056 -44.814451778333023 141 138 119
3.945636148310726 -0.596679303511791 -46.127914844874084 141 138 119
3.216601589813067 -0.668475013655742 -47.441291455505677 141 138 119
2.194543021363188 -1.026432113191792 -49.276694090765034 142 139 120
1.563150617939911 -1.022312782984898 -50.415846035500721 143 140 123
0.687559961445601 -1.259603493525802 -51.989983842787780 146 143 126
-0.139211723319363 -1.459202637275443 -53.477005572123801 146 143 126
-1.014843504532067 -1.715231772436775 -55.050930821468484 143 140 125
-1.353219574088200 -1.455579288841171 -55.667737797544135 143 140 125
-2.465960231184738 -0.794671876551809 -57.691963886521876 141 138 121
-3.830134256290449 -1.575086600337380 -60.135363285883187 137 134 117
-4.754699305345127 -1.928463948825937 -61.795735858478650 135 132 113
-4.653367564572534 -1.254781711101162 -61.629429395788975 141 136 117
-4.991687143726750 -1.026561185562743 -62.245939851744907 139 136 117
-6.600274343988119 -2.100082321204921 -65.123690158951064 142 138 119
-6.840892686683262 -1.785477881756544 -65.566111974717671 140 133 115
112.539194334358541 -1.249284890046002 146.926152417876182 132 132 120
110.339307724693455 -1.085166913193875 142.988231461156886 133 133 121
108.384251074128272 -0.827379561166780 139.486514929879291 135 135 123
105.694329354054432 -0.950405653332536 134.677391959226298 136 136 124
101.734791427472956 -0.576876950440360 127.588206734000721 142 140 128
92.883915212565640 -0.580964517725113 111.757019481725479 133 134 120
90.242293468708965 -0.869665492901427 107.037354227727747 134 132 119
88.286474120313997 -0.822454106464351 103.538170132675788 136 134 121
85.742647831176285 -1.113441650923439 98.993461175002523 140 138 125
32.888088623609320 -1.054330997497832 4.439838074953400 146 141 126
31.763532607458572 -1.125320037381347 2.428798191102942 144 141 126
31.031221996588954 -0.913496874542740 1.114069401159242 142 140 125
25.754382811098480 -0.504593219372816 -8.338477442142448 145 142 125
22.089001181761063 -0.543471606895610 -14.898987608806124 145 144 124
21.062251474022247 -0.667947205701815 -16.734549361487609 144 143 123
14.564377033907292 -0.596416214025438 -28.370956501040553 145 140 121
13.635566462882181 -0.727700967408383 -30.031584141129002 142 139 121
12.706735869926220 -0.869091527241744 -31.692098178651833 143 140 122
12.366625213421301 -0.506433550470107 -32.309135621563541 143 140 122
7.676451361168873 -0.807276194829469 -40.704728755113223 141 138 119
6.698426695333751 -1.065984379682322 -42.451359792464643 139 136 117
6.358327184145367 -0.750087191708242 -43.067921234967940 141 138 119
3.038386006856072 -0.754123994122649 -49.018035377315783 142 139 120
2.011172994394116 -1.121498358052240 -50.850875207594498 143 140 122
1.327517128765479 -1.171557612927405 -52.075325688682511 145 142 125
0.496598024012073 -1.370528198801778 -53.560369776574248 147 144 127
-0.481598957289833 -1.720862772577276 -55.305975222346632 144 141 126
-0.772582729757573 -1.413411555988167 -55.835087642352391 141 138 122
-1.014457612864547 -1.060890186939930 -56.277298631497246 140 137 120
-1.599953575207309 -1.048776119998381 -57.327630685246959 141 138 121
-2.529105665282728 -1.382806051687884 -58.986007985821630 139 136 119
-3.016424987773803 -1.287358935187811 -59.862447426656075 139 136 119
-3.503738652236223 -1.197022427153412 -60.738836968211842 138 135 118
-4.383836686081167 -1.506857361454029 -62.310071727486047 139 134 115
-4.331047280012001 -0.882689454116517 -62.230891987307416 141 138 119
-5.849486695240159 -1.855401493558590 -64.931088594701123 139 136 117
-6.140393358671972 -1.589576203435579 -65.459809426833147 138 131 113
116.740562693361227 -1.041906109683543 151.898207292040183 131 131 119
111.629384114932137 -1.006350874085852 142.813687584676046 135 135 123
110.009019332638815 -0.581775362794342 139.926150970977801 136 136 124
107.699344924673014 -0.510244261364722 135.819987394023826 137 137 125
104.503391532222565 -0.899913148658238 130.147104079939709 140 138 126
102.390447995907266 -0.786746537350537 126.389832092788083 141 139 127
100.129717011192824 -0.771287184516051 122.371690209511485 142 140 128
97.967367725713544 -0.730923509353026 118.527944275685513 142 138 127
91.627530239600588 -0.676455458241760 107.259543976144101 137 135 122
88.873979525376598 -1.044398165229084 102.372523063021987 137 135 122
87.055886948657815 -0.941950625454340 99.139459033774813 139 137 124
85.631655310158521 -0.646633814350637 96.602859060790536 142 138 126
66.514183672809352 -0.515213895563950 62.623132957581731 142 140 127
64.498264538108543 -0.787072357896871 59.045125855613406 141 139 127
34.131174807980216 -0.663383045264653 5.060573415750696 146 143 126
32.902398683457278 -0.804554919815931 2.878396731841946 147 144 127
32.018547541724260 -0.700913378496317 1.304701325440504 140 137 120
29.219045009498913 -0.561057855765843 -3.676422302654316 148 142 126
28.285840076626059 -0.534819561117900 -5.336569158963556 146 140 124
25.288963480269956 -0.672309538794365 -10.663850394439720 144 140 123
24.503546851738861 -0.570679952399069 -12.062898054647974 144 141 124
22.587641058304797 -0.670201486850607 -15.468807376993624 147 144 127
21.407842438991608 -0.914992028901499 -17.562489247595266 146 143 126
20.671657364134489 -0.811406669359180 -18.874250361164542 142 139 122
19.935463933147759 -0.715799411485329 -20.185925354581713 140 139 121
19.347151141478250 -0.506133986283451 -21.236943342208690 140 139 121
18.413754859999500 -0.589445796701229 -22.895871003736062 145 142 125
16.694807828303553 -0.661979774753545 -25.952846979372538 145 142 127
15.123711107430509 -0.645647971738407 -28.748892122283735 145 140 121
14.387450975564818 -0.607910511457554 -30.059939523331167 143 140 121
13.503266654070131 -0.705827471720136 -31.631400794765653 144 141 122
12.865600263768343 -0.599089026784498 -32.768607595783379 144 141 122
12.178623291087064 -0.542309591268221 -33.992569014952579 145 144 124
11.393022123237969 -0.579682908336926 -35.390097565469262 146 143 124
10.558099342876474 -0.669175268636060 -36.874353223046484 143 140 121
10.019037112852686 -0.504101203736408 -37.837614624355126 145 142 123
8.102564341511027 -0.947173083840633 -41.239716370120533 141 138 119
7.464854687703252 -0.893405778039818 -42.376357215479771 139 136 117
6.827142693578338 -0.846451048503515 -43.512926815969479 141 138 121
3.589221966092367 -0.760082627313576 -49.281492076901969 141 138 119
2.754185011519752 -0.940771809407268 -50.764754379227867 142 139 121
1.820475078420998 -1.224264454919505 -52.421471428997506 143 140 123
1.429378915500237 -0.998686917558229 -53.123565427497965 145 142 125
0.396978479039035 -1.394211582591005 -54.953633846725666 144 141 126
-0.043445669740237 -1.228009251222413 -55.742377211971217 141 138 121
-0.483859527936374 -1.066389387961310 -56.531078330550173 140 137 120
-1.269622742242547 -1.247345232000401 -57.927051391517494 139 136 119
-2.055399168383175 -1.436702173931331 -59.322931655267496 137 134 117
-2.150421766232796 -0.950798842636991 -59.504192587093314 140 137 120
-2.344094085477735 -0.563837229017134 -59.858959143383402 138 135 120
-3.668923441749044 -0.738797698639289 -62.216554257324532 139 136 117
-4.652105164272626 -1.161343671317056 -63.959031711777982 141 137 118
-4.895074869209836 -0.841410939057213 -64.400383490702410 138 131 113
121.715000736878210 -0.530937716925184 158.160186552410124 129 129 117
108.575653781052409 -0.620486046983495 134.958463475265546 139 139 127
104.522488392037502 -1.422290248681999 127.815308714243116 140 138 126
102.003031008766200 -1.510374925295398 123.367712059305120 139 137 125
99.532956576972737 -1.601553282402442 119.007381499378624 141 139 127
98.497746693083030 -0.994869793878982 117.168340878180032 143 139 128
97.116120832981352 -0.576676757289959 114.720952505054527 141 139 127
94.942711141795954 -0.582570603866937 110.882973983315509 138 139 125
88.867370621460410 -0.507004416613292 100.152975377774624 140 138 125
67.182875104328275 -0.645274237975297 61.861136505584710 144 142 129
65.503307545011054 -0.708956058233430 58.896089290557114 142 140 128
34.884410671979964 -0.636056360471060 4.810805557915813 147 144 127
33.649470535846490 -0.776853652784077 2.631573860269981 149 146 129
32.860223546871723 -0.599076520416926 1.233574806424656 136 133 116
28.960187245243333 -0.543309595498717 -5.659087140772527 144 141 124
25.208451422206736 -0.539763818636493 -12.289581335324471 145 142 125
22.097245939217913 -0.882981439842424 -17.781768135179504 147 144 127
21.010595042487338 -1.059980879702044 -19.698991595010256 140 137 120
20.369781481903630 -0.885111907346869 -20.835394102297300 140 139 121
19.877590283299185 -0.595111855943341 -21.711505485392536 143 142 124
18.840435186323106 -0.760764382578030 -23.541665480725925 143 142 124
17.803258101544458 -0.937626236355336 -25.371699573934592 144 143 125
16.815604145217762 -1.084207674509116 -27.114878168652695 144 143 125
16.174756444448704 -0.949153510247886 -28.250854509571099 142 140 122
15.484359420516910 -0.862991884332725 -29.473482233591199 142 139 120
14.595761593383187 -0.953424715644800 -31.042909136955103 141 138 119
13.855800772679856 -0.925714346036544 -32.352082927266054 140 137 118
13.264489045927917 -0.777417597118150 -33.401034536015118 140 137 118
12.524519114912081 -0.764757507974873 -34.710049047886258 147 144 125
11.635878655104648 -0.890169496187220 -36.279095497891262 145 142 123
10.796779278264140 -0.981475673731966 -37.761334415497032 144 141 122
10.403684779832915 -0.686457422492862 -38.463187205290950 144 141 122
9.663691301137447 -0.704926730450417 -39.771870021510495 143 140 121
8.775010148448402 -0.864707691957480 -41.340543227072800 140 137 118
7.787189924174442 -1.123501456061932 -43.082487221933206 138 135 116
7.096727722619576 -1.122842604978410 -44.304203642187559 141 138 120
4.929670080896230 -0.640488221266579 -48.150246746925461 141 138 121
4.090493145948130 -0.812397872992519 -49.631618868946930 141 138 119
3.251302576420727 -0.993273363719635 -51.112892178347522 141 138 121
2.511246243131538 -1.089277119454698 -52.420746824123995 141 138 121
2.068636264724773 -0.910008644689352 -53.208578992345963 143 140 123
1.229419477902425 -1.115037715160700 -54.689591134552472 144 141 126
0.935556682767839 -0.803921876378654 -55.217363961780080 143 140 124
0.294651303756950 -0.831815170803991 -56.351635409575294 141 138 119
-0.495002539275248 -1.011320043486769 -57.745762142673101 139 136 118
-1.631756444157759 -1.539121447465108 -59.746264399218688 138 135 118
-1.776831574873555 -1.102546604236352 -60.013931492899303 141 138 122
-3.596620669602970 -0.617097173318307 -63.250126344614586 133 129 110
-4.435898506475326 -0.896505747415354 -64.730343655090564 138 131 113
-4.828824465318561 -0.730557934479410 -65.430948486784786 143 136 118
-5.172135860933295 -0.517839979274598 -66.044911299112243 138 133 114
-5.763428925694313 -0.563681605544715 -67.091873471871168 138 133 114
