ply
format ascii 1.0
element vertex 677
property double x
property double y
property double z
property uchar red
property uchar green
property uchar blue
end_header
109.958619271480629 -1.745645394763867 -68.895896703777566 139 136 119
106.802728525350730 -2.556704933432017 -71.479559487101852 140 137 118
104.935082783035796 -2.767335523329089 -73.022811507509061 140 137 120
101.520975622861286 -3.739569029048125 -75.813862053597944 140 137 120
99.567155675492373 -4.020777361843420 -77.426021022445411 139 136 119
97.871056501590985 -4.187690622860194 -78.830072567756218 135 132 117
98.925027024334483 -3.005255160473151 -78.016153236301335 135 132 113
96.971343741343802 -3.312851417389814 -79.628105960759825 137 134 115
96.478894876684663 -2.900711700603605 -80.061915782549249 141 138 119
94.955061214255011 -3.011511460323570 -81.327238392688287 141 138 119
91.969581481743020 -3.873572459327582 -83.770182467314157 141 138 119
91.133513630502620 -3.656976451781649 -84.481028853800410 139 136 117
92.705631453366365 -2.207904106246199 -83.252580732525047 141 138 119
92.386266915814062 -1.726533288674114 -83.548188363777115 140 137 118
90.862898777577229 -1.873458857052033 -84.813361817997730 139 136 117
88.135070547622874 -2.660605334594277 -87.047759966333615 140 137 118
86.009236650368308 -3.147940166757043 -88.797224057404151 140 137 118
85.518287703448266 -2.782092601621696 -89.231274926326563 141 138 119
85.457934525365616 -2.189456006019656 -89.319361363919313 141 138 119
83.159920757231134 -2.797559636967170 -91.206929830870109 139 136 117
81.033857686368208 -3.327420973559790 -92.955846539398436 140 137 118
80.199139207946956 -3.169464229800157 -93.666734857816067 137 134 115
79.622931670495674 -2.875363264787826 -94.170118670393379 136 134 113
77.927314871780624 -3.199853529198017 -95.572778963084062 137 134 115
76.576172470821646 -3.344591118272360 -96.698649371807136 136 133 114
74.880433056166609 -3.689389517786023 -98.101041963615842 134 131 112
72.581440954921945 -4.382288998481402 -99.987269553080978 134 131 114
72.178092121699848 -4.023344635948152 -100.352298073075730 136 133 116
70.999308798459353 -4.105442912369458 -101.339551481853306 133 130 113
71.544689038865471 -3.213626362817912 -100.944486125688456 136 133 116
70.107624095995305 -3.452571161230270 -102.139140647668171 143 140 123
67.894424086753133 -4.147293636575410 -103.955533229956416 140 137 120
68.785846593259663 -3.058809082114093 -103.284602170650572 138 135 116
68.297810153353325 -2.767193489058962 -103.719282265965489 137 134 115
221.739929746116928 -3.598740014756748 22.207368289557962 127 128 123
217.462956332082001 -3.885759766944250 18.713467903066231 133 134 129
217.477708130565588 -2.850242809808982 18.695751596997781 138 138 133
214.230721536187673 -2.850599181594648 16.036464895345432 141 141 135
210.640290170203627 -2.981660739727318 13.099390869661079 143 143 133
207.736557482601370 -2.912940659331353 10.718617176641715 145 145 135
200.469396107387809 -3.312725549111589 4.776312237264364 146 146 136
199.368584218660828 -2.702351601335894 3.855488481927864 147 147 137
196.464710785555638 -2.705948708143190 1.475526518211552 149 147 136
192.787951293568995 -2.990570143819383 -1.529526643860208 149 147 135
190.399196126320334 -2.856588267329834 -3.492182280350590 150 148 136
188.611604857732459 -2.529528777503509 -4.968407915767500 150 148 136
186.566424780020810 -2.303715062641846 -6.652938428978359 150 148 136
184.778950627266738 -1.999914713422480 -8.128980674190132 151 149 137
180.500602919158382 -2.593527052812069 -11.619067691588810 151 147 136
177.252827655761223 -2.844294445630404 -14.275399490250464 150 146 135
174.262657739541737 -3.022299755516333 -16.723141125915532 147 143 131
171.959680699201954 -2.968152685560284 -18.615152059606601 149 146 131
171.203160746471781 -2.358663386455490 -19.257239251174923 146 143 128
168.900267625968326 -2.328591664361858 -21.149042512178113 144 142 127
166.597367421966169 -2.313033961850199 -23.040692984364966 141 139 124
166.356788239968807 -1.532350003137162 -23.266213355264256 142 140 125
165.257101109829279 -1.080556619956484 -24.185942841838255 140 138 123
162.610610353994787 -1.230210864577855 -26.354955701873109 138 136 121
159.190535408905333 -1.696395603434685 -29.148360294288892 138 136 121
156.200057917594307 -2.016328598766925 -31.594493854119747 141 138 123
153.037547436257569 -2.422925382279501 -34.179153117135087 142 139 124
151.164363894903431 -2.337454532226588 -35.722803794333970 143 140 125
150.924656966595933 -1.609814240351414 -35.948195443299028 144 141 126
148.707742398758768 -1.681378694436839 -37.769225472048475 140 137 122
145.459007899906226 -2.186556280703188 -40.422479603830396 140 137 120
141.866138063757234 -2.853336271377329 -43.352872654798176 139 136 119
141.024906576395267 -2.406176344197946 -44.063622085713519 138 135 118
141.215882941924860 -1.534509034383349 -43.942239264037681 138 135 118
138.396871278440273 -1.924044027246499 -46.247967269998469 138 135 118
135.663744043275472 -2.295081923685149 -48.484113607065410 136 133 116
133.704699842493937 -2.353726201611000 -50.096064274610910 138 135 118
132.778012108119867 -1.981748603444160 -50.876016725314742 139 136 119
130.216782904453623 -2.322015768502775 -52.972997460188452 138 135 118
129.548420319521938 -1.854208275213740 -53.544941547410843 137 134 117
126.040558270241377 -2.635981393172981 -56.403959465287045 137 134 117
124.769952804932657 -2.451468120027444 -57.460888727573462 137 134 119
122.466647253243437 -2.734454308066952 -59.349272220575273 136 133 116
120.163257591803003 -3.031995462934577 -61.237465654175054 134 131 114
118.290190728581123 -3.149793016106041 -62.779079806004773 137 134 117
116.847561050220918 -3.083663880539100 -63.974212456858794 141 138 119
114.199615102934175 -3.578384997714365 -66.138977211624990 140 137 120
111.895926532199624 -3.931119715099638 -68.026459512977169 140 137 120
111.142200133850196 -3.578817305934107 -68.667235777528020 140 137 120
109.527427962973420 -3.633605648172506 -70.000489155515396 141 138 121
110.668907380625029 -2.401252253385960 -69.118088724863441 141 138 121
110.777272452996598 -1.650886735113722 -69.066795208352033 139 136 119
108.732262765175648 -1.926893824131067 -70.746241741875082 140 138 117
104.360885741714483 -3.333091009355202 -74.294318394581552 141 138 119
101.195288644563121 -4.184110106032808 -76.872926369043171 141 138 119
99.235847393416890 -4.468157770455117 -78.482366898765036 139 136 118
98.827698625263650 -4.004520712641888 -78.846176800847104 137 134 117
100.143752462365256 -2.692969355897533 -77.826389628636178 135 133 112
97.753584320856447 -3.212279698903410 -79.781644638082668 138 135 116
96.484048803858315 -3.186853705456150 -80.837448194684924 140 137 118
94.610998850027642 -3.472759846680120 -82.377340009762122 139 136 117
93.686482621838238 -3.290472786726959 -83.156378721579188 139 136 119
89.829704208206564 -4.607061330625365 -86.286406662569476 138 135 118
92.441710853784755 -2.633237303112538 -84.230532703269631 139 136 119
93.243101572447216 -1.575973262569621 -83.627068261749201 139 136 119
91.629248153621973 -1.766524772989378 -84.959363689077094 140 137 120
89.325045028502771 -2.327639299687505 -86.844454871317140 140 137 120
85.985007655712934 -3.447513488586787 -89.558561525160087 141 138 119
85.579145876129473 -3.037650415137116 -89.922911992100040 142 139 120
85.432546605505323 -2.492205787529790 -90.080111708934425 142 139 120
83.559562945737724 -2.871112909659487 -91.619077933048032 140 137 118
82.463606654056463 -2.843533443206299 -92.536225593000609 138 135 116
80.245048407628360 -3.430650114797582 -94.351162453580145 136 133 114
78.458132883082072 -3.796650147785471 -95.820577352798807 140 133 115
77.362199466412918 -3.795216909322994 -96.737466819819247 142 135 117
75.402361694367414 -4.276787357873367 -98.344684454058125 142 135 119
75.170596510495656 -3.812488220341145 -98.571164703546316 141 133 120
73.988497939659482 -3.879396629321300 -99.556988466174175 138 130 117
72.287822393888987 -4.244551924439432 -100.956810086024035 137 134 119
72.834802077136629 -3.352133921942378 -100.562516088889424 135 132 115
71.825990811242534 -3.338720797561222 -101.410348924274416 137 134 117
70.471365723073333 -3.528877835136703 -102.534085702173570 140 137 120
69.030238157893024 -3.777131856728744 -103.726700855054872 140 137 118
69.146232681797400 -3.135483412037596 -103.677938162552039 139 136 117
69.435757698775873 -2.391941403574719 -103.491522934920937 138 135 116
222.956708730969865 -3.520089758128168 21.957032462133071 119 121 116
221.852644657329165 -2.817416186096766 21.036814454511813 129 130 125
216.874768854161061 -3.336277991017635 16.993738755841605 134 135 130
214.393332562419516 -3.095899232248651 14.963467370145338 139 140 134
211.137040808356574 -3.119000718433316 12.308866351879544 142 142 132
209.860983160238277 -2.522907486336620 11.250308795883171 143 143 133
206.518544397247581 -2.608884712038229 8.526708538053640 143 143 133
203.089914803047890 -2.744319064949924 5.733991880572006 144 144 134
198.111155608357848 -3.416868980393698 1.692920782305748 147 147 137
195.112840097601179 -3.455974291831443 -0.752353796314821 150 148 136
193.234052185411088 -3.134567320136425 -2.295751970740213 147 145 133
190.580182018125015 -3.090075794992520 -4.463232985569732 149 147 135
189.562779720650269 -2.497327467751667 -5.312919289170168 147 145 133
186.392126587254410 -2.661098937573953 -7.896182658289916 149 147 135
183.652089042005514 -2.693455360304328 -10.132509345247001 150 148 136
183.582527671981694 -1.795728320345837 -10.219331064586157 151 147 136
179.981045625782315 -2.162430318748868 -13.148692917306704 150 146 135
175.000920152544609 -3.049648996927540 -17.186900699183866 148 144 132
172.863788579961152 -2.932743551974101 -18.937179769818925 147 144 129
171.243670259952523 -2.639291889949939 -20.271460177691239 145 142 127
168.417227149053588 -2.803046215143247 -22.575957078516694 142 140 125
166.366302897454602 -2.694722813992628 -24.256530211808126 140 138 123
166.469962363615679 -1.787095822373074 -24.204604320761575 140 138 123
166.487732200044206 -0.911305886705489 -24.222120295366011 139 137 122
163.747592282124202 -1.092357849117273 -26.456867409700010 138 136 121
160.748780446511006 -1.390624484555515 -28.899236870511061 140 138 123
158.267088643845113 -1.506280274897624 -30.925721178186564 141 138 123
153.199007378141857 -2.653556185443427 -35.030033195621570 141 138 123
150.889471895025622 -2.740461173600477 -36.917454673076207 141 138 123
150.045706523751392 -2.256757130509736 -37.627368069556610 141 138 123
148.943428737037294 -1.882260452635726 -38.545062541087106 138 135 120
146.116565454816794 -2.213998220609743 -40.847629295428305 140 137 120
143.375827457559296 -2.528334189596734 -43.080718331421480 140 137 120
141.066226359442851 -2.682333853338930 -44.967417779683672 139 136 119
141.344258800287946 -1.776736153692019 -44.777172663662810 139 136 119
138.948497681888227 -1.987560715048746 -46.732927411256270 139 136 119
136.121320428825186 -2.395268701100651 -49.034561963403775 137 134 117
133.811662000305773 -2.601022827139080 -50.920701250318103 138 135 118
132.364780268163713 -2.452168018371743 -52.114651270129798 140 137 120
131.522014786466514 -2.051944861161497 -52.824183699660921 138 135 118
128.004173522785635 -2.818411779398478 -55.678585149976726 137 134 117
126.298476451490245 -2.814479803274764 -57.079803689924233 137 134 117
124.161237637647886 -3.011340651094956 -58.826801702634413 139 136 121
122.973481267420112 -2.800266378702474 -59.812780208812541 139 136 119
119.886596210415348 -3.445387167076283 -62.320304283279341 137 134 117
118.180871038453645 -3.488255124533680 -63.721027644737802 135 132 115
117.943031942412830 -2.876327886389955 -63.946121765665538 138 135 116
115.028522297497105 -3.487694874753752 -66.314739321401333 140 137 120
113.236495230581838 -3.601405018166422 -67.784305822844487 140 137 120
112.480903732525718 -3.246533794225804 -68.424216272189597 140 137 120
110.948092874001176 -3.258535529830946 -69.686261200182145 141 138 121
111.402242023637456 -2.347563900047132 -69.358607260690974 142 139 122
109.869707113995176 -2.372194292080649 -70.620654208578259 141 138 120
107.559553105621333 -2.776311653523231 -72.504514559357716 140 137 118
105.594926220603938 -3.029479570597044 -74.111792160362626 141 138 119
102.765988175565383 -3.711680379307907 -76.409758863147516 141 138 119
100.109657621599538 -4.327971624369621 -78.569261068420531 139 136 117
99.959964531299974 -3.736431689685868 -78.725455194678943 137 134 117
99.464786141334869 -3.315472508871562 -79.158050004091848 136 134 113
98.969861363248413 -2.897288813963844 -79.590737571087374 137 134 115
96.399823973390369 -3.515747609764850 -81.680640933672265 139 136 117
94.261971069306156 -3.933737266900704 -83.425068977795803 139 136 117
93.075417117830725 -3.885159184691051 -84.409950062066855 139 136 119
92.927010904691656 -3.316743052504639 -84.566521801032337 140 137 120
92.432885509232520 -2.925653077620810 -84.999312900665842 141 138 121
94.534826092285257 -1.202456887653551 -83.361998556700343 141 138 121
92.224262316533228 -1.748679949177315 -85.244200110811960 139 136 119
89.480748752984070 -2.534889369976095 -87.471104094916683 138 135 118
88.381562661178151 -2.477003846048826 -88.387018585034440 139 136 117
80.962695226450535 -5.757084489859412 -94.337958419333063 140 137 118
83.066470790849252 -4.034444178843914 -92.701516202212389 140 137 118
84.998032961096072 -2.389795027065126 -91.203602655287057 140 137 118
83.639421264682028 -2.498492996848551 -92.326270752573123 138 135 116
83.493527367614732 -1.960728704573690 -92.483728860149540 138 133 114
79.622766626301640 -3.447121079137575 -95.605319827373279 140 133 116
77.744150070133244 -3.869507169473680 -97.141143742294958 142 135 119
76.731982662198035 -3.827388795130553 -97.987666488389522 142 135 119
76.586653108871744 -3.312139756788400 -98.145162815257748 142 134 119
74.968042670191551 -3.616915112569606 -99.474006737171379 138 131 117
73.262654563030154 -3.980364165841888 -100.871591447009564 139 136 121
73.031281616151588 -3.525095658621872 -101.098166384516418 137 134 117
71.586084643719275 -3.757897759877517 -102.288993801295561 139 136 119
70.574560259072982 -3.752867923516385 -103.135442396574319 140 137 120
70.170432822294472 -3.406335136394392 -103.499970676715691 140 137 118
70.287238456129558 -2.762148734071395 -103.451622140896291 138 135 116
70.317749007833342 -2.166764699203613 -103.472346871216104 137 134 115
223.932088948051359 -2.470162846063875 21.479606484460930 126 128 123
218.681038471663356 -3.066178973997557 17.235434146538978 132 133 128
214.379500930984648 -3.395401849608766 13.753719571985386 138 139 133
213.790696341699231 -2.567485120685228 13.250867312002498 141 141 131
211.216015944754588 -2.382866866192691 11.154918672583079 142 142 132
208.814042291180641 -2.158228906694230 9.197653546037429 142 142 132
198.051014335193031 -3.730142568831656 0.505469109536506 146 146 136
194.957811360871858 -3.800918193153831 -2.004944518241984 150 148 136
194.455732163462017 -3.015549881294575 -2.437989051276560 147 145 133
192.658191901850728 -2.675084151502158 -3.909593119696069 147 145 133
189.651361714732616 -2.762139509901126 -6.350300732409806 146 144 132
187.421949656513846 -2.598007100773100 -8.167778150815451 148 146 134
186.142869866518993 -2.114695966596972 -9.223729001706346 149 147 135
182.703979088604342 -2.403313071887920 -12.009959957048466 151 147 136
180.215386625177644 -2.374400849136316 -14.034631123452925 150 146 135
177.467550408725060 -2.454434332039224 -16.266736188906549 148 144 132
174.114768696265401 -2.771436313442599 -18.983010361295499 147 144 129
171.539618090713986 -2.824607432692582 -21.076286369050138 145 142 127
168.445884086611159 -3.085568894567643 -23.584488275634214 144 142 127
166.043473159804876 -3.108306303463149 -25.538997853226789 141 139 124
165.110428391173571 -2.593810470275005 -26.317376132320049 141 139 124
165.992799685402588 -1.396957186256204 -25.643230497858724 138 136 121
163.677066511243311 -1.416687064543009 -27.528378488314075 138 136 121
161.447767093100083 -1.417614792483890 -29.344210746435778 139 137 122
158.180959695255552 -1.835615743620039 -31.989716218187851 142 139 124
154.654601101779036 -2.375819710407000 -34.842372045348498 143 140 125
151.819804378188564 -2.665121787900632 -37.141580280411858 135 132 117
150.109096541221049 -2.524780222378680 -38.541805819667218 141 138 123
147.793058429842233 -2.637981047177220 -40.425845785793797 142 139 124
146.774324291940275 -2.241073210535213 -41.272879056947460 140 137 120
145.669247522256285 -1.885635353358238 -42.189038322603551 140 137 120
143.266767876061238 -2.069914289601336 -44.141852196983592 138 135 118
140.864225637454410 -2.269277581632086 -46.094480856516526 139 136 119
139.153749807834771 -2.195049667679947 -47.494136846263643 139 136 119
136.837649089670350 -2.386007540300361 -49.377346469163484 137 134 117
134.002302266467154 -2.811345250364766 -51.674891255353231 138 135 118
130.993726617262610 -3.328396813549940 -54.110337678040338 139 136 119
129.196599328902835 -3.343693026758371 -55.578477275049039 137 134 117
128.611227974091094 -2.845550976665214 -56.079577446202194 136 133 116
126.121747102117624 -3.181397215156121 -58.100068958922634 138 135 118
125.190383236902576 -2.848333846932139 -58.877383800942937 140 137 122
124.172606729317806 -2.559215984824998 -59.723765662800957 140 137 120
121.423293494079928 -3.048089462649515 -61.950955732079223 140 137 120
118.327434479911915 -3.709796540921116 -64.454015965185135 136 133 116
115.750929622642843 -4.156209865604610 -66.542596263991555 139 136 117
115.079665381522474 -3.751448200183225 -67.112503246461586 138 135 118
114.062140790862003 -3.509467293932506 -67.958520420146527 140 137 120
113.218011091447195 -3.193690751844651 -68.666530961165904 139 136 119
111.767614002686400 -3.164853507723959 -69.857563845336244 140 137 120
108.844323034287527 -3.834336693669421 -72.221382226800728 140 137 120
109.733509117963678 -2.725815583450600 -71.549587516812551 140 137 119
106.376788716419156 -3.625553878519153 -74.257979036225890 139 136 117
104.926480980386927 -3.636009918512750 -75.448650200922629 140 137 118
102.956129347719624 -3.905492326162330 -77.053021169027375 139 136 117
101.419156713071231 -3.977560686438902 -78.312456821645014 137 134 115
99.708800488056269 -4.143653691210982 -79.709696285881762 138 135 116
100.513028513548917 -3.087353697585810 -79.107579278804167 138 136 115
98.282587118594549 -3.523431764499306 -80.918385998094010 137 134 115
96.138724447555703 -3.930496684466504 -82.660051444113975 138 135 116
94.428431062257488 -4.134236116006059 -84.056933457073143 139 136 117
94.366390460890173 -3.519292115809352 -84.144442258472253 140 137 120
94.217953483428801 -2.948201633858996 -84.301026808317005 141 138 121
94.156640227915375 -2.333367083588838 -84.388882442856385 142 139 122
92.446786643140314 -2.563978852918959 -85.785698244405921 142 139 122
92.906795426474829 -1.685603281300206 -85.460512005989330 139 136 119
91.370744029241138 -1.840339208177628 -86.719537436636756 137 134 117
87.403738077835129 -3.274619464373267 -89.906480326386770 137 134 115
84.912192172803415 -3.958516857401909 -91.922401268990939 138 135 116
83.288796339000797 -4.198988032393006 -93.249617789517458 139 136 117
82.707618156337332 -3.895040354920483 -93.750725019621086 140 137 118
83.777176052143020 -2.710870548333787 -92.944280486486235 138 135 116
81.980394662234886 -3.063046017652321 -94.409117892711862 137 133 115
80.704865849600054 -3.144074881558132 -95.460958483899645 140 133 117
79.255565357122634 -3.327681640926424 -96.650329183122579 142 135 119
76.763214370422176 -4.092082495919353 -98.665036314840563 143 136 120
77.921712316726840 -2.859058349690510 -97.790784394343206 142 135 119
75.516187351652363 -3.594987712030862 -99.736462983648607 139 132 116
75.110426324762429 -3.230458390215109 -100.100395007252473 137 134 119
72.878506585302915 -3.892881207901176 -101.908164611372854 137 134 117
70.907264374678562 -4.422259885588981 -103.509434287167437 141 138 121
72.676948563655827 -2.840680793335175 -102.155147426908627 142 139 121
70.357832074103342 -3.581299042698500 -104.031256384730199 140 137 118
69.169802259211394 -3.687227230460583 -105.013841010347505 139 136 117
69.983917286565728 -2.644570275016681 -104.416313476425074 138 135 116
221.099211309389602 -2.606789964273753 17.958460871567354 130 130 125
215.833002613414919 -3.231030434766647 13.721830701274200 135 133 126
214.809798397987720 -2.538903053433575 12.873897056807436 142 137 133
214.219755160380970 -1.713988923959559 12.371668269200313 147 142 138
208.087119432497531 -2.690353940437768 7.444569566748385 145 140 134
201.174615521821522 -3.960645334025026 1.895852697351273 144 141 134
195.560873368204085 -4.844961401314901 -2.615277108963738 147 144 136
197.482713926924248 -3.249236384432863 -1.112209175709097 148 146 134
195.333672355911176 -3.012930989384309 -2.858019587587194 145 144 132
193.011401580049267 -2.848965079468122 -4.741930884825820 146 144 132
189.822797908874406 -2.996881325599172 -7.316769983983789 146 144 132
186.720741397278744 -3.134795876649300 -9.822257015177001 148 146 134
184.831616490357078 -2.868159093149132 -11.360146229693783 149 147 135
180.603014892506962 -3.438453907781974 -14.763412749800182 151 147 135
180.966869201554630 -2.401011422335040 -14.504722781047548 149 145 134
179.164553916166653 -2.138823523199592 -15.973236741425296 148 144 132
176.495648598430591 -2.201719818591351 -18.132419595032047 147 144 129
173.566682570122055 -2.376321659582218 -20.498617109578845 145 142 127
170.377602499156325 -2.665111181306270 -23.071778221315554 143 141 126
167.101716624089647 -3.006143993696933 -25.713732852400540 141 139 124
166.339623664018234 -2.425545135326755 -26.352856552539691 139 137 122
165.144254869405245 -2.013361505461030 -27.337263420630279 140 138 123
163.168727497309419 -1.905897647675688 -28.943038430005004 139 137 122
160.499585368197756 -2.077288826044291 -31.100991201527705 141 139 124
158.177214475000653 -2.131029253789205 -32.982613642276590 139 136 121
155.594663085615110 -2.300903158003667 -35.071147860020602 140 137 122
154.052726469154067 -2.077183635667621 -36.331253454021038 138 135 120
150.429347604697483 -2.689196713153523 -39.247614833772644 141 138 123
147.326155116254824 -3.115831524984241 -41.749586474851270 141 138 123
147.085325968070578 -2.407690362979037 -41.974240543334673 141 138 121
146.671271356401832 -1.771288248472599 -42.337003467640727 142 139 122
145.042873292616719 -1.634676997458056 -43.665708437330665 140 137 120
142.199843698005878 -2.009503342439038 -45.960097750868840 138 135 118
138.749280190881734 -2.654810239573969 -48.737072925354852 138 135 118
137.988585952847870 -2.194531581906142 -49.375627253052869 137 134 117
136.013096331191264 -2.251802035199588 -50.979724629089020 136 133 116
131.954576837091622 -3.207518248428733 -54.238672738721164 136 133 116
129.197686357528653 -3.630906063877104 -56.462911957106911 136 133 116
129.131679993393618 -2.909786443367417 -56.549616470189392 136 133 116
126.982421317532939 -3.094913549668124 -58.290985003406632 138 135 118
126.135458420053695 -2.722936446722624 -58.998218652788978 139 136 121
124.941351291707988 -2.509294523153930 -59.981185408175520 139 136 119
122.878966436876141 -2.688901402977312 -61.653312017138177 140 137 120
119.079577634929379 -3.658877910591641 -64.703503918535375 137 134 117
116.322074236115029 -4.183086966795644 -66.926412114772830 138 135 116
114.954209857023656 -4.093736426550546 -68.046692373186318 139 136 119
118.190708229570291 -1.907991437346788 -65.515742329965036 140 137 120
114.130107390734764 -3.060443785670951 -68.771669627539580 138 135 118
111.198614106054194 -3.715130782356864 -71.131716353619083 139 136 119
110.091770195519786 -3.536685272568827 -72.045208354004586 139 136 119
108.463592214281988 -3.609990162559066 -73.371857838138538 138 135 118
107.356937193118412 -3.446698975280140 -74.285284211497128 138 135 116
104.337978490728986 -4.200904596224924 -76.713322271278201 139 136 117
103.318290040815839 -4.015589226127623 -77.557720975283786 139 136 117
101.342310760284050 -4.298023150503321 -79.159266379472172 137 134 115
100.931490007692233 -3.832435936433588 -79.521818087295657 139 137 116
99.738232902155474 -3.751798242049063 -80.503822411333772 139 137 116
98.458091070813552 -3.721260441689250 -81.554604561905791 137 134 115
96.656087638755693 -3.957129809327552 -83.018140958198444 140 137 118
94.767026669658620 -4.247627428311110 -84.550325896066227 140 137 118
94.183035135900383 -3.895071061106268 -85.050587582311778 141 138 121
95.513749814552398 -2.579102525369201 -84.037859574687786 140 137 120
94.060159535405134 -2.669191671626456 -85.226140678442960 141 138 121
92.345458692704867 -2.901797503571416 -86.620617042527869 140 137 120
91.675368478452739 -2.607554714281094 -87.189948049115486 139 136 119
91.266702410202328 -2.181932713049445 -87.553119168529719 137 134 117
89.116758294876050 -2.665762105191473 -89.291085097172839 137 134 115
83.422668143653453 -4.409088604168931 -93.865793355860745 139 136 117
82.752916363693714 -4.152406811052975 -94.434899634051192 139 136 117
82.431895303633823 -3.713538916051433 -94.729277286680087 136 133 114
80.629803316665473 -4.071760038612195 -96.191511890529370 138 133 115
81.703670508900842 -2.887529851551780 -95.387129531561982 141 134 118
79.814609073210661 -3.306252712719999 -96.917994359380629 140 133 117
79.581825945786534 -2.831339782523511 -97.144096881262385 141 134 118
78.651851644496233 -2.740946061989088 -97.919578565310815 141 134 118
76.762735588699940 -3.186696057830676 -99.450139059183442 138 131 115
75.309563597935522 -3.401724777456673 -100.637334204874236 136 133 118
75.513846661896650 -2.698297820621839 -100.520585479646599 136 133 116
75.544143101427366 -2.091090453946459 -100.541329482930564 136 133 116
72.695150792230223 -3.113058168751162 -102.826204903033670 142 139 121
70.456605713597000 -3.805550168586960 -104.630495450405760 141 138 119
68.741514614876294 -4.212455590355758 -106.022990964109539 140 137 118
67.899385297717586 -4.127473360235799 -106.729582799349259 141 138 119
220.400471971214444 -3.118812390197048 16.191687066431314 127 127 120
216.769234001296752 -3.229918785313100 13.273929371677895 132 129 122
215.656491426429056 -2.565058295844443 12.358252358350853 139 135 130
213.849072202101894 -2.129559986413948 10.890396133749903 143 139 134
210.044010371058334 -2.351355391326431 7.835216786083066 142 138 132
203.285509310592090 -3.561386115195570 2.433922957518377 144 139 133
199.740613695918285 -3.754280938679119 -0.413439849726132 147 142 136
197.846152578337524 -3.420019472232056 -1.949472334187874 145 144 132
197.341766784687707 -2.630513599575008 -2.381455989479377 145 145 133
194.404928224699802 -2.668947504189710 -4.745288956829654 147 145 133
184.447190812544079 -4.211500345006901 -12.714435005673494 147 143 131
182.900256038625230 -3.833338735228552 -13.973739248269425 149 145 133
183.612845603243272 -2.670102247141017 -13.439742351598028 148 146 131
181.979324010611549 -2.334749363338090 -14.768041990115222 148 146 131
178.173086491575702 -2.787346068106149 -17.820283138952391 146 144 129
176.887263058194321 -2.353535844192592 -18.872498316226000 144 142 127
175.601563944576100 -1.927626465700423 -19.924691640277189 144 142 127
172.142774912906674 -2.308125257556146 -22.700457554871321 140 138 123
169.379299578437241 -2.452578401931529 -24.924417815934902 140 138 123
167.485151706516348 -2.289384510965467 -26.458839271555178 138 136 121
166.286612471465673 -1.875801118285165 -27.441743820269579 140 138 123
163.957830840100314 -1.899131946993413 -29.320612407132217 135 133 118
161.194234761676455 -2.103583435359663 -31.543897311606599 133 131 116
158.082692312526149 -2.459706366363730 -34.042600174315396 139 136 121
156.449508231641857 -2.259474375661592 -35.369670410064117 140 137 122
157.251752080497681 -1.113125356195196 -34.767531099544414 140 137 122
153.792228525682276 -1.648305656909748 -37.541353406307223 140 137 122
148.940650985982927 -2.760477984469351 -41.417024748202607 140 137 122
148.003506444479058 -2.329083991292973 -42.192586301020498 138 135 118
147.588554616858261 -1.691795770578899 -42.554929121426795 139 136 119
146.477770623411800 -1.341121356893043 -43.468309038280836 138 135 118
143.539755994619100 -1.749295181689786 -45.827773459606249 137 134 117
139.818359751381053 -2.500713730039935 -48.806667575701880 137 134 117
137.576218987685081 -2.657280520880888 -50.614754507066863 134 131 114
135.943304042597561 -2.571299948352051 -51.940777449215943 134 131 114
132.743586997249565 -3.160078092994399 -54.505761935271551 136 133 116
131.458849740040819 -2.950478108258793 -55.556188826877644 137 134 117
128.955339801367700 -3.273505798010765 -57.570100829938241 137 134 117
128.628477847430787 -2.668161073000616 -57.863397848599362 138 135 118
124.209199943614436 -3.852457158549337 -61.390843023826847 138 135 120
122.576214282244379 -3.838477893691004 -62.716090989918541 138 135 118
122.685160566024294 -3.062613583672361 -62.665337994825535 137 134 117
120.355575573392031 -3.374274875471813 -64.540854326110463 137 134 117
115.586746977379107 -4.796951198401470 -68.342057420497156 139 136 117
115.696076567153028 -4.041324464365226 -68.291279482141761 139 136 119
118.419661648184046 -2.093034704560604 -66.177662541938446 140 137 120
116.177268426858205 -2.406763299730263 -67.984010953035352 138 135 118
112.976146630286848 -3.177593859917772 -70.546449453952278 138 135 118
111.082062215011973 -3.360222940387384 -72.077341537443004 138 135 118
110.059596004839733 -3.146224425942836 -72.920706620475954 139 136 119
107.903987805346915 -3.472992892087077 -74.657579577680536 139 136 119
105.661084796324701 -3.854650253193112 -76.462984883178621 140 137 118
102.807679783221218 -4.542166493455047 -78.749191957899853 141 138 119
101.349277445811069 -4.576197748670566 -79.935748021509994 139 137 116
100.152554596050265 -4.492466340750970 -80.916126190538421 140 138 117
100.002633103304845 -3.905630858890333 -81.072162624553471 139 137 116
99.242400624310477 -3.619014486607159 -81.709150263049281 140 137 118
98.220625691213598 -3.466154461795241 -82.552216721478459 139 136 117
95.366574073542310 -4.230481099709852 -84.837323814781541 138 135 116
95.042986171300186 -3.746552961378498 -85.130937326629777 137 134 117
95.505224673067843 -2.868685940756756 -84.806812543097863 139 136 119
94.833194322629723 -2.562351028957773 -85.375339865475894 139 136 119
93.375665578248842 -2.660551126057387 -86.561653330871621 139 136 119
92.354724780334152 -2.543719712700206 -87.404747976115829 138 135 118
89.762045125245777 -3.244621979749599 -89.482970724560033 138 135 118
87.283630616655017 -3.280216743676831 -91.511846986851538 138 135 116
85.301935883602908 -3.699905301341927 -93.109245307253843 140 137 118
83.844340759077781 -3.854636563663063 -94.294945112933675 139 136 117
81.862409496098536 -4.297486950117572 -95.891991861890403 136 133 114
78.307089310965779 -5.595300603188646 -98.722994105783300 139 133 118
79.908571366906116 -4.137405381163014 -97.508684551259563 143 135 122
78.188708742446480 -4.468881967500986 -98.899673810300555 141 134 118
80.053841638315490 -2.856656215038988 -97.480505860796598 139 132 116
79.995981687296876 -2.286601786561121 -97.569552600080129 140 133 115
77.926753370455089 -2.825994225410223 -99.234701866774913 138 133 114
75.769817495579517 -3.426983869208562 -100.968116972288783 138 135 120
74.662595495404048 -3.455716204468877 -101.879295510249648 137 134 117
74.693118599006894 -2.852646876090420 -101.900105353941825 133 130 113
73.586248842812680 -2.891014243824840 -102.811353225986494 144 141 123
70.728603692831314 -3.930028747584753 -105.091913685555568 141 138 119
68.746001475492989 -4.487510619376258 -106.687459492782210 140 137 118
68.689777882391184 -3.951368797589818 -106.776939980587343 140 137 118
217.951187169622187 -4.170372301365274 13.050744242592884 126 126 118
217.880457493574625 -3.173924826788562 12.963465257824481 130 127 120
215.284091444482726 -2.976453102509342 10.877758652838594 135 132 125
212.165094718905806 -2.962038874644211 8.378807765302980 139 136 129
208.087839091186595 -3.276074922362676 5.122217821476283 138 135 126
203.661960900521819 -3.729063732088826 1.590402487685907 140 137 128
200.803996323698755 -3.694228089392194 -0.701058838190448 144 141 132
199.165706853154063 -3.272399902350929 -2.027967673994738 142 142 130
197.527505199254563 -2.860690099236968 -3.354814367372200 144 144 132
194.146734847541097 -3.048377884446738 -6.059029966662479 147 145 132
192.334332323336980 -2.721873578976311 -7.523380267646957 146 144 131
186.077701248082093 -3.937299681888591 -12.499558130000651 145 141 129
183.567977821915008 -3.889564052786255 -14.514314075038698 146 142 130
183.934297464677769 -2.848818721510396 -14.256837511336272 146 144 129
180.901746877058855 -3.008271378560904 -16.684495350848238 147 145 130
178.392090034920471 -2.999953604826401 -18.698877401670245 145 143 128
177.887312504264344 -2.285263932891774 -19.129903530582226 144 142 127
176.772532030686989 -1.795177050136014 -20.042806587619367 144 142 127
173.304003070758483 -2.174324261766013 -22.813926866414249 142 140 125
170.358432609009412 -2.381848848388570 -25.171841986558604 143 141 126
168.459080062172603 -2.217822079999448 -26.703782116765012 136 134 119
167.780556030826574 -1.606764892798991 -27.272339543915223 139 137 122
165.706956334404083 -1.528473859785919 -28.941755683875840 132 130 115
162.150773017476581 -2.029534047952605 -31.780546392145538 136 134 119
159.640999811235929 -2.149658931236234 -33.793550649987083 141 138 123
158.788430788491041 -1.641760441511099 -34.499501455373718 142 139 124
156.976508743862098 -1.514657972041238 -35.962029072871246 139 137 122
154.990153793929807 -1.467614676373437 -37.562002266924253 139 137 122
150.822706345370307 -2.300560084962984 -40.880962243004006 140 137 122
148.836204253281721 -2.285062274969940 -42.480540331222727 139 136 119
147.635030143787901 -1.964518425480122 -43.461226662277966 140 137 120
144.950479051270179 -2.255462604085614 -45.610577219435015 139 136 119
142.440358575032604 -2.491527804873131 -47.622221912568904 137 134 117
140.541104973401531 -2.490575919656081 -49.152530766128280 137 134 117
136.808831808447451 -3.265221603073605 -52.125982311588302 137 134 117
135.345906615279944 -3.110376963968204 -53.312318850970541 136 133 116
133.621151431941030 -3.075303785637077 -54.704740607480460 134 131 114
131.372564955743258 -3.274133089120346 -56.509308902805145 138 135 118
129.909771499158182 -3.149575494553004 -57.695396704752454 136 133 116
128.447049550329382 -3.033998281232955 -58.881426276189785 137 134 117
124.888378617945662 -3.840485759967926 -61.715883001216781 138 135 120
123.250911599064381 -3.826219012945311 -63.038990060434230 138 135 120
122.050229068319027 -3.629032237564967 -64.018641784744688 137 134 119
120.412862923211847 -3.633567981173372 -65.341603558148336 137 134 119
117.901841801954447 -4.039841145526011 -67.351065349717800 139 136 121
115.914928968095396 -4.225155166784404 -68.948379883423115 138 135 118
116.986469947282615 -3.032470270164877 -68.142971700679908 139 136 119
116.660271637448517 -2.472572603831451 -68.436118394999397 140 137 120
114.498878901989201 -2.760347902213720 -70.170625426289604 138 135 118
112.249976345519158 -3.102160397366190 -71.973570712075002 138 135 118
110.612915369558067 -3.172077286109193 -73.296005476380543 140 137 117
109.850192159444788 -2.840806433859416 -73.932261208641364 140 138 117
106.464388354280317 -3.756336045463081 -76.626576779498492 140 138 117
104.127621176914801 -4.192935013558742 -78.497371131960023 141 139 118
102.228003151876408 -4.434286669983837 -80.025011494533487 139 137 116
101.115574815593519 -4.307132184975661 -80.935303960498260 141 139 118
100.528162894103204 -3.931463814731411 -81.434167248434676 142 139 120
101.953362950533702 -2.574189708842581 -80.356207015734384 141 138 119
99.879095070223642 -2.931471133316033 -82.020819932695787 140 137 118
96.491959871485861 -3.952554241836327 -84.713412054261795 140 137 118
95.380070103595116 -3.859587806182300 -85.623610254732682 141 138 119
95.231214682068000 -3.289802423558601 -85.779981188327639 140 137 120
94.644969294139202 -2.941689952377941 -86.279118895209422 140 137 120
93.971410895406123 -2.641401003268940 -86.846852970389676 138 135 118
92.597489957099071 -2.703468297774009 -87.962677171795718 139 136 119
90.172575882689983 -3.315122747158314 -89.900359301765178 139 136 119
85.907843466072578 -4.895095539243272 -93.275947839378773 139 136 118
86.110450360633649 -4.173247725732272 -93.158586855587231 139 136 119
87.189759932221989 -2.989979191712509 -92.356798213469546 139 136 119
84.589100242218436 -3.741252694004512 -94.430684844134930 141 138 121
83.215180921075486 -3.857583938102577 -95.545951253093676 139 136 119
81.139979898434262 -4.356877671153230 -97.208655953929394 141 135 119
80.292031670667342 -4.209757365731358 -97.913103660704280 142 135 119
83.565638005119339 -1.840209731826439 -95.401797912219507 142 135 117
80.789214500381121 -2.738466390785232 -97.611804534755123 141 134 116
80.205275310211164 -2.455166494695918 -98.111378370345250 141 134 116
78.393360151259770 -2.850709310762710 -99.568529431448809 139 132 115
75.265118040968900 -3.985794999919468 -102.051224978522697 136 133 116
75.295655565457125 -3.382768545144978 -102.072041279797446 133 130 113
72.956728029731451 -4.105353481672041 -103.938858326984530 132 129 112
72.285471187577599 -3.903831673668782 -104.506676799143463 142 139 121
70.297355536820859 -4.451754009116190 -106.099683399831093 141 138 120
70.943637989788670 -3.512179873797960 -105.642522024193113 144 142 121
71.239272155349653 -2.768812463258368 -105.459027595079334 141 139 118
219.238835155153424 -4.060868374078254 12.877046220750913 124 124 116
216.285764521187616 -3.962894702619993 10.519574510247054 130 127 118
215.079671849382294 -3.332424471458632 9.538050974601930 132 129 120
210.728913527763154 -3.710747427067376 6.080388864724711 137 134 125
208.387246126435770 -3.470104921920866 4.204967575908910 138 135 126
205.870863618788263 -3.300708471847242 2.192144996678309 138 136 124
202.131295936956974 -3.547893898047534 -0.783246290312036 142 140 128
196.644085305109058 -4.396693192442927 -5.133556165072349 141 141 129
195.525517593367709 -3.820279090588627 -6.045536029786717 141 142 128
196.067410219052448 -2.690843816216689 -5.651248139597612 144 142 129
193.638383169642395 -2.568940592431404 -7.594513514062356 143 141 128
188.325303644010035 -3.452607239033969 -11.806050436151679 144 141 126
184.585076199298271 -3.824269646929090 -14.779844790737059 145 142 127
182.855012361207287 -3.516240417727076 -16.172536578763101 146 144 129
182.261369164096607 -2.817933368869348 -16.671739927800445 146 144 129
180.881186519899643 -2.403173189677529 -17.789476775296379 146 144 129
178.976582605613061 -2.185218658166373 -19.319459774871802 144 142 127
177.421739961399027 -1.852346440764960 -20.574514732957226 144 142 127
173.593694307484697 -2.359573855660248 -23.615760603477071 143 141 126
171.514239371402056 -2.246292821422483 -25.282735786514422 143 141 126
171.358623100620093 -1.430949102992052 -25.438400008308577 134 132 117
169.279335161872268 -1.337309268582241 -27.105252905561713 136 134 119
165.888179650015786 -1.752263065226614 -29.802160916612536 139 137 122
162.146985744851406 -2.321672110079741 -32.773457414356528 137 135 120
159.542686613522932 -2.477623247853542 -34.851730900929283 140 138 123
156.325966014983408 -2.886911880049686 -37.410428521140801 140 138 123
156.433496425033638 -2.018334325371245 -37.359952520911122 139 137 122
154.791530235407492 -1.837431524674387 -38.682622460877383 139 137 122
151.924651312864029 -2.152565034812879 -40.966216786017412 139 137 122
149.932695438651706 -2.135677528482145 -42.563200108404686 138 135 118
148.028256703972318 -2.095835837271527 -44.091428724396479 139 136 119
145.773755381429822 -2.209922653801503 -45.894039674493428 138 135 118
143.694263320660411 -2.266347710788407 -47.559250227157861 137 134 117
140.564338579217917 -2.768829501311126 -50.047652518977941 137 134 117
137.959462161200520 -3.072597773558543 -52.124128277555371 138 135 118
135.529565544626564 -3.319271848668557 -54.063183702774694 135 132 115
134.938281947613262 -2.805441235395594 -54.561616967786136 131 128 111
131.107311236642488 -3.671884842551517 -57.597765908314813 138 135 118
130.691345499528694 -3.100196617803137 -57.958948424182012 136 133 116
129.837737653687327 -2.719645140169080 -58.663091413390987 137 134 117
127.670467023810673 -2.914910432697734 -60.395738732102984 138 135 120
125.065138992322545 -3.315269904906315 -62.471004178599571 138 135 120
123.423331284520188 -3.307178291471629 -63.791971103363750 139 136 121
121.518705229400453 -3.425851416183800 -65.318478433267671 134 131 116
119.000680761486194 -3.830486340383924 -67.324606711030867 137 134 119
118.673336257394013 -3.264596584976790 -67.617266749529108 138 135 118
118.083356478808213 -2.819584429789754 -68.115615373846623 139 136 119
115.915883830380508 -3.098124105495939 -69.847308862516741 140 137 120
114.624927845803839 -2.987221066243503 -70.893744799025086 139 136 119
111.755986555020058 -3.614476909079209 -73.173139662300883 139 136 119
109.763589340433867 -3.851175596821490 -74.767301558879723 140 137 118
108.648022496456136 -3.688879589809578 -75.676454302860691 140 137 118
106.918674320517837 -3.823234168880550 -77.064934782434420 140 137 118
105.803278805776969 -3.676367331064229 -77.974010669545606 140 137 118
104.600281596052710 -3.578207875240289 -78.951535721419361 139 136 117
103.046456277810179 -3.656395365806146 -80.202846120689657 142 139 120
102.194578546684767 -3.403752994874860 -80.906500158157172 142 139 120
101.869399064826979 -2.899147990907435 -81.199565101137864 140 137 118
100.228074835591926 -3.042870791378250 -82.519200618364067 142 139 120
96.041256765589836 -4.455249444337811 -85.822929358076067 141 138 119
95.716360077365408 -3.972219548643972 -86.115907505133777 140 137 118
95.479575583219656 -3.446827574553011 -86.340615393048751 140 137 120
94.452846310400844 -3.320717741671116 -87.181036359173305 140 137 120
93.426249021156991 -3.200750805493069 -88.021457233866045 139 136 119
92.311949580203304 -3.131745196226279 -88.930256014180401 139 136 119
87.771773036875587 -4.828596335625818 -92.505446592937119 139 136 119
87.096490825890299 -4.557194147115486 -93.072058656306353 138 135 118
86.860784668603969 -4.061258019878517 -93.296979213049639 138 135 118
87.240615246392935 -3.244555187724781 -93.043660052359371 138 135 118
85.687259164176737 -3.442348882290181 -94.293963765793563 140 137 120
82.991041517630237 -4.254724450074223 -96.432365728259327 139 136 119
83.899287253013455 -3.164278338931921 -95.769503035271214 141 136 117
84.456501663874477 -2.255759340139448 -95.380271032388436 142 135 117
83.343272054517115 -2.243637091337280 -96.288996087466359 142 135 117
81.086596821491071 -2.858194334894176 -98.085415452719417 141 134 116
78.565707642049659 -3.630900761642770 -100.086384517428371 141 134 116
76.484410964506012 -4.178220205840548 -101.745678725082001 138 133 115
76.779091552670124 -3.427523732560958 -101.561803549534744 136 133 116
73.905501248133788 -4.432827619030032 -103.835082902138737 137 134 117
75.873480243676823 -2.753765765504455 -102.354945266835216 131 128 111
70.974438830118785 -4.916654247369827 -106.197094504958443 137 134 117
70.917932475522733 -4.376578164145013 -106.286480217963259 137 134 117
71.478466640364033 -3.486116970965680 -105.898650495940899 143 141 120
72.039678335285799 -2.591262542763980 -105.511190123761651 142 140 119
220.616923358160960 -3.924013652229707 12.770659258323576 121 121 112
217.830850287363717 -3.769861616589055 10.554435983736454 129 126 117
215.132353879105494 -3.605424473652563 8.407069349122537 130 130 119
211.732978832975306 -3.680238823056978 5.710592308892188 133 133 121
208.859179336899388 -3.607601797473881 3.426317245484995 134 134 122
206.072953182551828 -3.524406847714501 1.210897602474290 136 136 122
203.549556247944395 -3.372547225647476 -0.798388783561705 138 138 125
197.345814521824934 -4.450794537537213 -5.690421894540520 140 141 127
195.786135632324545 -4.020600165170161 -6.944164995289725 139 140 126
195.716386970111671 -3.099041523001594 -7.031142425341130 144 142 129
192.929994453364316 -3.099681803455984 -9.245619523010191 143 141 126
189.442367409774533 -3.357721528021255 -12.008849964247815 145 142 127
185.253372224085581 -3.879769988457507 -15.320701795212841 146 143 128
183.430929896271607 -3.602576236061840 -16.779741510269673 146 144 129
181.696211049544615 -3.305749882135244 -18.170091041297212 146 144 129
181.451953732702236 -2.490561966402508 -18.394206971657127 146 144 129
179.805147526819667 -2.178966450382980 -19.715906750209740 145 143 128
178.070741054395796 -1.909141547306976 -21.106127780535218 146 144 129
175.108775359801541 -2.097216562294582 -23.456399681696070 144 142 127
173.023646170316312 -1.981445858612390 -25.120685948773598 139 137 122
171.903233276025105 -1.521046820720565 -26.030588883146493 136 134 119
170.782972653301357 -1.067425859217648 -26.940494893570047 138 136 121
167.031488082832993 -1.612128747230039 -29.907122685189677 137 135 120
164.244679659718201 -1.813588180541091 -32.119333682254961 138 136 121
160.317341304773464 -2.469200536860601 -35.222409749124949 140 138 123
157.530246867903884 -2.708837456787016 -37.434090938141821 140 138 123
154.304348455769457 -3.136566214981512 -39.988208110308051 137 135 120
153.096423361819490 -2.792334143105331 -40.965908628312832 138 136 121
152.766158980974694 -2.108287634867505 -41.258388054594917 137 135 120
151.295288266439002 -1.880893618473437 -42.441670270975635 138 135 118
149.824507545688761 -1.662478823734837 -43.624903112435561 139 136 119
147.739394060595515 -1.701867378949138 -45.287599760243239 139 136 119
144.425316424616483 -2.255666935398194 -47.909093468836772 135 132 115
141.111007678621007 -2.830123381514754 -50.530263983448123 137 134 117
137.972053853810678 -3.352483623595172 -53.014142173846153 138 135 118
137.818255795895595 -2.647981558773894 -53.169535273620852 137 134 117
133.976625105845585 -3.495503713825895 -56.200779284709171 134 131 114
134.789153112652741 -2.394557649799065 -55.603092524673343 136 133 116
131.737691254482002 -2.937908932611669 -58.017751615766684 137 134 117
130.530593220561059 -2.707005607538284 -58.994681246732171 137 134 117
128.796539941633654 -2.711730726350462 -60.382245162318327 138 135 120
125.832539775916501 -3.263788980115818 -62.727797117141392 138 135 120
123.571216988557637 -3.525422904782478 -64.525625925346787 136 133 118
121.749158865953163 -3.606604270181294 -65.981160507739276 137 134 119
120.542257112671862 -3.424786152078288 -66.957678779996343 138 135 120
119.071796946606767 -3.368629382325967 -68.139394770356262 137 134 117
114.724499109963034 -3.923512696765331 -71.596894939914506 139 136 119
111.759432528265791 -4.583845195310653 -73.940822203794170 140 137 120
110.552648903963913 -4.451150409307401 -74.916891337415365 140 137 120
109.609781703957523 -4.203171809533265 -75.687827203236992 140 137 118
108.930920159957523 -3.837371437529483 -76.253698613885149 140 137 118
107.900447640674273 -3.641176169389296 -77.093050248324914 140 137 118
106.166366944028042 -3.784793461089370 -78.479171360459418 139 136 117
106.279823141372930 -3.057319856450823 -78.430077782717348 139 136 117
106.041736933901532 -2.497737222152761 -78.654514877080686 143 140 121
