ply
format ascii 1.0
element vertex 683
property double x
property double y
property double z
property uchar red
property uchar green
property uchar blue
end_header
23.892008610370425 -1.486540885984706 -67.301214184634176 141 140 120
23.535364249818571 -1.176820721778171 -67.798938159783802 141 140 120
22.514607549734905 -1.400114228186684 -69.192914224738502 145 144 124
22.037338831697980 -1.196154076544403 -69.853561049635317 145 144 124
21.499759568614920 -1.044928812267297 -70.595671574742397 144 143 123
20.177181643723088 -1.535482762465358 -72.396800778899745 145 143 121
18.854600714549008 -2.037743399320392 -74.197808043012060 142 140 115
18.860722628996342 -1.461159222022176 -74.206671816487443 137 137 111
150.474348322358196 -1.510711572615526 103.394111130226747 150 150 140
145.452301340601252 -2.396282836869807 96.604469373659327 150 150 140
143.032854814149374 -2.258906881582467 93.326154822206803 153 153 141
141.279188379025982 -1.867122258102723 90.946162335065480 151 151 139
138.980763541870147 -1.719581723894834 87.831564563005315 150 150 138
136.742851655167442 -1.567084706674984 84.798825468220116 145 145 133
132.265373952660184 -2.393824467122068 78.745788017148186 149 149 137
129.845836051190133 -2.370206613489634 75.468688148478634 150 150 138
127.002580413013746 -2.553584895692155 71.620411913435333 150 150 138
125.612020160956348 -2.120898426144649 69.731442959212927 151 152 138
124.645174822216205 -1.511723156862076 68.413965749400120 149 150 136
122.528260397770538 -1.429515169924304 65.545783173555662 146 147 133
119.987625364849777 -1.559149577934333 62.106475490161387 145 146 130
117.204855768828764 -1.822854602166009 58.340948668308613 143 144 128
115.148457393144227 -1.774484787397895 55.555022620393942 144 143 125
113.878979973788589 -1.375935858677787 53.830197218742200 144 143 125
109.705667311117296 -1.393356620303033 48.177611952783678 142 141 123
108.375686990133246 -1.065535206539300 46.371600080805848 143 142 124
106.077173578012150 -1.220689996077180 43.260160477733734 144 143 125
104.262939315705466 -1.158764677668869 40.801679954121454 143 141 126
102.206573144659700 -1.233024575266069 38.017000788851277 140 139 121
65.087711626591982 -1.162137135773029 -12.293548114910521 147 144 125
63.516144249313186 -1.346785689041666 -14.422145996116569 150 145 126
62.731812225731701 -1.064211751921770 -15.490998423954238 147 144 126
60.376054246490682 -1.008062734912174 -18.688086363485240 142 141 121
59.167949544579400 -1.014556801190088 -20.327244066850199 138 137 117
55.664965608635896 -1.020950419265238 -25.081178071783626 144 143 123
54.275312652107658 -1.186419538119800 -26.964423957118129 149 148 128
53.188506800313590 -1.168285051689784 -28.440146358825928 151 150 130
48.478257505186278 -1.433280563104883 -34.831044533295994 150 149 128
47.149354647985646 -1.626877550894016 -36.632204638709339 146 145 124
46.123340053745508 -1.628163534365607 -38.025950580082707 146 145 124
45.157940281866530 -1.597395226072456 -39.338165510710780 148 147 126
44.192584450324915 -1.575109051222293 -40.650314151385061 146 145 124
43.227272493346831 -1.561300981366996 -41.962396512106380 147 147 128
42.443739816816858 -1.430267647878269 -43.030071461272939 148 148 128
42.023741524609036 -1.053040215626905 -43.609040903820642 146 147 127
38.522536924900535 -1.533319088216102 -48.358948198125603 144 145 123
37.436314407206567 -1.656277581134237 -49.833497323951917 147 146 126
36.531894010279231 -1.658176369980715 -51.063689434775142 148 147 126
35.748701312353788 -1.580364759181512 -52.130979190612834 148 147 126
34.965562100252740 -1.509361419696313 -53.198224452928770 146 145 124
34.606639832271824 -1.134692247089267 -53.695527237743335 146 146 122
32.858860843744409 -1.157561967187597 -56.074068013692880 145 145 119
31.651736945441357 -1.428865281623571 -57.710969115521976 145 145 121
30.808255150537008 -1.438108125527819 -58.859379563704522 145 144 122
29.964821951213409 -1.454682710176915 -60.007737790555609 145 144 123
29.424475220426586 -1.248616556492725 -60.749088873423688 145 144 122
28.762979707297291 -1.139671090588369 -61.653200851894724 146 144 121
27.798484723590960 -1.269111783941613 -62.964199518347215 147 145 124
26.773413034063793 -1.453783703258285 -64.356508858540479 145 143 122
26.051459654816199 -1.411963372520336 -65.341865933276182 143 140 121
25.632661467101400 -1.139529434216875 -65.920330809622783 142 139 120
23.527976733096821 -1.017639300765534 -68.794772495723038 144 143 122
22.806321445032864 -1.005198312455418 -69.779969759928719 144 143 122
21.302542849424825 -1.047913054082261 -71.831599673029700 144 143 121
20.338496509257894 -1.251493931134363 -73.142049806857983 142 141 116
155.040077447358300 -1.287896799238822 107.637403747828955 150 150 138
152.063950104797186 -1.308858157504005 103.629303271886982 149 149 137
146.596168691651314 -2.363596640861332 96.278628468171490 150 150 138
142.951480165239161 -2.722192935856454 91.374393082839589 154 154 144
141.129920779281576 -2.360259627504581 88.916328740321859 152 150 138
139.916076973089616 -1.760932362293471 87.273680581469335 152 148 137
137.972958209296280 -1.480308618504945 84.652889018991146 149 145 134
135.847511527890958 -1.294873862501777 81.787725680639397 151 147 136
130.197180257423838 -2.647409473299685 74.194870823609591 154 150 139
127.767822577120171 -2.648074606784642 70.922718660459793 151 149 137
126.128523279571240 -2.323002835644760 68.710417805464289 149 150 134
124.914650216573676 -1.823633073722125 67.068812555762946 149 148 133
123.579235174502628 -1.389714303601747 65.264308522336734 148 148 131
120.238226011213612 -1.876653160898353 60.770409489682322 147 147 130
118.173499346024528 -1.809377653226744 57.988273061125255 144 144 128
116.108772821306033 -1.760571068293876 55.206326675267206 144 143 126
114.894928232648624 -1.333280704169383 53.565449752990247 144 143 125
112.708656195005815 -1.374853574308713 50.620862875184912 144 143 125
110.704719799214487 -1.349276169045508 47.920932694555319 142 141 123
108.579231022849754 -1.399932377603157 45.058219697188093 142 141 123
106.514525102008605 -1.440132919899327 42.277179649579608 143 142 124
104.267485617752769 -1.587884206985110 39.251897772805165 144 142 127
102.932151870513721 -1.306038256644927 37.448920210138823 141 140 122
65.663239939270042 -1.244392250338842 -12.789749963575048 146 143 124
64.267725080847995 -1.319194049645754 -14.671124819403985 149 144 125
63.297837999690088 -1.147259035354424 -15.982646136475125 147 144 126
61.054184921815164 -1.016792819521360 -19.012411890976580 140 139 119
59.597999246517915 -1.174435035579979 -20.974768202869967 140 139 119
55.959277755493204 -1.260911333346193 -25.884659265310745 145 144 124
54.624825132963579 -1.388937972586223 -27.683839330551024 149 148 128
53.776875504583629 -1.215292450102470 -28.831994944343677 150 149 129
50.686011395748778 -1.098837296862516 -33.008338011611102 149 148 128
49.169292257015059 -1.400233765982941 -35.051114472265596 149 148 127
47.835040697645667 -1.593399258596988 -36.849720218491768 146 145 124
46.744086521238799 -1.635076666045899 -38.322842402053453 146 145 124
46.078904132724787 -1.398757761506515 -39.226501710768815 145 144 123
45.657064213735751 -1.002788778040361 -39.804783041578503 147 146 125
42.628052943437609 -1.059257566162769 -43.898077416869683 148 147 127
39.842747807669042 -1.023231051515814 -47.665476532500179 146 145 125
38.569689085622315 -1.272543108630115 -49.381919892635580 147 146 126
37.296655652093008 -1.533032568661225 -51.098260296087773 149 148 127
36.084482784707006 -1.760893196304429 -52.733193165812963 147 146 125
35.176528203563379 -1.778994302934424 -53.961527756425028 146 145 124
34.816181940508571 -1.405835467265669 -54.458133760220505 145 145 121
34.334234080778344 -1.124899658650339 -55.117334448876477 145 145 119
33.304762365198897 -1.252100602122773 -56.508130409313594 145 145 119
31.849402538730047 -1.704474592422415 -58.467847982242944 145 145 121
30.941687243521486 -1.760656264966702 -59.695905064031137 143 143 120
30.642526258516199 -1.367536943041345 -60.111128473511826 146 145 124
28.224138827085355 -1.366048145765991 -63.388550937610859 148 146 125
27.255818797744610 -1.504299831237355 -64.697629019374830 146 144 123
26.652714342824197 -1.368429404191399 -65.519093347175726 143 141 120
25.806215807081884 -1.427129322955954 -66.665551510365248 143 140 121
25.264104922966126 -1.254944015022479 -67.405709875762142 142 141 120
24.235101293083517 -1.470625522242940 -68.795818991900717 143 142 121
23.571368647151417 -1.406126332801282 -69.698403225855657 144 143 122
23.151203396977877 -1.153416729913910 -70.276011071714834 144 143 122
21.519662677591782 -1.295517670918934 -72.487214760495675 143 142 121
171.098063233243579 -1.578902943459075 127.229599552898122 137 137 129
169.147329604558649 -1.076020126201581 124.610163091385886 138 138 130
161.889983770400391 -1.413901679959761 114.893323141381245 146 144 132
159.084951142040239 -1.310854975354635 111.134671718102993 151 149 136
156.279889234749874 -1.232875185087508 107.376292328106445 152 150 138
150.790104398032497 -2.248648938939137 100.035742803271148 153 151 139
147.069729643475284 -2.601092767071341 95.056793234700592 154 152 140
144.447617400521466 -2.539762165653662 91.543639385610504 155 152 143
142.069552581002455 -2.401438635919726 88.356377098466623 153 151 139
139.874524036140741 -2.208237396368434 85.413562655848494 152 149 138
137.862536812094788 -1.957714740355630 82.715168489391402 149 146 135
134.996287561360589 -2.087957508912308 78.877345369245262 151 148 136
131.763909144918046 -2.400856760823280 74.551404052407349 154 150 139
128.775584933715834 -2.636728351921394 70.551350695603958 152 150 137
127.556805204423156 -2.124173746543358 68.911957060022360 149 150 134
126.032934684280065 -1.757513853473339 66.865725155982489 150 148 133
123.288665106229047 -1.949808896110583 63.191903883606528 149 148 131
120.971529450335908 -1.973774187460433 60.088022698714468 148 147 129
119.569706740249558 -1.601253617129165 58.205060983634070 147 144 127
117.313593168183814 -1.634351843249070 55.182939937811284 145 143 128
115.850765139043347 -1.318991890123957 53.218892456285118 143 141 126
114.204882057947827 -1.102536162179140 51.010859300267612 143 141 126
111.643665113608591 -1.334101262967782 47.582447156573409 143 141 126
109.753703292209778 -1.267666093832734 45.049289130578870 144 142 127
107.680678168601176 -1.306340348547916 42.272213250213809 144 142 127
105.973806275522975 -1.185233161352607 39.983479518305074 143 141 126
103.839772631639121 -1.289114611136446 37.125402230415546 143 141 126
66.542999322890353 -1.144271515813655 -12.879077775391636 145 142 123
65.080838536326922 -1.254840507108069 -14.839060162886284 149 144 125
64.107063950812488 -1.082227886196667 -16.148728686143869 147 143 125
61.732320041916552 -1.025488290331245 -19.336739901131153 139 138 118
60.026095175714147 -1.334252563958935 -21.621358285584250 142 141 121
58.747232975502754 -1.391407807734049 -23.337003248269383 139 138 118
57.590505329005509 -1.383074919502298 -24.890033295209236 146 145 124
56.433816019112598 -1.384892309608289 -26.442977200335292 146 145 125
55.277165017936014 -1.396855814896535 -27.995834993159377 149 148 128
54.303714902377280 -1.301429315655446 -29.304864226206234 150 149 129
53.269255293775103 -1.253961262965694 -30.695071951442003 149 148 128
52.051668536116082 -1.334701904850856 -32.328929214537993 149 148 128
50.773058722731875 -1.466107317893551 -34.043930623923728 149 148 128
49.799779391864433 -1.407408847758524 -35.352663499727328 148 147 126
48.521240475245804 -1.559878221781414 -37.067482003950715 147 146 125
47.364858063294932 -1.641940238581124 -38.619746729746254 146 145 124
46.452769103794679 -1.569803679120773 -39.847032309552588 146 145 124
45.907123495192195 -1.257500944631081 -40.586941973931545 146 145 124
43.293468385335544 -1.023251417847377 -44.105921627872476 147 146 126
42.137348500583300 -1.158337120266480 -45.657766146347058 148 147 127
41.286634486613025 -1.089959678443585 -46.803515710312524 148 147 127
38.490488679760261 -1.103132176512307 -50.565222255901688 150 149 128
37.395650205165438 -1.240500048311437 -52.035501214504166 146 145 124
36.178680685740062 -1.475554207873260 -53.668065335697520 145 144 123
35.633681161252397 -1.233399717074461 -54.407562013390674 146 146 122
35.027666071113785 -1.040479604672345 -55.228221144350641 145 145 119
34.055180107838041 -1.122084367770996 -56.535889352828718 146 146 120
32.532908299696487 -1.618638385893125 -58.574000580780847 145 145 121
31.560487272439687 -1.719564870264866 -59.881500966244346 144 143 121
31.626748991602398 -1.051742544208203 -59.809215691332412 146 145 124
29.804392830621865 -1.193873879523388 -62.261710268812635 147 145 122
28.648867821426037 -1.462898002584369 -63.812460678265779 148 146 125
28.104429166136811 -1.273853447200609 -64.551678986615656 147 145 124
27.437847225545255 -1.183552992669651 -65.453165713155016 144 142 121
26.465772954970589 -1.335727159659208 -66.760304467684847 144 141 122
25.615964272697084 -1.401034391023522 -67.905111055732306 143 142 121
24.827319903435054 -1.425734778362675 -68.968737543194862 145 144 123
23.977608791343613 -1.505375492892936 -70.113443266740148 143 142 121
23.678044227022582 -1.156146379541711 -70.528021821294089 144 143 122
22.767326563494805 -1.296643451268435 -71.753774679609421 144 143 122
22.101161065353963 -1.248926524958103 -72.655022297141755 144 143 122
21.312796732672822 -1.305427411656135 -73.718455414629631 145 144 123
18.044343157019043 -1.131512491198600 -78.143008406707338 138 136 111
159.602271811685654 -1.541784112426105 109.891834388303835 151 149 136
156.663412334694158 -1.514080314383683 105.976263043236230 155 153 141
153.173179057391906 -1.731078761657204 101.329255913140656 155 153 141
149.192824458317887 -2.175531412847378 96.032191364405662 155 153 141
146.621443876436672 -2.084314778017259 92.605318915517159 155 152 143
142.947332681463024 -2.467716370403505 87.715414567359858 153 151 139
140.314646979700797 -2.452473156298161 84.207793425350843 153 151 139
137.681944671962469 -2.460626214902650 80.700421057172122 150 148 136
135.661856630794773 -2.233072628187306 78.006138726027672 151 149 137
133.090392565865557 -2.259109991560748 74.580513169450001 154 152 140
130.457652945430453 -2.334433197079330 71.073850067603161 153 151 139
128.682600342207138 -2.059020634965842 68.705286526063105 150 151 135
126.356167846851136 -2.042324078069771 65.605434364472472 152 150 135
124.213525519688503 -1.964487824810487 62.749604929550884 151 149 133
122.744802051892634 -1.602799315599569 60.787900922568298 150 149 131
120.847226912269093 -1.448801425148929 58.257483754837978 149 146 129
118.888390055907081 -1.339721184760814 55.645977457424124 145 143 128
115.338335530711177 -1.001991162476457 50.911019623541449 143 141 126
113.011912324890929 -1.116724070664254 47.812515887377373 143 141 126
110.869295746833785 -1.164591846402824 44.957968068890693 143 141 126
108.726684666580326 -1.231437169606690 42.103612965703206 143 141 126
106.400271902994831 -1.406349355790090 39.005723689549654 143 141 126
104.502751489067677 -1.392067983571614 36.476718513543460 143 141 126
103.217946319195860 -1.092188008342148 34.760241504304844 143 141 126
70.053896612970064 -1.043228901517176 -9.460210380663597 144 143 123
62.287877359801712 -1.109241438146203 -19.823372274332854 145 144 124
60.513532138761477 -1.456189290668929 -22.185867956689691 144 143 123
58.984380093408092 -1.666359890618780 -24.223635591133075 143 142 122
58.190798711165044 -1.429612175671837 -25.287591445165333 147 146 125
57.519864575340520 -1.122496169252169 -26.189227887817708 147 146 126
56.419903892197368 -1.093506470545178 -27.658768801452226 149 148 128
55.136087267129767 -1.191638368562194 -29.371621790981379 149 148 128
53.545801450604898 -1.498222222021021 -31.490009693713574 149 148 128
52.691159440731752 -1.342132093074538 -32.634782988654791 149 148 128
51.836570067213714 -1.193456239841024 -33.779505145783247 149 148 127
50.736814308080710 -1.213232092138736 -35.248642126047571 148 147 126
49.575793667197786 -1.283118709930325 -36.798813266518920 149 148 127
48.476119050467219 -1.322319597754472 -38.267789113381497 147 146 125
47.621722858783059 -1.206787790546154 -39.412262519721224 146 145 124
46.460825287081690 -1.305387556531741 -40.962196977208578 145 144 123
45.667840483343312 -1.164375218501925 -42.025452780024580 145 143 122
44.507027011773246 -1.281554911331210 -43.575236218205731 148 145 125
42.978354361192430 -1.661822610827017 -45.611482298569996 150 147 128
42.308144593963476 -1.461342050946952 -46.512367624455379 150 147 128
41.637998653561240 -1.266598520113960 -47.413224430753814 147 145 127
40.967916934873216 -1.077586867295188 -48.314052959400300 147 145 127
38.283462713374860 -1.026694768266324 -51.908134055816646 146 145 124
37.306973759302466 -1.083929574122174 -53.214138099431040 144 143 122
36.391860773221836 -1.105257529058591 -54.439014918087565 145 145 121
35.660796187562852 -1.000616188112595 -55.420659871123320 147 147 121
34.745786482202647 -1.036900600122849 -56.645432144596356 147 147 121
33.892162438143188 -1.035901372650738 -57.789096002333594 146 146 122
30.478184786266667 -1.105196832887473 -62.363245058375156 146 144 121
29.256721896412529 -1.420048843632551 -63.992838167188125 145 143 122
27.371806074358858 -1.054800940268781 -66.531486011557178 145 142 123
26.395932730057510 -1.213576589583138 -67.836739349864445 144 143 122
25.542822417992454 -1.284935056435335 -68.979904161129809 145 144 123
24.389059740782272 -1.013396742932077 -70.537061944878985 144 143 122
23.229263012983878 -1.347862079280685 -72.085095159511752 144 143 122
22.008109384729082 -1.741394596102676 -73.714026320039039 143 142 121
21.830376570894401 -1.307602011159568 -73.966041450874485 143 142 121
17.996559392257439 -1.588988206330476 -79.113169754366737 138 136 111
18.003551609515583 -1.022789728455194 -79.122342972502196 134 132 107
161.898705456972777 -1.084231502746138 111.005696283457638 152 150 137
154.644334843462161 -1.577900823848718 101.399895484764102 156 154 142
151.386132611882744 -1.725569315761798 97.084607389353494 156 154 142
143.762528147417498 -2.559078822087133 86.993791635553691 152 150 138
140.135198250039139 -2.950285535377042 82.192446501930505 154 152 140
138.353060125874379 -2.604505372823568 79.826548320260713 152 150 138
136.570918595460029 -2.274530600406837 77.460814460949678 153 151 139
133.435596215324153 -2.536237445027299 73.309632689698788 155 153 141
131.407409278913434 -2.349601305573989 70.619646026117692 153 151 139
129.256202029586120 -2.234354428916223 67.767528934261492 150 151 137
127.166501380273687 -2.111149186352921 64.996764261247336 153 151 138
125.630388270312679 -1.761093272960214 62.956560083316248 154 152 137
124.401834682020151 -1.286992655172635 61.322238054590059 151 149 134
122.496677644814639 -1.129591210352508 58.795413006179473 150 147 131
120.037925914025436 -1.241671713812858 55.538469710401074 145 143 128
118.317311752926869 -1.035357084729023 53.255433149404837 144 142 127
116.227635599426577 -1.015922603617753 50.485724922255741 143 141 126
113.953427514760264 -1.101584077381347 47.472801289151761 145 143 128
111.310144725310209 -1.382231233437357 43.973295505791469 145 143 128
108.912914397785613 -1.568487333391375 40.798542993166762 145 143 128
107.192341692073498 -1.449237397020160 38.516382800675444 143 141 126
72.174883157476586 -1.016310253161319 -7.925405807421527 146 145 125
70.331752348814405 -1.304199198656444 -10.366461508356451 144 143 123
69.227019020690719 -1.173964144756904 -11.834761374293834 146 145 125
67.753131184340177 -1.272132002907595 -13.789261232460547 147 146 126
66.833075896072245 -1.052609024783006 -15.014252870338538 146 145 125
61.368737553631846 -1.351176828669871 -22.263499587028519 146 145 125
59.648883618335020 -1.674624165084012 -24.541446731401976 146 145 125
58.852155877891263 -1.437743660567620 -25.603898745325552 145 144 124
58.055482964681531 -1.207757370374042 -26.666306022798523 146 145 125
57.074236243440282 -1.101360474143671 -27.971718310218677 149 148 128
55.539138146382470 -1.356019488196116 -30.006183432312582 149 148 128
54.311792590105313 -1.426857611204279 -31.635474051201413 149 148 128
53.453766666357723 -1.270084716816088 -32.778635521391806 148 147 127
52.411148863121355 -1.240683470095792 -34.164754423568780 146 145 125
50.937726438821457 -1.502125456307627 -36.117796270643197 145 144 126
50.079843122050320 -1.371110966001782 -37.260760819329136 151 148 129
49.345119880771051 -1.165893749975574 -38.241690762064167 148 145 126
48.118020558098181 -1.295571044272722 -39.870493517116927 147 144 125
46.767844099376575 -1.518594020163157 -41.661173508004509 146 143 123
45.971716251715435 -1.378800271905061 -42.722913145824663 146 144 121
44.806288904841523 -1.497183252727997 -44.270476935827674 146 144 121
43.209969881995178 -1.920801766166359 -46.384773876787506 146 144 124
42.660234051374275 -1.636948199995136 -47.122433951391827 151 148 129
41.618051429354082 -1.699396557441573 -48.507815588653898 150 147 129
41.006878573111692 -1.469991109421855 -49.326382823877424 146 144 126
39.903225969145581 -1.591785266706033 -50.792605441267995 144 143 123
39.600028934967341 -1.157294691467379 -51.206323873752183 145 144 123
38.804341147614366 -1.075630754928568 -52.267675675561435 145 144 123
37.885562298477765 -1.088913466053749 -53.490881571633594 144 143 122
36.658949848414863 -1.331811187903673 -55.118751810136246 145 145 121
36.109732406009428 -1.094536704289758 -55.856180417989918 146 146 120
35.191104093390280 -1.131214895960974 -57.079217508781909 148 148 122
34.149358123567737 -1.266105938727104 -58.464062350006571 147 147 123
33.538750013761472 -1.091901447701457 -59.282331546808393 147 147 125
30.783464044170941 -1.294009667512994 -62.950781603270514 146 144 121
29.926724498850902 -1.330584068895700 -64.092568251646611 145 143 122
27.116330482453137 -1.073674542971829 -67.850238592578791 146 145 124
24.547095663913325 -1.306707943011987 -71.274799898796601 144 143 122
23.259460699479732 -1.740139717883894 -72.982374797788623 144 143 122
23.142614759335743 -1.253486403116545 -73.153203237421565 143 142 121
22.163163087212382 -1.457544307121821 -74.456278602968865 143 142 121
21.430250908370127 -1.471735125770941 -75.435816474643929 143 142 121
21.128804536887642 -1.143211168467873 -75.849281650529548 143 142 121
19.478407804078103 -1.349797434184336 -78.050800907279751 139 138 117
18.437541853715786 -1.640954396213781 -79.434458223189466 138 136 111
18.259702060560812 -1.227737318908358 -79.686210381448490 135 133 108
159.575209179210674 -1.236059049169195 106.021573105041170 158 154 143
155.007306401463325 -1.861765185423390 100.009725359928325 158 154 143
153.773889639913278 -1.202121052056497 98.375819964004137 156 152 141
150.687942600808185 -1.297983472949552 94.310168963802568 155 151 142
143.402882484870702 -3.127119803956987 84.732796550689187 153 152 140
140.687374645001398 -3.143630650985844 81.154265211242659 153 153 141
139.021636593396551 -2.748348663854452 78.953889856539291 152 152 140
136.306105028296258 -2.808116948549133 75.375815137698623 154 154 142
134.393347948721583 -2.551563044522622 72.851605297434162 153 153 141
132.665849420316476 -2.232554025084166 70.570702174187090 149 148 136
130.506077389641121 -2.115787568274301 67.722666802568227 149 150 136
128.840336514385626 -1.802172221866048 65.523133434448397 152 150 137
127.421620023623063 -1.394227062744225 63.647889003048306 153 151 136
125.632384464857552 -1.163958982362986 61.286575233653622 150 148 133
123.596134131241257 -1.060640792191498 58.601303705164014 150 147 132
121.312864779350818 -1.087514299680011 55.592109817171206 145 143 128
119.276622832489267 -1.021117415676780 52.907214326038854 144 142 127
117.055116951602685 -1.058456645772760 49.979439619086065 142 140 125
112.426846327139032 -1.279162707236745 43.881443890773767 143 141 126
109.773046675452008 -1.581822235466515 40.387195922663835 143 141 126
108.169146944180042 -1.403035748118248 38.270324709334915 143 141 126
89.292293019865866 -1.018699687401613 13.374171972474926 142 141 121
85.714415553314723 -1.222760190013531 8.658101460412581 140 139 119
71.162157835963640 -1.241853790726486 -10.542648629779421 144 143 123
69.929496855938567 -1.183305416330136 -12.170728208382940 146 145 125
68.449763756574370 -1.281309456175695 -14.122433399023919 147 146 126
62.348990908565085 -1.170516767266607 -22.180014632166774 146 145 125
60.807675244355934 -1.378179279412433 -24.211989050050647 146 145 125
60.007812831728998 -1.138994681156719 -25.272965164740896 146 145 125
57.728587412257568 -1.109167571329809 -28.284677304079480 148 147 127
56.063827790496489 -1.441992129189341 -30.478025969829417 149 148 128
54.893413914729663 -1.473775561943333 -32.024095634154634 148 147 127
54.093793949949514 -1.277421409310492 -33.084746859770689 145 144 124
52.676294776279292 -1.487769985453344 -34.954209243474025 146 145 125
51.814980411115158 -1.348121523539511 -36.095621264176572 146 145 127
51.077314321829093 -1.134822929493550 -37.075226544196084 150 147 128
48.123069031436245 -1.028888807550382 -40.984242632894109 149 144 124
46.891206289062481 -1.176990723971619 -42.610576930398310 145 145 119
45.906598010439780 -1.168192027610895 -43.913376432989253 145 145 119
44.180359470992272 -1.673774825317314 -46.186394392821569 145 145 121
43.443060069739218 -1.515447450049476 -47.165609248769073 148 148 125
42.520392420738432 -1.491514088946864 -48.387337840043187 151 150 129
41.597776105881167 -1.475492255523191 -49.609009552066738 147 146 125
40.613396946955532 -1.510628240670674 -50.911466422987729 148 145 126
39.999960785170018 -1.293076605291294 -51.728828883348967 147 145 124
39.324777536001577 -1.124491386482880 -52.627006597753621 145 143 122
38.587841447097503 -1.005686678343630 -53.605988434416332 143 141 118
37.418213256141001 -1.203531614067070 -55.150724613189510 140 138 115
34.280496612342858 -1.586539472564374 -59.299512364639014 150 150 126
33.358333590171981 -1.641290005448531 -60.520672434810621 150 149 127
32.930887183631896 -1.338231964385771 -61.095315262188763 147 146 125
32.503527388061883 -1.038663067915868 -61.669963608439986 147 145 124
30.901324732529588 -1.621502798515114 -63.779806895716177 146 144 123
30.041205624413593 -1.659843425746724 -64.919958592184884 145 144 123
30.108791428900190 -1.003376565383757 -64.848189867640428 145 143 122
28.388889732805481 -1.108387820598845 -67.128362635728536 144 141 122
27.343460781055612 -1.314754400168889 -68.510709817416796 146 145 122
26.607337818954576 -1.290534066192845 -69.489107046676565 145 144 122
26.056848209842101 -1.127961389391724 -70.225158111113672 143 142 120
24.516672731179739 -1.745287833933810 -72.253461113201354 144 143 122
24.151882695497036 -1.450001590452270 -72.747139649692400 144 143 122
23.292258537711589 -1.549688310220920 -73.886896662554619 143 142 121
22.123334484884921 -1.903108349075569 -75.430368285904734 143 142 121
20.892552616888651 -2.316149070861986 -77.054492521788745 143 142 121
20.899295769342771 -1.742971066265836 -77.063618431950431 143 142 121
160.322777571757513 -1.373155473565669 105.111055726262038 159 157 145
157.968574441959873 -1.126094433768977 102.022117683650862 159 157 145
154.064472130894330 -1.513333887990239 96.909703147366656 155 152 140
149.044413825045353 -2.381483161558832 90.340648451600288 154 151 140
145.574211064564508 -2.666489399187435 85.795617714187017 153 153 141
142.103982604400926 -2.981935441652767 81.250912603616626 154 154 142
139.005710755858502 -3.174051396616417 77.192148535983733 153 153 141
136.961373405211702 -2.953079102018551 74.509534735920312 152 152 140
136.404975661177843 -2.122021740403528 73.769429054299508 153 153 141
134.050651938864576 -2.062665884186907 70.682480846483998 150 150 138
132.192311007446449 -1.810286987917244 68.243140367837043 150 151 137
130.767965318702124 -1.385362577163822 66.370414149489449 153 151 138
129.095632818111426 -1.081968877784125 64.174139408883519 152 150 137
126.493312487897029 -1.206092493014553 60.764285034916526 150 148 133
124.138989241392366 -1.241843556822217 57.678315582781238 151 148 133
121.846667454684166 -1.270158445984470 54.673467185441780 146 144 129
119.926355006999074 -1.148548670645971 52.154260855090342 145 143 128
111.749182324826762 -1.065649478868437 41.431966104710909 143 141 126
109.270888618378564 -1.297463287802111 38.185604098165555 143 141 126
86.851335777746101 -1.034578117325605 8.777418978995058 141 140 120
79.298024281166633 -1.014674488157878 -1.134091529977837 144 141 122
77.378140705779074 -1.279984168168692 -3.649520275040771 145 142 123
76.326522565321042 -1.070606784946478 -5.033186031526668 147 144 125
75.026873862759672 -1.011827739919483 -6.740080172612721 150 147 128
72.117584334800540 -1.107662063551415 -10.557667155073062 145 144 124
63.083595307223391 -1.141079376413132 -22.420890987403425 147 146 126
61.412138308282522 -1.424459940181170 -24.611544602737013 147 146 126
60.795223968381066 -1.070356267816633 -25.428648713324293 148 147 127
58.569059018304870 -1.000242788088824 -28.355300602268557 147 146 126
56.773663238825975 -1.410405871327929 -30.707075063497228 150 149 129
55.474569245344270 -1.520636496577391 -32.412494874066255 149 148 128
54.547735139471470 -1.403832147313205 -33.633186214389724 146 145 125
53.186681910759262 -1.574847083423364 -35.419198140676372 143 142 123
52.321983255896711 -1.435598312306973 -36.558987014569340 146 145 127
51.395298593909047 -1.344276713310802 -37.779487541585240 148 145 126
50.716840611057179 -1.097712730394744 -38.676901309212695 150 147 128
46.638570803112998 -1.090485408005989 -44.042631811442476 145 145 119
45.277837828166909 -1.342398178641295 -45.827964223982718 143 143 119
44.103293509255536 -1.478754395290219 -47.370981478268050 145 144 122
43.114953615302625 -1.497098925849401 -48.671716390005628 152 151 130
42.436949667369092 -1.309024846702527 -49.568745300419465 150 148 127
41.448716159902318 -1.342914470764355 -50.869371093630775 149 147 126
40.708776528322190 -1.211170087451318 -51.847049240349463 146 144 123
39.782710455268983 -1.217068534398230 -53.066844963419157 145 143 120
38.980827255010297 -1.142728782478197 -54.125157509418784 139 137 114
36.513465095578212 -1.005375765864302 -57.380549150175312 142 142 116
35.339372227428001 -1.229449291950387 -58.922879458625857 148 148 124
33.917003432677745 -1.645333121466333 -60.787896554681168 148 148 126
33.549992946919417 -1.296423243641663 -61.281064810473566 147 146 125
32.872666837298013 -1.180369430693814 -62.177676655632638 145 144 124
31.264146228279358 -1.763856597990963 -64.284490791225892 145 144 124
30.338572031194460 -1.849396904548330 -65.503702032403197 147 146 126
30.282296594053093 -1.287508324732917 -65.593422742511962 145 144 124
27.754496803344736 -1.412831236640213 -68.928056257259954 144 144 118
27.201805683241375 -1.245283792270701 -69.663105334166886 142 142 116
26.338677252767297 -1.323197310630024 -70.801410037486477 140 140 114
25.537705406056304 -1.359950960935286 -71.859015031701801 144 144 118
24.674679788811588 -1.452183947738326 -72.997221523035762 144 144 118
23.687478072119717 -1.649732983961022 -74.296656292872257 143 143 120
23.259353248812459 -1.412094268568287 -74.870301174011445 143 142 121
21.526823423981327 -2.218715743799265 -77.137210662144355 144 143 122
21.471548733561676 -1.694676143823252 -77.227020527491305 143 142 121
21.602783869844586 -1.020368556142393 -77.075026183754773 143 142 121
19.449850167536994 -1.076828022259808 -79.924549886778919 140 137 112
162.250336850951641 -1.054257871911176 105.737659789888198 158 156 144
158.704283420894569 -1.264346297661535 101.117285701212211 157 155 143
155.095959967083701 -1.529977951814374 96.416414227888225 157 155 143
150.305039708186683 -2.298548066852069 90.180151197258425 155 153 141
149.248524099201063 -1.604054532321427 88.793834828682179 152 152 140
145.640125773002069 -1.958317037634361 84.093911495927273 154 154 142
142.093943956859732 -2.318471356781953 79.475143530341853 154 154 142
139.232400534664635 -2.424758218300913 75.745681452687734 153 153 141
137.117752199707667 -2.242069677127168 72.986239375498087 154 154 142
136.372442480859888 -1.496297092831782 72.004809759387086 148 148 136
133.946584350286201 -1.478169533030342 68.841648865929784 151 149 136
132.329889446524817 -1.130533844279440 66.729160769609081 154 152 139
127.042459629519769 -1.385802899619645 59.838271464654184 149 147 134
124.803331061808464 -1.367414294357849 56.918353756068257 150 148 135
122.564205818888581 -1.368568896962910 53.998635624969694 146 144 132
120.636314093800522 -1.247609441404562 51.483061889016454 144 142 129
118.832924979083074 -1.086273266467662 49.129228683006062 146 144 131
112.364625865271563 -1.196679453333929 40.695453242195128 144 142 127
110.187795072801705 -1.280956869410124 37.857648169325614 143 141 126
108.508965416023443 -1.144564702473304 35.666200676637288 143 141 126
79.972332343729320 -1.059463734759553 -1.567076042478249 146 141 122
78.356195948884135 -1.150732500584975 -3.675313463512452 148 143 124
77.051400254126563 -1.080516853518373 -5.379863023864260 149 144 125
75.684378354169596 -1.056951137555789 -7.165022474686992 150 145 126
64.936308612709880 -1.180978840317852 -21.200493163463676 148 147 127
63.507339344918066 -1.300631888525719 -23.065401868085956 148 147 127
62.265226283839638 -1.318378258541753 -24.688174263381200 148 147 127
59.161910737503135 -1.046849835465699 -28.749297967775817 147 146 126
57.670852457258150 -1.261284354743118 -30.694386753288484 147 146 126
56.055260592363197 -1.567438369187037 -32.800672753771266 147 146 126
55.436211176711495 -1.252228413084604 -33.616355098878074 148 147 127
53.882970137773853 -1.541923658091513 -35.641780054239575 146 145 125
53.326321004465157 -1.201009552425532 -36.376720181332701 144 143 125
52.022299443264529 -1.351037444717411 -38.079373007133199 147 144 125
51.465776826630346 -1.022747449955489 -38.814243713054367 148 145 126
47.184680315841049 -1.138370085785808 -44.414254714301734 143 143 117
45.569420726651998 -1.559005252417290 -46.519521262333427 144 144 120
44.452567133464328 -1.654134746755663 -47.979703044500496 145 144 122
43.335755441223895 -1.758814400916048 -49.439806567344476 148 147 126
42.966620223925560 -1.357368345494477 -49.932499140119091 147 145 123
42.410658644523480 -1.088654749781418 -50.667024994524979 148 146 123
41.418625725997671 -1.129198431664248 -51.965764668949049 146 144 121
40.488950604779703 -1.134395116359514 -53.183841059338960 146 144 121
39.621639255595269 -1.103421957460565 -54.321265493954371 137 135 112
35.285928737645875 -1.058659380429055 -60.007659151864601 146 145 124
32.747500285766151 -1.073503255803142 -63.338345167763151 145 144 124
31.569029568379335 -1.340888752600839 -64.878135296272404 148 147 127
28.538685324650586 -1.225022753688761 -68.861707025259392 146 146 120
27.298069686443910 -1.583187463494284 -70.481691685540767 143 143 117
27.117411379679055 -1.132870259343782 -70.732477366792978 139 139 113
25.017176008436891 -1.014520336994946 -73.498152286695841 145 144 123
24.026208740279642 -1.216710406747889 -74.795737857128984 145 144 123
23.534199379351932 -1.030789963098198 -75.449147117216796 144 143 122
22.668066721503607 -1.147873387048360 -76.585611412942683 144 143 122
172.802503740193714 -1.068360227272190 117.540234990415968 151 148 141
166.120033269822216 -1.177220244221529 108.876325822200215 152 150 138
159.249989204762215 -1.475353496835279 99.971522848470983 155 153 141
153.690444222447042 -2.503514907307575 92.775332735465042 153 151 139
150.880191506002291 -2.488516403260461 89.130943793714067 153 151 139
147.944950554898128 -2.548157142150947 85.325399324382403 152 152 140
147.134211618760162 -1.771514598067576 84.264094176626116 155 155 143
145.011272020872752 -1.540012711136928 81.508116150912684 157 157 145
140.388862268784919 -2.362617964038372 75.524371137011372 155 155 143
137.578542229941263 -2.466724526062357 71.881240410343537 153 153 141
136.080448475485241 -2.040219726780089 69.932919861191635 149 149 137
134.394899250390807 -1.706895178386319 67.742659863020350 153 151 138
132.959310400393804 -1.280370897614051 65.875295866211871 154 152 139
130.336447551312290 -1.383998800569493 62.475057990194443 151 149 136
127.838559791628924 -1.455400000213699 59.236418503982208 149 147 134
125.715609266419037 -1.381803722451859 56.482071107622488 151 149 136
123.717644799236879 -1.270554986252030 53.889261003689967 148 146 134
121.782179664915148 -1.148350475388951 51.377297544774962 145 143 131
119.721743187385115 -1.100163723733431 48.704164080222768 146 144 131
117.786299556143902 -1.012142066039944 46.192542195587407 145 143 130
114.538535608630283 -1.552837153988369 41.987164965972312 145 143 128
112.603107272462722 -1.504117281978990 39.475940317249723 144 142 127
110.542706821513065 -1.531557408225027 36.803568083150878 142 140 125
109.419723664573993 -1.127623572584267 35.341181553708765 142 140 125
79.148686919367023 -1.125937704375455 -3.943834767732483 149 144 125
77.713768761993961 -1.125482826071869 -5.807133875194808 148 143 124
65.426222670977239 -1.302009175739495 -21.766197198372453 148 147 127
64.116695375311764 -1.346702975592949 -23.467300356405815 145 144 124
63.119803927944673 -1.212265034084501 -24.765516901038666 146 145 125
60.876086552829790 -1.123419679763400 -27.683964586604361 148 147 127
59.566726950532441 -1.210063451872400 -29.384716156431949 147 146 126
58.570029258257293 -1.112131101162199 -30.682649622451692 147 146 126
57.510857130758225 -1.062135178530427 -32.061060983989847 145 144 124
55.080014027903189 -1.189146212009790 -35.220343099342841 145 144 124
53.708327654149898 -1.368863510451747 -37.001178587702043 141 140 122
52.586803406765242 -1.398256346548688 -38.459802605357481 143 140 121
51.777993876793829 -1.233266993651862 -39.515734720845245 146 143 124
49.972947741092639 -1.047833616619577 -41.869023258303372 147 142 122
47.417639187826254 -1.395582129893975 -45.188207136883904 143 143 117
46.421479075139743 -1.396148153052085 -46.485383885892617 143 143 119
44.487202290288437 -2.041551858153089 -48.990014470140750 144 143 121
43.491114583468814 -2.063129242560088 -50.287009577371521 147 146 125
42.620173126719166 -2.007222391039376 -51.422954035994508 144 143 121
42.312242385260646 -1.569485928759431 -51.834441290687522 134 132 107
41.566538728185492 -1.438808316356629 -52.809350966557929 146 144 120
40.946010096401253 -1.226811557433041 -53.623263234448814 148 146 123
39.887659165801807 -1.328418623301658 -55.000506928049532 139 137 114
37.526194621934948 -1.103653571109612 -58.085741631259083 140 140 114
36.155218033612854 -1.463416075405723 -59.865063382784768 141 141 117
35.159669045851658 -1.562303370062049 -61.161520421623123 144 143 122
34.977585832083236 -1.075440465370496 -61.412000615503700 148 147 126
32.429496105363953 -1.111496484097841 -64.737846363387462 148 147 127
31.559386272268895 -1.153383335480451 -65.873182028204923 146 145 125
28.392449024111244 -1.154494881068259 -70.011921793285694 144 144 118
163.051988359364628 -1.592300348467348 103.031654214265444 155 153 141
160.418969229422771 -1.443687215164303 99.633678624497549 155 153 141
155.088568936255996 -2.372811495152528 92.770282578391061 153 151 139
148.191433665437870 -2.865125017072724 83.880438739695393 153 153 141
147.252052542515571 -2.142347627741513 82.659512264404810 156 156 144
145.559910068309705 -1.735171973789228 80.471646267479457 157 157 145
142.926799779388773 -1.731001060647907 77.075201104188380 156 156 144
139.791827211606602 -1.958917072246489 73.034363042807627 154 154 142
137.033233777068517 -2.055425121572207 69.477267155556035 153 153 141
135.905679304528775 -1.481676728173392 68.015319541277506 154 152 139
133.147082666978122 -1.618943311051199 64.458644734397410 154 152 139
130.576680900511747 -1.698380016630576 61.143919529051658 151 149 136
128.382680540478475 -1.635012473047347 58.312808534711962 150 148 135
127.192433933656972 -1.146149606673307 56.770867507035263 151 149 136
118.102865661118472 -1.285626248214952 45.046183201854888 146 144 131
115.532492001534465 -1.508030054484653 41.732916182460940 145 143 129
112.585698329448832 -1.929082458617672 37.936618687075367 145 143 128
111.207347764428988 -1.633700398158958 36.154080888604625 143 141 126
110.268191056310343 -1.140616810834545 34.935411407733426 143 141 126
90.841915610637741 -1.025918903925348 9.861440024721844 142 141 123
80.004417326346996 -1.066293276777289 -4.132109441448478 147 144 125
78.312895481739872 -1.205492532066687 -6.314648234030471 145 142 123
77.186180656840136 -1.040981533486923 -7.772785046773777 145 142 123
75.808493718381385 -1.028646432978765 -9.552726777367269 144 143 123
74.368088821029346 -1.064027510303884 -11.413032169736880 142 141 121
72.864962921821686 -1.147933386003532 -13.353691444602447 141 140 120
71.299112755117065 -1.281173009848130 -15.374694712765887 146 145 125
70.109844473995494 -1.207549325572966 -16.912829502604467 145 144 124
67.605918625903200 -1.165324641910497 -20.149749996316359 148 147 127
65.726398381704016 -1.535558149310567 -22.572549502080847 147 146 126
64.537291259556497 -1.506117594445064 -24.110306590673503 145 144 124
64.038637967045915 -1.068046604565353 -24.763132928907453 145 144 124
60.032377887524689 -1.334313138136235 -29.938779658894248 144 143 124
58.717956787213353 -1.432831101934103 -31.636987598401163 145 144 125
57.780202049364945 -1.305996140649655 -32.852557795948741 144 143 123
57.030821349235268 -1.068015824906762 -33.826812907655437 146 145 125
55.653761734960355 -1.236081694005553 -35.605197790182359 143 142 123
54.402288171066473 -1.335412732369412 -37.222652361039877 142 141 123
53.088076980794980 -1.485923479921228 -38.920425532948201 142 139 120
52.213356122653252 -1.362119759661368 -40.055260835478350 145 142 123
51.652598540759712 -1.040404897824962 -40.788037867389392 146 143 124
50.589656794407119 -1.054017262288260 -42.163991104136045 147 142 122
49.338410992933120 -1.201461399473423 -43.781059383458398 141 141 115
48.463919941719183 -1.108287531861498 -44.915689336374641 143 143 117
47.149972234688434 -1.317539054623360 -46.612983909454130 143 143 119
45.961637189390217 -1.453132397520766 -48.149411580149433 145 144 122
44.271007007857293 -1.940384417138213 -50.328794259339787 146 145 124
43.459497780264627 -1.840536888354726 -51.382764311219375 145 144 120
42.522459121574457 -1.833987050100643 -52.597438923384289 130 128 103
42.025060372593572 -1.530738864430533 -53.249477632089736 145 143 118
41.653345615025941 -1.143989621239528 -53.740784879970107 147 145 122
40.842107974437951 -1.068642893394828 -54.794632659089530 141 139 116
39.094207874637561 -1.027552661570080 -57.062914982816523 135 135 109
37.906299182580241 -1.242424143020233 -58.598730569734840 138 138 112
36.592801196587700 -1.557679691343060 -60.295149135130572 139 139 115
35.781838518723774 -1.520662886958899 -61.348733906317193 142 141 120
35.285020239875251 -1.261904991291465 -62.000592349039295 146 145 124
34.725469953205007 -1.053158084589138 -62.732784110934489 149 148 128
33.600606505847139 -1.265264501760957 -64.187929904091163 147 146 126
32.287304499558246 -1.626468932472507 -65.883969250576229 147 146 126
31.350982583096723 -1.718020381136383 -67.097976943938448 146 145 125
31.043009266850333 -1.346658056773629 -67.508760608653802 145 144 124
30.546642981193955 -1.119711178875020 -68.160507836583349 142 141 121
29.170665349272241 -1.563562642156174 -69.936571536095613 141 141 115
28.171726149174773 -1.731702893801488 -71.230693853497002 143 143 117
27.926928798108221 -1.330091543898904 -71.561153166900510 142 142 116
25.188964642836567 -1.121344705083967 -75.131260172552430 146 145 124
23.820406677328080 -1.050749783735927 -76.916168870116991 143 142 121
23.073368160762030 -1.073999880746766 -77.888855498542853 147 146 125
21.021255671991980 -1.027917799585336 -80.565949466354823 143 141 116
162.281539193786614 -1.145206760813166 100.180724632607252 155 153 141
153.846198107447293 -2.149111706911764 89.371406012967753 155 153 141
147.991133083746149 -3.357479425301830 81.875011089176297 154 154 142
146.292378913199684 -2.943851816209713 79.690241691901917 156 156 144
145.475283918407285 -2.186381691515983 78.632174612163368 157 157 145
143.713563004826369 -1.824271884373733 76.367199702620042 156 156 144
141.259105312885652 -1.765092105185524 73.217298170172683 155 155 143
138.993574015276408 -1.647840228686198 70.308993787753394 155 155 143
135.846361299596936 -1.923879930493901 66.274506732489556 158 156 143
133.454869465163881 -1.903479931066418 63.205740614314180 157 155 142
131.000399889170978 -1.930955157471165 60.056736750660832 153 151 138
128.797845020342407 -1.869578262023400 57.229738694747709 153 151 138
127.980833349813494 -1.216101653393144 56.172702210469822 152 150 137
116.653342886077283 -1.404957697977145 41.639079525388240 146 144 129
114.009978631571570 -1.677690699465006 38.250390135183096 145 143 128
112.437320997220667 -1.468752055810638 36.229121323404627 146 144 129
79.415022848352223 -1.004759519516912 -6.178815124656296 144 141 122
77.968953916848776 -1.015260810541617 -8.036666962641505 145 142 123
76.522920976510150 -1.038121625575775 -9.894408795887045 140 139 119
75.202924534630824 -1.001539922424660 -11.591340159838694 137 136 116
73.504960645248900 -1.193244568620540 -13.770256635916809 145 144 124
72.437047875848762 -1.035054919479180 -15.145600196708784 147 146 126
70.613142393364072 -1.326499862671130 -17.484957739196972 146 145 125
69.356300817832690 -1.300688400887688 -19.101132426307316 146 145 125
67.343431802826132 -1.732638252262946 -21.681220829707712 146 145 125
66.023653776638284 -1.769019504109982 -23.377505638628207 145 144 124
65.018956964673052 -1.627658757494387 -24.672059383502528 144 143 123
64.329360457963674 -1.304481637410240 -25.564933137004260 145 144 124
63.324775321014215 -1.178810209418276 -26.859378808785124 144 143 123
62.131206572748553 -1.177488764690727 -28.394712026609483 145 144 126
60.811655601173058 -1.264073949563570 -30.090588683375302 144 143 125
59.492143875225366 -1.361882682193584 -31.786368585499758 146 145 127
58.424737156119747 -1.313206818811274 -33.160826958606123 145 144 126
57.420398926491785 -1.233875758197946 -34.454913745322443 145 144 126
56.353094638464313 -1.203009566795493 -35.829237797205025 144 143 125
55.096777293052540 -1.301903376329741 -37.444379620203421 143 142 124
53.966546125929497 -1.330432551513583 -38.898847167396497 143 142 124
52.584263933628051 -1.531676772716830 -40.674392065051507 144 143 125
52.273459188365706 -1.046679185459543 -41.084990888677339 144 143 125
50.702187828462684 -1.390774636598626 -43.101230231641750 143 141 123
50.013353270522529 -1.165805477390400 -43.993457594946221 140 139 118
48.694274550141984 -1.365332126282163 -45.688397611838923 144 143 122
44.805155919648357 -1.330061609971151 -50.701470512005926 145 144 119
43.486283202406455 -1.579513100380092 -52.395995178620240 139 137 111
42.230484041072629 -1.796631212210089 -54.010167956971060 143 141 116
41.983449381332917 -1.323808555831324 -54.340289963325205 144 142 117
40.979942846738425 -1.381576501698430 -55.633363401148387 145 143 120
40.228687186218593 -1.270451668393977 -56.605415751023799 136 134 111
38.973079455095387 -1.522423946711727 -58.219321337486321 135 135 109
38.032776441136974 -1.560617758297055 -59.431973724415116 139 139 113
37.344756084091657 -1.426076876230297 -60.323659774952887 140 140 116
36.278449448840064 -1.569792312810125 -61.696664044104693 140 139 117
35.779746605839975 -1.311157209840463 -62.347619653829497 144 143 122
