ply
format ascii 1.0
element vertex 684
property double x
property double y
property double z
property uchar red
property uchar green
property uchar blue
end_header
32.435835609624931 -1.878491181026289 -54.533966686091759 142 139 120
31.899469973236720 -1.645584192062782 -55.277498597075265 141 138 119
31.663711101989151 -1.192772561943252 -55.612808918447968 140 137 118
31.247710404162220 -0.877365149782197 -56.193054451922364 142 139 120
30.411001594245931 -0.883616369617229 -57.344735867196732 141 138 119
29.333882929474214 -1.080093815802437 -58.822883477536834 141 138 119
28.256793586756970 -1.286088632866730 -60.300947148367783 142 139 120
27.299970141262321 -1.409056271400702 -61.615682482809973 143 140 123
26.343183431995584 -1.540442140937196 -62.930348738656988 143 140 123
25.326309425104100 -1.727063861101808 -64.326559751844144 144 141 124
24.970849562662551 -1.404612527888470 -64.824981435147834 141 138 121
24.735729823054285 -0.990345003140355 -65.160200761066505 139 136 119
23.719005004772868 -1.197257701006868 -66.556274280346571 136 134 119
23.664441971114755 -0.646431583340889 -66.646700326931835 134 132 117
22.232604015755044 -0.611534389050302 -68.622686409460556 140 138 123
20.674788713807331 -1.285796709234229 -70.752823395903079 140 138 123
20.560407471700429 -0.797491206288990 -70.924847945431623 139 136 119
19.844667031094033 -0.802815029643432 -71.912691990255894 137 134 115
18.407182491494751 -1.409184597217265 -73.879375885314630 134 131 112
17.751665933384601 -1.380340657533804 -74.785523650123793 131 128 109
17.697765013655655 -0.855877820357143 -74.875995079253386 130 127 108
167.927272513091793 -1.456878887524682 129.077815564711841 136 136 126
167.145411477671985 -0.517596363061728 128.001021193215905 138 138 128
156.300225825792666 -1.092898515393843 113.240643423265283 148 148 136
152.202829560553567 -1.542233821366986 107.667044811295540 153 151 139
148.828760294944004 -1.736952363564978 103.075094762848181 153 151 139
147.021975854914785 -1.323295260417229 100.609429717838992 154 152 140
145.516587020519381 -0.801810181873559 98.552762545275840 156 152 141
139.791423525362404 -2.051898480948238 90.772934856548602 155 153 141
136.176094165339578 -2.465132284760197 85.855216557976661 152 150 138
133.826677723945011 -2.372231153517191 82.654716540502363 148 146 134
131.778663712976311 -2.170933556849196 79.863205278763473 149 149 137
129.308651746681903 -2.171524069002272 76.499642333644999 152 152 140
127.140047363444424 -2.062080573613290 73.545048823217343 149 149 137
124.911149111251049 -1.998960473725610 70.508917638088377 152 149 140
122.682242197176294 -1.955961260216072 67.472997711165078 151 149 137
121.659041647519203 -1.387502645431513 66.072040873143948 149 147 135
119.791846451610255 -1.214017728901803 63.526889454725449 149 147 135
118.165797749986979 -0.946108057673769 61.308837958268526 147 145 132
115.936883597372002 -0.973787202316178 58.273649022084300 144 140 128
114.371128823080184 -0.709584517092227 56.137650160251980 145 141 129
110.695302955443523 -1.461617466610950 51.141501728442194 144 140 128
108.526664050731000 -1.524160352009186 48.188695075185819 145 141 129
107.443226440490903 -1.081125954544060 46.706987610028335 144 140 128
106.420097246710526 -0.618433771628335 45.307085342616062 144 140 128
104.372059782848595 -0.670110894999012 42.518189296537855 142 140 127
102.384317428984616 -0.710233382533381 39.811188223760155 141 139 124
99.974544150809947 -0.980019775389030 36.532437150079204 143 141 126
98.830893318719021 -0.630445397436928 34.969638629872122 143 141 126
92.025656435628420 -0.504522923682751 25.696890449048965 142 139 122
83.293340273816639 -0.814456708585549 13.803052559661666 141 138 121
82.210200599730413 -0.557915343423711 12.323122229336917 143 140 123
80.765301362912908 -0.512075783167992 10.353271983817450 145 142 125
77.513774364366839 -0.663465742860867 5.923969901821437 147 144 129
75.707137933695947 -0.863931300138990 3.464555522695093 147 143 131
73.237198144496247 -1.460972460848152 0.107097614458610 146 143 128
71.551187821969222 -1.627053399988857 -2.188660049638969 145 142 127
70.468228897687311 -1.456986909606451 -3.667786720723086 144 141 126
69.566217716109051 -1.190406084311240 -4.901894987452209 144 141 124
68.121501541068980 -1.252841930410212 -6.870718275948036 144 141 124
67.038646634254491 -1.112572267459559 -8.349587994918664 142 139 122
65.654293384715885 -1.162982601096807 -10.236553599787982 143 140 123
64.450891071151773 -1.116317562262195 -11.878508102993550 145 142 125
63.488757455578423 -0.933388619697457 -13.193851817450309 147 144 127
62.044185918167969 -1.055157418274096 -15.162133556206186 145 142 124
60.599639581677934 -1.189808476444795 -17.130294747426575 145 142 123
59.094806202176443 -1.374897550072096 -19.179954525006394 142 139 120
58.072500220220093 -1.270757346405986 -20.576559858490043 141 138 119
57.110548529414856 -1.137592236897185 -21.891478360999400 137 134 115
55.967693281960393 -1.128075293266757 -23.451157104167834 139 136 117
54.462974448049906 -1.360573087787602 -25.500383678185528 137 136 118
53.199547981343798 -1.450812291882391 -27.223072493046715 142 141 123
51.996471129394678 -1.513093821065972 -28.864061254218626 148 147 129
50.853747436573556 -1.546600133749884 -30.423360072682442 148 147 129
49.892023791512671 -1.471055719624085 -31.737794552730520 147 146 128
49.352603816946626 -1.124012888990779 -32.481040136354380 147 146 128
48.451300425704275 -1.023298670330064 -33.713779659247763 147 144 127
47.127763382637184 -1.214338623441233 -35.517533072592556 145 142 125
46.045561272030909 -1.253868140700917 -36.994864323746384 145 142 125
45.446025700958842 -0.974276955233774 -37.819515383312734 144 141 124
44.846551585817210 -0.699905944320748 -38.644142109306529 142 139 122
43.945481078102290 -0.638901449810034 -39.876584290741988 145 142 125
42.803124250931006 -0.753435284873774 -41.435224559482606 145 142 125
41.540131418510100 -0.962419284871030 -43.156898523662989 145 142 125
40.337501806308055 -1.140143569148309 -44.796912932525231 144 141 124
38.953886683740535 -1.456664838348554 -46.681492441265050 142 139 122
37.811649747741384 -1.613492793509693 -48.239754710906539 141 138 121
36.669444121627791 -1.780411530725924 -49.797928089601044 143 140 121
35.949674490530384 -1.652663380455131 -50.785214360179452 145 142 123
35.410997427846695 -1.399755482638286 -51.527846372148559 145 142 123
34.570651103482817 -1.371883876354462 -52.678138856370595 144 141 122
33.609654795485127 -1.440072397135423 -53.991441776672389 143 140 121
33.252212598069264 -1.070418369298130 -54.489400998767564 142 139 120
32.049903869676868 -1.332354404851208 -56.128702083484228 141 138 119
31.330462442225013 -1.243511131861857 -57.115744898115622 142 139 120
30.731792795013561 -1.070012661666593 -57.939718147074132 142 139 120
29.891749212175725 -1.084544094524390 -59.089718986021182 142 139 120
29.172477448286656 -1.014411704744722 -60.076650366599097 142 139 120
28.030711977875896 -1.274395324942413 -61.634076350680829 141 138 121
26.888970387355116 -1.544440787576314 -63.191410187221237 143 140 123
25.928358667505691 -1.684093255520389 -64.504161478866337 145 142 125
25.631869315929251 -1.314142410879358 -64.920424503846220 140 137 120
24.490234722965781 -1.609701499809524 -66.477546903078888 138 135 118
23.408996657800031 -1.867675872898008 -67.953090787628611 136 134 121
23.535364249818571 -1.176820721778171 -67.798938159783802 135 133 120
23.118424879014711 -0.918194378932333 -68.378150159252726 140 138 125
21.252341176642204 -1.826229258624370 -70.912700685797802 140 138 125
20.231628509654712 -2.068528709750515 -72.306502178298018 140 138 125
20.479131686747323 -1.290389854715368 -71.989481084305595 140 137 120
20.364422759891909 -0.805380534933150 -72.161314941304511 138 135 116
19.887451463002691 -0.618458062833629 -72.821928674064367 135 132 113
17.671742995061791 -0.736689732457895 -75.862503061902061 135 132 113
17.013820607343305 -0.721244255012694 -76.767361968970448 137 136 116
153.014785315062596 -1.655287617424404 106.836336141324097 153 151 139
150.776978764860331 -1.389229681750881 103.802377714336473 153 151 139
147.873360385900355 -1.413591512356529 99.870483086438156 154 152 140
145.938144386985840 -1.066675301977798 97.245228486669220 156 152 141
138.737043506779600 -2.921700396958864 87.517097864102738 154 152 140
136.801767966167802 -2.633255246983780 84.892473620875791 153 151 139
135.713874726650943 -2.003145060717794 83.410972048418785 147 147 135
133.899642333392819 -1.693947447946643 80.949945332715231 148 148 136
131.116942261003061 -1.820172365951064 77.182970099198144 151 151 139
128.394753872777699 -1.944940085987550 73.497890168643181 150 150 138
125.914668661961628 -1.987230904170648 70.139575471374172 152 149 140
123.858283188869521 -1.862777337699727 67.352860082626052 150 148 136
122.104546494089860 -1.620438832369295 64.974439531432836 148 146 134
119.927094368079068 -1.586695006878117 62.024857965550837 149 147 135
118.597078967984700 -1.183085937034439 60.218082754882630 147 145 132
116.843350542125648 -0.988059708117707 57.840145256894886 143 139 127
115.089627203387721 -0.808792393174016 55.462367539664029 147 143 131
112.306851866227177 -1.131949310833346 51.697455432557831 144 140 128
109.403000732122322 -1.537847877575110 47.769599503215602 142 138 126
108.073017950966161 -1.211379050765042 45.963602731032609 144 140 128
106.621982372227379 -0.955736534518768 43.994528483232642 145 141 129
105.292031327462581 -0.653698642282603 42.188768008351474 142 140 127
102.448714543107272 -1.113103574968167 38.343362306407897 141 139 124
100.876643560525139 -0.962697998372354 36.211556467777342 143 141 126
99.728342983305566 -0.612733010443572 34.650978348957182 143 141 126
82.071461963748348 -1.067528889664629 10.731856751666726 141 138 121
81.044491683031012 -0.791122096922716 9.335709576181785 145 142 125
79.896467909513859 -0.591404132153537 7.776545603506179 146 143 126
78.082481906968169 -0.776328996771142 5.320487266215963 145 142 127
76.207966153430391 -1.011740297562499 2.783046951651016 147 143 131
74.030731796962229 -1.436758976273639 -0.161916521515423 145 142 127
72.761714401424442 -1.358458335419033 -1.883665520478871 144 141 126
71.916565509315419 -1.045614337969353 -3.034593836733592 144 141 126
70.829263313695463 -0.881831983485609 -4.511578015929388 144 141 124
69.197047698313668 -1.048658559768113 -6.722204323394294 144 141 124
68.170362322948719 -0.870696322716513 -8.117474457357218 143 140 123
66.962060684250758 -0.810450226589014 -9.757224936857455 143 140 123
65.572134530707459 -0.870352026293970 -11.641426783124928 146 143 126
63.940021258296397 -1.089578125563873 -13.851562676502880 147 144 127
62.792367105937728 -1.027196975263056 -15.409489797850284 145 142 124
61.463081593662736 -1.086845971315249 -17.211845636356372 145 142 123
60.315497241158639 -1.045619319846462 -18.769588395831420 142 139 120
58.622926555309505 -1.355004835136909 -21.060732498610378 134 131 112
57.475405413917571 -1.336541192779691 -22.618271186976870 142 139 120
56.630722858047577 -1.136384967070692 -23.768262645045894 142 139 120
56.028335204445114 -0.789105647338799 -24.592246026075401 141 140 122
54.154187005939960 -1.264243512844091 -27.127394551749205 145 144 126
52.703994174227347 -1.481750977793973 -29.092001596391185 147 146 128
51.496086407870763 -1.554292269305545 -30.730573655781825 147 146 128
50.348778870332993 -1.597785642375765 -32.287576776815683 146 145 127
49.564915544094674 -1.411426097173767 -33.355663044785814 146 145 127
48.478257505186278 -1.433280563104883 -34.831044533295994 147 144 127
47.331067191524838 -1.505255959349814 -36.387810554057808 145 142 125
46.850207715196845 -1.138416964230151 -37.048416166255464 145 142 125
46.429990048433083 -0.734631638336231 -37.627554034508393 144 141 124
44.559964199517708 -0.645489968993912 -40.170483090817527 145 142 125
43.534152837426930 -0.676071128521244 -41.564024707790821 145 142 125
42.326642251145330 -0.842180537020317 -43.201823633135206 145 142 125
41.300907997023714 -0.891599706231457 -44.595208229199443 145 142 125
39.851129401062892 -1.249040073626543 -46.558573043144094 143 140 123
38.583122242206173 -1.490330156069522 -48.277515628009468 142 139 122
37.799837148210855 -1.396708706129670 -49.344923920500435 146 143 124
37.198372702125184 -1.179300833489964 -50.168012128794800 146 143 124
36.536382537660160 -1.010874832927726 -51.072499730786035 145 142 123
35.995639678615177 -0.760004545803987 -51.814122498706382 145 142 123
34.606639832271824 -1.134692247089267 -53.695527237743335 143 140 121
34.066008982657635 -0.896876798731281 -54.437069210577846 141 138 119
32.798261969455368 -1.202461243946134 -56.155474434057879 142 139 120
31.712337937351450 -1.383692583302757 -57.629566522685110 140 137 118
30.929461464551977 -1.347215604274589 -58.696582081409559 141 138 119
30.328454173290339 -1.180362903314458 -59.519368601225921 142 139 120
29.909336282006791 -0.880665963937698 -60.097961164246925 143 140 121
28.520539927939382 -1.324742425244979 -61.978748999926353 144 141 124
27.616647800921172 -1.408737786700604 -63.208348771999738 146 143 126
26.894642477344277 -1.360151042806270 -64.193750646836151 145 142 125
26.354545594259818 -1.176509242323801 -64.934990430856061 140 137 120
25.450802345778968 -1.281625912864765 -66.164444013666582 140 137 120
24.243989044246462 -1.632802465482097 -67.800671528560684 139 136 121
24.128438503274026 -1.132108847805477 -67.972264206608116 139 136 121
23.467349142347857 -1.065829866612609 -68.876131299340074 140 137 122
22.018127154381219 -1.635255836822003 -70.837580318339036 141 138 123
21.235858457089407 -1.681333386889114 -71.904036859543226 141 139 124
21.605722753580309 -0.802826316396254 -71.424868276273600 141 138 121
17.277691170406598 -0.925676525208109 -77.334927957494159 136 135 114
16.920488602091524 -0.662033116735057 -77.831910596769461 139 138 117
168.585026937421361 -0.851689156079846 125.874587572846650 143 140 132
160.141460975962730 -1.654757191039538 114.512841965451372 144 141 132
152.730795489417119 -2.200713790731114 104.538914777827330 155 152 143
150.787759943334066 -1.818999349250939 101.917042826946783 153 150 141
149.148565152885169 -1.331936139528443 99.703024516857994 155 152 143
145.990066717069737 -1.480481776066711 95.450906381120689 156 153 144
141.008376537886022 -2.410469771965277 88.753274157186098 154 152 140
138.822171725304941 -2.217698439124477 85.806242896536048 152 150 138
136.392862530791575 -2.147122475153129 82.533334217545786 149 147 135
134.753591911709236 -1.761388034368765 80.320395211537203 150 148 136
132.263486674157150 -1.757010821590465 76.966393683226215 152 150 138
129.955691242035073 -1.695553751304490 73.857164872016881 150 148 136
127.526337856450795 -1.708221897900508 70.585134207331777 151 149 137
125.887049742140448 -1.391628647505494 68.372915275986543 150 148 136
123.457684373193004 -1.444256154854658 65.101301665875440 148 146 133
120.481329364164424 -1.766486944844860 61.096411222396540 147 145 132
119.085143599968390 -1.392195209792993 59.210734580235879 146 144 131
117.628191252148170 -1.058502233160195 57.243687481885530 146 142 130
115.259591430588642 -1.163160743903255 54.054398308367439 145 141 129
112.526323180879672 -1.460725226360635 50.376397629448917 146 142 130
111.008610563731636 -1.204804036217974 48.328359694823376 144 140 128
109.247796115186787 -1.079117865632218 45.954525877853541 145 141 129
107.547770608817387 -0.939729886768298 43.662328684638652 145 141 129
106.333994109829888 -0.577880933628009 42.022092809815206 142 140 127
104.208535808062308 -0.676532275412318 39.159859271522038 141 139 124
102.143864220094613 -0.763898953602126 36.379288303915644 143 141 126
100.261544070674304 -0.778128793363636 33.843304853699266 143 141 126
98.926271989717435 -0.532054216263579 32.040666002809616 143 142 124
84.780120776329952 -0.870103375702458 12.981495777694988 142 139 122
83.323464267255275 -0.812909097087243 11.017153291102545 144 141 124
81.623679521500094 -0.902632341197690 8.727199275748774 146 143 126
80.531805399264272 -0.669828051426019 7.251691813121141 145 142 125
78.345748648464067 -1.059322921376768 4.310583278753285 143 140 125
76.949977858231193 -1.022285087140041 2.428179638293983 145 141 129
74.824737280261729 -1.412532731863479 -0.431156511086357 144 141 126
73.429012636929329 -1.403508006739794 -2.313293875060054 145 142 127
72.519661528225740 -1.125929168499332 -3.544003953883760 145 142 127
71.610352877954980 -0.856390947533485 -4.774651578563294 145 142 125
70.153932835086508 -0.915806414110133 -6.737906867091255 145 142 125
68.940723469268505 -0.844411478139444 -8.375424267368714 145 142 125
67.362767877435573 -1.000943427832008 -10.501255466954234 145 142 125
66.028026809421448 -1.025573057126581 -12.301361858228944 146 143 126
64.450121530610474 -1.208971969762783 -14.426940572245286 147 144 127
62.993838758135396 -1.332316844262791 -16.389603472947755 145 142 124
62.388795371666490 -0.946588764841799 -17.212712132875595 143 140 121
60.689372953388173 -1.242113405533138 -19.500721067291579 139 136 117
59.415589914419868 -1.287908346218496 -21.218912820612047 138 135 116
58.141839820922954 -1.344946763830756 -22.937004600176863 140 137 118
57.476176861982523 -1.029558572716907 -23.841247905535226 143 140 121
56.445730853162317 -0.951809161961400 -25.233687424379838 144 143 125
55.172096002538765 -1.038756993343838 -26.951526463119109 145 144 126
53.898493791605588 -1.136931878061073 -28.669265550874456 146 145 127
52.868165714005556 -1.088523598202636 -30.061459464610550 147 146 128
51.777068557293020 -1.088886855968170 -31.534938514181164 146 145 127
50.260319352869402 -1.378799163536606 -33.577818803756685 145 144 126
48.682775837825289 -1.722362711758899 -35.701921929265154 147 144 127
47.226880787017677 -1.998776868692494 -37.663194695664856 145 142 125
46.804903986891944 -1.594267182172720 -38.241498456755039 144 141 124
46.687093901250037 -0.987944861580145 -38.413097465680096 145 142 125
44.205368629758013 -0.640561080616328 -41.774638679948083 145 142 125
43.053830754391981 -0.764071679041238 -43.328794364367525 145 142 125
41.902327941221429 -0.897679756225832 -44.882862883999678 146 143 126
40.568373083420113 -1.169524676420010 -46.680800684365778 145 142 125
39.173610782225794 -1.496083014541351 -48.559944104467263 144 141 123
38.326359213952543 -1.445579648845931 -49.707166103741116 146 143 124
37.600827352776079 -1.315373357246463 -50.691721046084496 147 144 125
37.057862881801725 -1.060018516259336 -51.432327164238671 145 142 123
36.454130749072604 -0.853364398564410 -52.254219825213880 145 142 123
35.728785271041744 -0.740575160848000 -53.238684650130068 143 140 121
35.003499090028853 -0.634036877422453 -54.223113498323698 141 138 119
33.426451108815925 -1.162306152572307 -56.345552416683034 142 139 120
32.397021196411998 -1.297938311947908 -57.736281588875272 140 137 118
30.880838532048116 -1.806100577414065 -59.777186352817409 140 137 118
30.825079121849427 -1.230382724740510 -59.867296280099453 142 139 120
30.647721679583384 -0.746856370533644 -60.120002922077873 145 142 124
29.922764651657360 -0.681019008236820 -61.104170280952445 145 142 125
28.528428753724086 -1.133346794267383 -62.982223082803984 146 143 126
27.438400094545841 -1.363855862909252 -64.453844291485808 144 141 124
27.017891936065951 -1.085894148476623 -65.031548023856345 140 137 120
26.171408722872130 -1.142945716798616 -66.178030484599645 140 137 120
25.507577300431365 -1.064388671305588 -67.080712168785823 140 137 120
24.600325842543441 -1.183142010268772 -68.308347067162600 139 136 119
24.119229953078246 -0.972423647132930 -68.967232552032499 141 138 121
23.029450885391071 -1.250346023194050 -70.438485115436492 140 137 120
22.548485863508105 -1.050366878031592 -71.097322662743636 142 139 122
22.189364517351038 -0.756339943362300 -71.593700118174922 144 141 122
18.568231688791201 -0.841138402654721 -76.512022807284268 133 130 111
17.722370748373379 -0.977972427667294 -77.657981720284681 135 132 113
16.328415476875065 -1.580662123883301 -79.534668861841141 136 133 114
167.438939791914606 -1.718157599002660 122.330011987701027 142 140 132
156.583334144597899 -2.284464878942527 107.796244288951783 151 148 139
154.510441875020831 -1.929384243848305 105.015051734787079 156 153 144
149.449360924685124 -1.643275999900271 98.232023009211304 157 154 145
147.132346508926958 -1.447229603869206 95.125819132631761 157 154 145
143.411925650032487 -1.849213592763945 90.147401561979564 155 153 141
139.447402598155463 -2.385841141320542 84.843712057854873 153 151 139
136.825235182391538 -2.393641694942135 81.331296204955407 149 147 135
135.362396413865127 -1.932476301369682 79.365753012469753 152 150 138
132.313076061159222 -2.165198221724716 75.283988694620831 153 151 139
129.812907184125777 -2.186993257511508 71.935070981044760 151 149 137
128.289037662999817 -1.803465276419441 69.888664967374694 151 149 136
127.192310763991983 -1.244582557734402 68.412122567444356 151 149 136
124.692130229900457 -1.322666952874163 65.063789845218082 149 147 134
121.520715384471046 -1.725935085639768 60.820472862181617 147 145 132
119.935833363740670 -1.434403841155296 58.693343102893579 146 144 131
118.228916522860487 -1.213168400356287 56.403600203444881 145 143 130
115.301566967581692 -1.574137207816917 52.486523353663387 144 142 129
112.923409754288656 -1.703557167162898 49.302061285620113 143 141 128
112.559009698050033 -0.900742236330039 48.802971936560311 142 140 127
110.791102188913896 -0.771926666508520 46.432499202985923 144 142 129
108.657061653807716 -0.835433593366087 43.574009616586721 142 140 127
107.011222482562545 -0.680295907941865 41.366586631662528 140 138 123
105.426422888287675 -0.509824366624443 39.240663568180565 142 139 124
103.353435416993861 -0.595390638161637 36.464052358162775 143 140 125
101.402508690054461 -0.638344011795715 33.850326840311027 144 141 126
99.146459913545968 -0.852545185305790 30.830038980131491 146 140 126
97.927880401302204 -0.558842846977419 29.192802317726660 145 142 127
92.624519328304402 -0.603043709634628 22.085644070251135 139 136 121
90.856766437214858 -0.649137485576354 19.716897797696134 140 138 123
88.844909724562925 -0.840531057199149 17.022990060766119 141 139 124
86.649972437791632 -1.147787645881589 14.085283424424887 142 139 122
85.248456624658672 -1.046166176708408 12.204963391430169 140 137 120
84.457292575517485 -0.624767377402704 11.137950387155882 141 138 121
82.811705612183061 -0.679211535124540 8.932564078028093 144 141 124
81.044072752021364 -0.815738901345857 6.564691261463310 146 143 126
78.910250514454802 -1.172089461750474 3.709111628901525 145 141 128
77.325757750872711 -1.238614890629931 1.585481307539112 146 142 130
75.314034262980073 -1.561149481412621 -1.107140263269258 145 142 127
74.278918229395572 -1.344001399231743 -2.498780558827008 146 143 128
73.487993821032461 -0.995529236934844 -3.565157535918189 146 143 127
72.941272299620465 -0.512479579180451 -4.306310071154059 145 142 125
71.479007914334161 -0.569029182913623 -6.266798946067979 145 142 125
69.467404499828405 -0.961805758352731 -8.958754923538493 145 142 125
68.066229710494468 -1.010396083175157 -10.837691895694206 145 142 125
66.604042082228389 -1.107804912962539 -12.797796906363800 146 143 126
65.202926085068555 -1.181365587288123 -14.676504972142567 147 144 127
63.984974317422186 -1.156244602938206 -16.311277302610875 145 142 124
62.522875075396328 -1.290954471630496 -18.271040638622992 143 140 121
61.366038127419984 -1.250790027779102 -19.824346054302765 141 138 119
60.209239516978556 -1.220788581547666 -21.377565197687886 143 140 121
59.052479333516743 -1.200945722362192 -22.930698156968560 138 135 116
58.017858548594532 -1.114529991948943 -24.321229684017823 144 141 122
56.922229454492239 -1.075814211813926 -25.792942930444070 144 143 125
55.460323810043946 -1.280137745003916 -27.752082314454100 145 144 126
54.547931760147321 -1.144719927118343 -28.979874282636445 146 145 127
53.330310825082165 -1.214512526347209 -30.613827889081364 147 146 128
52.540123591841990 -1.016940347386421 -31.679004238890371 146 145 127
51.322583126563785 -1.106181799100862 -33.312796144996639 144 143 125
49.738719704498834 -1.447672176290872 -35.433897188840035 146 143 128
48.276995901372459 -1.722018263508042 -37.392402787790246 146 143 128
47.914421788090380 -1.274679280307345 -37.888706569196955 144 141 124
47.185539094813905 -1.076860240961907 -38.872354456927667 144 141 122
46.762043766367469 -0.678593191665997 -39.449867500673264 144 141 122
45.422613492512639 -0.908244232248216 -41.245620203566801 142 139 122
44.632830837497551 -0.772579489561805 -42.310352857870669 143 140 123
43.293468385335544 -1.023251417847377 -44.105921627872476 144 141 124
42.442710489571610 -0.946140978171891 -45.251740092072197 146 143 126
40.981263658078703 -1.303517923004641 -47.209523514973910 145 142 125
39.886289223471366 -1.415807018727790 -48.679995579213056 143 140 123
39.096741418850812 -1.321356728159144 -49.744416344080719 142 139 120
38.246169777510076 -1.277250462608595 -50.889984183213897 147 144 125
37.395650205165438 -1.240500048311437 -52.035501214504166 146 143 124
36.545182603623132 -1.211101561471864 -53.180967431365474 142 139 120
36.061280957625314 -0.922959772306997 -53.839307610145795 143 140 121
35.577455947993300 -0.638883257718961 -54.497642605587458 143 140 121
33.688640765113405 -1.391455588173531 -57.022918723891763 142 139 120
32.471816234656188 -1.663807114672427 -58.655168286776018 141 138 119
31.316110117888741 -1.901334456466754 -60.206156267179864 139 136 117
31.260169619396251 -1.326039809378681 -60.296175206175235 143 140 121
31.387635877631993 -0.612980661717078 -60.142776733373523 146 143 125
29.809837912408213 -0.578665068781841 -62.270647830618373 144 141 124
28.287747674956648 -1.133414391147671 -64.308246887864811 144 141 124
27.437847225545255 -1.183552992669651 -65.453165713155016 140 137 120
27.199108473073679 -0.767378187045183 -65.786673348325024 140 137 120
26.593787277555890 -0.638836374891599 -66.607001757907852 141 138 121
25.499602930077913 -0.898697061749818 -68.076332768600309 140 137 120
24.711041555035280 -0.927121290712882 -69.139960628840441 141 138 121
23.861410866713783 -1.010756262660202 -70.284663711943494 142 139 122
23.500827624572281 -0.711774360257573 -70.780392805318769 143 140 123
22.956953393373723 -0.562716370746493 -71.519469530408855 143 140 121
19.926252747655042 -0.713409163767483 -75.610985819272997 135 132 113
18.526704222345472 -1.296389404874648 -77.485200046700839 133 130 111
17.738608457971935 -1.384887740934442 -78.548432280526043 135 132 113
17.439763577456262 -1.072489942301287 -78.962976006120755 132 129 110
171.481600818579864 -0.635339213160854 125.706097292202656 141 141 132
166.950118110629205 -1.118830295179667 119.675362419540676 143 143 133
160.214870545212278 -1.304357790753657 110.704914154800491 151 148 139
158.011137793059561 -0.985781008578586 107.764973221671482 156 153 144
148.212648401095493 -2.568418783779432 94.731406258769567 158 155 146
146.989012187810602 -1.935356706026524 93.093095504532357 157 154 145
144.968971095615899 -1.639508700407470 90.398087724398152 155 153 141
141.539890154618774 -1.945112519442716 85.833596470750393 153 151 139
138.907195703400475 -1.947849508459232 82.326164593714367 150 148 136
135.110490088981464 -2.466259148954735 77.274580931421639 153 151 139
131.803862178242468 -2.808897699098129 72.873607554765186 154 152 140
130.273861664921753 -2.413786488292621 70.830015354743438 151 149 137
128.805128691651333 -2.005577025930262 68.867837031606456 151 149 136
127.336401382059520 -1.610444232258589 66.905790603704958 152 150 137
125.438826006889016 -1.419224712009350 64.374990407725477 151 149 136
122.561005670514604 -1.685400719848907 60.544102084406177 150 148 135
120.724695102747347 -1.504410282741070 58.094957192575066 148 146 133
119.010922771468415 -1.283571106923811 55.808498015188945 146 144 131
117.174625287794456 -1.134636302827188 53.359676828706398 144 142 129
114.603128026026795 -1.345385708043651 49.935968487220492 142 140 127
112.705573453072589 -1.261157959067988 47.406259659581764 143 141 128
111.788319759162405 -0.727231882976353 46.176691439536143 144 142 129
110.197135193756992 -0.525168215303105 44.053497730730101 142 140 127
108.115811976305281 -0.574793997785969 41.280504359592953 141 139 124
105.973227100189604 -0.672813665173181 38.426457613621011 144 141 126
102.300790049080192 -0.620628271312079 33.531268645107957 145 142 127
100.464592792208038 -0.618903983142740 31.083914822259601 147 141 127
98.873498801093902 -0.509213985625416 28.961628631614559 144 141 126
96.976061808993450 -0.570200031984783 26.433358312242973 141 138 123
95.078639677785972 -0.647954344724527 23.905253487660644 141 138 123
93.365054532260572 -0.646884076397638 21.620966953018836 139 136 121
91.835312532964238 -0.564549322547617 19.580470645970848 140 137 122
88.834988974233326 -1.273405366510111 15.591026402475251 141 138 123
87.305278865711401 -1.224570329495599 13.550859668404286 141 138 121
85.959423053107756 -1.090397449967866 11.754435898844150 140 137 120
85.410201797931435 -0.536295302980688 11.013747848707396 139 136 119
83.758024232625942 -0.589763510010672 8.811504415021062 143 140 123
81.983311933428368 -0.725307070354158 6.447008251016655 147 144 127
79.657103038525932 -1.182732798180204 3.351929498590692 146 143 128
78.188825568239253 -1.180500466482900 1.393712190938942 146 143 128
76.230326059049432 -1.467738082833643 -1.213875993413410 146 143 126
74.516969528859406 -1.632871355480736 -3.496561080307288 145 142 125
73.661595762631279 -1.321553373177609 -4.642582143790861 145 142 125
72.928835815216630 -0.946972078564688 -5.626194669123208 145 142 123
71.828417694928746 -0.792704975426477 -7.096806289653358 145 142 125
69.747467934910148 -1.222837371844598 -9.866061575819117 144 141 124
67.727814341360130 -1.635090602525814 -12.553965892231929 146 143 126
66.566199229588477 -1.554625407148443 -14.105400286611001 146 143 126
65.711066234229463 -1.300669610560463 -15.250946076259197 147 144 127
64.488243747985734 -1.276211474459223 -16.883381448615950 144 141 123
63.204167257973438 -1.299742568827583 -18.596878023194506 144 141 122
61.981417464877111 -1.296977245078254 -20.229124876688758 144 141 122
61.310342695015123 -0.964552276766985 -21.130954558358610 142 139 120
60.210265909085805 -0.904572796648837 -22.600758922206097 144 141 122
58.803753639744770 -1.046006849042443 -24.476186775093169 145 142 123
57.703754755126013 -1.006600863823964 -25.945816633342474 144 143 125
56.297307906875503 -1.171312600404643 -27.821036174557946 145 144 126
55.565182309205042 -0.917417394515130 -28.803709888094801 146 145 127
54.281408944145539 -1.024872008017540 -30.516487609669781 146 145 127
53.365481347778697 -0.905241278533117 -31.742425680107914 147 146 128
51.836570067213714 -1.193456239841024 -33.779505145783247 145 143 126
50.675509476563249 -1.253492650051359 -35.329758567557718 146 143 128
49.085343220975133 -1.607376946437034 -37.447716780611501 146 143 128
48.353503416165708 -1.403927763294011 -38.430007950219448 145 142 125
47.437794759767300 -1.330015702710523 -39.655580155561978 144 141 122
46.951312919469629 -0.974603983252382 -40.313378421419458 143 140 121
45.974403388306868 -0.956275149106496 -41.619959076901864 144 141 124
45.058855242770576 -0.904525329798049 -42.845379943007828 145 142 125
43.898093693072099 -1.029356076814045 -44.395109464290101 147 144 127
42.921321638270371 -1.036974081361056 -45.701488804147175 146 143 126
41.637998653561240 -1.266598520113960 -47.413224430753814 145 142 125
40.293382310164489 -1.550387087660169 -49.205938870993407 143 140 122
39.684667742518698 -1.326847216708156 -50.025621765723827 142 139 120
38.646745581331714 -1.413175956229044 -51.412795780075726 144 141 122
37.424883366909569 -1.639898278972415 -53.043105016535293 144 141 122
36.448366231171320 -1.700955727547509 -54.349056229755490 141 138 119
35.839880254190504 -1.504375757382645 -55.168570969674164 143 140 121
35.844796015073683 -0.866756865823095 -55.177485984393911 145 142 123
34.316438464508124 -1.351153094563368 -57.212810960264250 144 141 122
33.278786084598494 -1.487569292947540 -58.599598461678653 143 140 121
32.118492194148359 -1.723842471577818 -60.148404576609778 142 139 120
32.062386111173922 -1.147326114018379 -60.238356876236168 142 139 120
31.945047527658502 -0.617001748410702 -60.409399165033619 144 141 123
28.710150581512238 -1.230585673933936 -64.731040527497612 145 142 125
27.366046131750522 -1.657809433258567 -66.522523405412983 142 139 122
26.696877647533285 -1.575771212748033 -67.422687691022475 142 139 122
27.009530844118785 -0.737217024645737 -67.026597143492694 142 139 122
25.420097317317286 -1.380757380628060 -69.141924316154302 143 140 123
24.628394988642455 -1.411782227685677 -70.204022785474592 142 139 122
24.020850520493397 -1.304169590736313 -71.023072154537033 140 137 120
23.720231966983789 -0.957958682277240 -71.437115416376770 143 140 123
23.358339493816857 -0.663088567987500 -71.932175853416510 140 137 118
22.444147912232410 -0.814700975392662 -73.156152385507170 140 137 118
21.591376661885448 -0.924586664829954 -74.299082822679821 140 137 118
20.861417730820179 -0.942071371201910 -75.279999612327430 141 138 119
20.254289744513329 -0.865492234633242 -76.098928781466327 137 134 115
19.033333016294861 -1.297948442388952 -77.727553477191719 135 132 113
19.101638473769896 -0.676849662566228 -77.655764970749772 134 131 112
18.617518708152843 -0.513270610295940 -78.312718615026114 131 128 109
172.718473379838315 -0.607490143967973 125.335812803922551 141 141 133
167.615328571831355 -1.298913663009655 118.582969509180117 144 144 134
165.341322798484242 -0.955959099023187 115.565537130839743 145 144 134
162.390742828032131 -0.894322072526402 111.655223537902060 151 148 139
158.579063147393470 -1.194967539725249 106.608561861530859 157 154 145
152.245623527613844 -2.524844170808487 98.233681607846933 159 156 147
147.818796486029356 -3.149557184964318 92.376051261257231 159 156 147
146.405729658062199 -2.597098884639063 90.496616504181588 155 152 143
145.546218339805932 -1.831374161632624 89.347897394549591 154 152 140
144.194656652407843 -1.276255032234457 87.549870284717855 154 152 140
141.489934312840802 -1.297125105489183 83.966224070601896 151 149 137
136.632426328837425 -2.248624909379445 77.541981596761701 154 152 140
133.435596215324153 -2.536237445027299 73.309632689698788 156 154 142
131.345900736183694 -2.376048493338774 70.538484851395083 150 148 136
129.686764726541782 -2.047329110885489 68.335636264774649 150 148 135
127.843104533467184 -1.814274626627755 65.889471487106107 152 150 137
125.322839241280988 -1.897389623409205 62.550799026817401 153 151 138
123.294650326868506 -1.782531303393547 59.861552154659137 151 149 136
121.512506660472752 -1.574400200435906 57.497073515293010 151 149 136
120.037925914025436 -1.241671713812858 55.538469710401074 147 145 132
118.440334958961984 -0.978673510827620 53.417713566665270 145 143 130
115.735538991417968 -1.244821623115312 49.836627345993918 143 141 128
113.707377276687666 -1.217115896909238 47.148264567030736 143 141 128
112.540405807425614 -0.799160821956882 45.595918682844172 145 143 130
111.065889008445694 -0.538644679013362 43.638027603632793 143 141 128
108.668679579884596 -0.736566468029254 40.463385173813521 142 140 125
106.456017641858310 -0.865721976150518 37.532324665985101 145 142 127
104.981544885712950 -0.651549342963432 35.574889553859521 145 142 127
103.199514754035434 -0.602909628636137 33.211998324858172 144 141 126
101.540533558153982 -0.508417989623984 31.011486699694558 146 140 126
97.607455167991958 -0.676449067147891 25.799818913465799 139 136 121
95.210310717974366 -1.007548030454405 22.626516257691407 139 136 121
93.612915581736090 -0.945572485275833 20.507735662102846 139 136 121
91.892504389660232 -0.961907162119354 18.226893842577198 140 137 122
90.049073639562010 -1.058170057357409 15.784009129397191 141 138 123
88.697826980620746 -0.909274723201399 13.990012776625321 141 138 121
87.469652898914916 -0.706368884545650 12.358300737347065 140 137 120
86.241512009635130 -0.514247101561367 10.726683824628452 139 136 119
84.336652820140770 -0.701208016755870 8.203260981658190 142 139 122
82.554858639554254 -0.837390182298814 5.842159338919714 145 142 125
80.588511697227062 -1.091282241995731 3.237982097115520 146 143 127
78.929807026153753 -1.190963125075185 1.039336898745375 146 143 128
77.394178466775685 -1.236062706841229 -0.997031552503017 146 143 126
75.181780326700846 -1.677812207333123 -3.925000573369971 145 142 125
74.138419658827161 -1.471958039435084 -5.312580410210728 145 142 125
73.464273252267006 -1.062963214789797 -6.213728803409452 145 142 123
72.728650502137015 -0.695481921124942 -7.195898689859149 145 142 125
69.777976396024457 -1.627464761965045 -11.095939420173295 144 141 124
67.811791204350712 -2.006316547416723 -13.698907769704078 146 143 126
66.707076068008917 -1.891953902735529 -15.167052955845861 145 142 125
66.094671601656287 -1.493381371795353 -15.986772314780922 145 142 125
65.543860390997253 -1.063105119340047 -16.725425133527438 142 139 122
64.254680622529222 -1.084855299185282 -18.436498649033240 142 139 122
62.965536577594023 -1.117855332248921 -20.147473454164071 141 138 121
61.491813812074270 -1.275546527206906 -22.101439578042658 144 141 124
60.448894703032920 -1.179502168888521 -23.488100327581577 146 143 126
59.159858531448847 -1.245956061137486 -25.198782381575427 146 143 126
58.240108302891329 -1.091870997556565 -26.423246373645668 145 142 127
56.643434816739358 -1.373661337631157 -28.538833649211853 146 143 128
55.908404402697499 -1.120990368321439 -29.520105106871398 146 143 128
54.496429766222576 -1.308528660093706 -31.392445207948356 146 143 128
53.330672447147549 -1.349513751757612 -32.940647835735916 146 143 128
52.041857686462279 -1.480600215730771 -34.650770516415434 146 143 128
50.999276424405636 -1.461867649157162 -36.036797081683261 146 143 128
49.710534249668783 -1.614288381182391 -37.746734882893207 145 142 125
49.098907842416864 -1.329099404194061 -38.565659348755304 144 141 124
48.364238873582480 -1.131277670598120 -39.546539129826073 145 142 124
47.691186908800205 -0.898413589630906 -40.446398097994802 143 141 121
45.971716251715435 -1.378800271905061 -42.722913145824663 141 138 121
45.052527002683362 -1.329624537618343 -43.946565624148661 143 140 123
44.010266192604121 -1.372695978577120 -45.332109312846882 145 142 125
43.214301293704764 -1.255038682665969 -46.393699043171665 146 143 126
42.541524059266251 -1.058793001141944 -47.293312509814143 145 142 125
41.253145375579507 -1.298073005229954 -49.002530117774853 143 140 122
40.272637590438393 -1.332271698757325 -50.306848688657908 144 141 122
39.169035074115271 -1.461970484335453 -51.773013901495233 142 139 120
38.373333329899083 -1.382217354231313 -52.834339357498351 141 138 119
36.961943510966307 -1.749981198554121 -54.705104081132930 139 136 117
36.658949848414863 -1.331811187903673 -55.118751810136246 142 139 120
36.356047644701007 -0.916065650804095 -55.532418336409791 144 141 122
35.560590061239509 -0.861867360456468 -56.593597549277803 145 142 123
34.703607187907679 -0.859621942626082 -57.735667382267650 145 142 123
33.600335528427379 -1.046462782616069 -59.201402684012749 144 141 122
33.236152387182216 -0.694272115270232 -59.695957302543604 143 140 121
32.317747785959298 -0.758901664942985 -60.918813698731356 144 141 124
30.727461810547140 -0.725625211718931 -63.040699878320254 143 140 123
28.823645190785555 -1.561714626097017 -65.557939677340812 143 140 123
27.412594079629059 -2.037779784506482 -67.427751637782762 141 138 121
26.925590019438431 -1.815712536710738 -68.083927493800132 142 139 122
27.116330482453137 -1.073674542971829 -67.850238592578791 145 142 125
26.321478305749253 -1.096141963511770 -68.910918271288750 145 142 125
25.649903722052386 -1.028989199918023 -69.809778263668733 143 140 123
25.348080618702127 -0.676715533208745 -70.223307680009867 141 138 121
23.943677408926348 -0.616319274294352 -72.101822040548853 140 137 118
22.841019227972751 -0.915364021034173 -73.566695857139706 140 137 118
22.231394508212631 -0.827382438417835 -74.384547968657898 140 137 118
21.067174896441458 -1.193053452992372 -75.930144075036083 139 136 117
20.642563215303568 -0.967346156048669 -76.505346815263067 137 134 115
20.464587915491080 -0.543455859096701 -76.757144012413221 136 133 114
19.061062915889707 -0.565369743916978 -78.635231246030855 133 130 111
169.203220988042034 -1.131061734857598 118.708470515250383 145 145 135
165.808669006047126 -1.208134129622405 114.235967222137361 146 145 135
157.537465321810544 -2.028247157446108 103.346233969404039 158 155 146
152.722549493571591 -2.760001166576726 97.010212485304038 157 154 145
149.019096355376917 -3.092283767014731 92.133819028743801 157 154 145
146.427127695656679 -3.010457195439313 88.716892502361588 157 154 145
145.008416876083118 -2.474797354892268 86.840330726509876 153 151 139
144.454228886746648 -1.596660636017080 86.098683294341413 154 152 140
139.762661788298914 -2.440776925131000 79.926526571948045 154 152 140
137.294144953411035 -2.393688660985670 76.672616464413949 155 153 141
135.072629811505465 -2.263665167018751 73.743123439306260 155 153 141
132.851109332233705 -2.153224190483521 70.813834540265646 152 150 138
131.000107132814378 -1.902075563568483 68.370995901166054 150 148 135
129.581386181223849 -1.478355792011744 66.495591227800446 151 149 136
126.310037808451995 -1.884823991655708 62.189256156676635 151 149 136
124.397284380119558 -1.714479962742621 59.665931971223074 149 147 134
123.040335084747539 -1.310811054729422 57.872041227789680 149 147 134
120.942329354397828 -1.255918258934148 55.105952851408233 146 144 131
118.782571885171976 -1.247820954209538 52.259029099814995 145 143 130
116.437548522461441 -1.344542089570062 49.169238210725098 143 141 128
114.957130340808803 -1.057565745009136 47.213897964608407 143 141 128
113.600244998478075 -0.725318171001559 45.420711801929201 143 141 128
111.687555007502695 -0.669793523024342 42.898539161829717 143 141 128
109.342565174018546 -0.838909765431395 39.809477431677891 143 141 126
107.306377719669968 -0.878806102484488 37.125650001035638 143 140 125
105.208441678557222 -0.966810219365490 34.360999195269471 144 141 126
103.110516438003046 -1.073225660111578 31.596532739558739 145 142 127
101.815496419214668 -0.797997547122301 29.885196233030285 145 139 125
100.335218457496211 -0.627266416788511 27.930985476564331 141 138 123
98.484391227481552 -0.657404046191220 25.490958553443619 139 136 121
96.571818753732231 -0.735351580413717 22.970103589728069 138 135 120
94.473972465679552 -0.925625765897962 20.206462563597825 138 135 120
92.561431918728019 -1.037901902069573 17.685945687756686 139 136 121
90.401849194858329 -1.296514051710338 14.841683712981137 141 138 123
89.724651978610851 -0.790031575830645 13.940991327311792 142 139 122
85.160863536078651 -0.678692972429666 7.919588526570038 141 138 121
83.063149944786247 -0.983176714099372 5.157059635100296 144 141 124
81.397835232424001 -1.067866516074603 2.961422347096772 146 143 127
79.917855601135997 -1.064236536441480 1.008788926464064 146 143 128
78.808531695970672 -0.866162246701217 -0.458013126485810 146 143 126
76.649126259611890 -1.269901582018566 -3.300866047971084 144 141 124
75.231004568214345 -1.271278403342131 -5.172181672578176 145 142 125
74.060009443823517 -1.143529357588274 -6.719615417497522 146 143 124
73.383250784343133 -0.740823225566832 -7.619449385180957 145 142 125
71.162157835963640 -1.241853790726486 -10.542648629779421 144 141 124
69.064624726525025 -1.689909105950972 -13.303786008818577 146 143 126
67.831987735937730 -1.645878304195272 -14.931727627218720 145 142 125
66.970060742379403 -1.392201398251086 -16.074020320654768 145 142 125
66.169964646582258 -1.108990208982453 -17.135337829935679 144 141 124
64.628552517919999 -1.279934615858516 -19.167644057459029 139 136 119
63.272513720746346 -1.351674158062022 -20.957076762106766 139 136 119
61.731159478980189 -1.548637616321905 -22.989142855356079 144 141 124
60.807675244355934 -1.378179279412433 -24.211989050050647 146 143 126
59.698884960757070 -1.330767298725590 -25.677495542895485 146 143 126
58.404777634101833 -1.408838574719873 -27.385631990118782 146 143 128
56.987129776640742 -1.575933963516852 -29.255468470792096 146 143 128
56.681722471930414 -1.050305796598520 -29.669067642444645 145 142 127
56.129230610059096 -0.684972861707031 -30.406247949219619 147 144 129
54.032001713081456 -1.317133116864563 -33.165635777824292 146 143 128
52.676294776279292 -1.487769985453344 -34.954209243474025 146 143 128
51.506004659515327 -1.549396908755915 -36.500030919641688 145 142 127
50.335754364759708 -1.621145491102200 -38.045767459200391 145 142 125
49.536332848091391 -1.458219722495414 -39.106169526563235 143 140 123
49.107768360950018 -1.055720796434538 -39.681301062998244 145 142 125
48.432076202366872 -0.822174803919930 -40.579903990760585 144 141 122
47.138418707348833 -1.010530901824113 -42.287120418822980 140 137 120
45.659378745673138 -1.335740853769614 -44.236818459566564 142 139 122
44.551198889727317 -1.420817482441499 -45.701253207095505 143 140 123
43.628485168076622 -1.388151417584897 -46.923049647478479 144 141 124
43.200304685808817 -1.021763806988958 -47.497993178617918 147 144 127
42.030460735585748 -1.174651564891166 -49.043088905713347 145 142 124
41.107909098993815 -1.164628034676439 -50.264729816049140 144 141 122
39.567248828375895 -1.597737097564001 -52.294697137379188 142 139 120
38.768415399166287 -1.518654940265309 -53.354517499355836 140 137 118
37.969640607930145 -1.446377662466549 -54.414295867494815 138 135 116
37.047280051606052 -1.469585865910348 -55.635686119047051 138 135 116
36.866861839020387 -0.965294932260787 -55.887142239243417 141 138 119
35.702560116873698 -0.547790036876856 -57.440760687374421 145 142 123
34.594956898023014 -0.732552979700986 -58.904445174803413 144 141 122
33.796556672712498 -0.698280305735634 -59.964011533518203 144 141 122
32.750871217974364 -0.854723197535281 -61.346749894653840 144 141 122
31.890739674302353 -0.881354637122589 -62.487016170545814 144 141 123
30.350410449046251 -1.427174852757537 -64.515981670325772 144 141 124
28.933763949887833 -1.892734940927972 -66.383224950292259 142 139 122
27.764506127604534 -2.182222603844713 -67.927194987540844 140 137 120
27.090062942494868 -2.102907812509141 -68.824807840698838 142 139 122
27.034202515215668 -1.552920612100803 -68.914604583226094 143 140 123
27.164028054159303 -0.859356893410612 -68.762134105984103 142 139 122
24.956105411930096 -0.816437114391814 -71.697233134050606 139 136 119
22.797327750791410 -1.941783102724134 -74.532958521265812 140 137 118
22.618290280188134 -1.508802920155913 -74.784341146309430 140 137 118
22.439369240855058 -1.077031002753783 -75.035767034393302 140 137 118
21.765558662604789 -1.045190253743615 -75.933193850337943 139 136 117
21.339331134371392 -0.818497610268801 -76.507633717520008 137 134 115
19.070974993799496 -0.974011058815549 -79.522637879152910 134 131 112
172.901035274164940 -1.399823572074328 121.598288503080425 143 143 134
166.271003323885282 -1.460237310291766 112.908794244712681 149 146 137
164.164822875564454 -1.071394359449098 110.143179108679931 153 150 141
162.058625207151181 -0.701106594496453 107.377763208530098 159 156 147
151.460669340141720 -2.544165904523593 93.509891182505555 157 154 145
148.920422460585911 -2.431112192362617 90.178758582055366 155 152 143
146.504152019359935 -2.290208622702299 87.009747175731150 154 152 140
143.901879634333795 -2.246604790895073 83.598143362079128 156 154 142
