ply
format ascii 1.0
element vertex 675
property double x
property double y
property double z
property uchar red
property uchar green
property uchar blue
end_header
83.654084050317195 -2.163399348124384 -102.535752078907763 138 135 116
83.690136344636230 -1.545670968364201 -102.559357961466020 137 134 115
83.726723489294898 -0.927013574911572 -102.583229277398090 138 135 116
81.141088886808348 -1.744465461652324 -104.552763766153134 136 133 114
80.002297591521881 -1.780436362793671 -105.448765151348482 130 128 108
76.420731569198097 -3.176918486009557 -108.155336947641899 137 135 115
219.554030298028152 -4.779062967694368 1.426044420651863 118 117 112
220.383310584459934 -3.527762517957761 2.014169274313559 121 121 115
215.909485603371081 -3.929309861877889 -1.384379107214784 124 124 116
213.772698464880790 -3.620160454980623 -3.025942932694221 127 127 117
210.916736062988207 -3.553112252880151 -5.207834787330171 130 130 120
206.622192399333471 -3.966228959166517 -8.470313877494334 129 129 119
204.125670063813345 -3.821301970769260 -10.381526733613811 133 131 119
201.629130276276555 -3.691440480284921 -12.292576164010029 136 134 122
200.391535913548950 -3.160022714044304 -13.258009801915478 137 135 123
197.265513866374135 -3.266672776054606 -15.641494739205797 139 135 123
195.758276446155946 -2.846656773100677 -16.809362003115268 136 134 119
193.441645137448859 -2.710916078757780 -18.584821780866804 138 139 123
188.246545627989576 -3.576782191229031 -22.520406513370290 140 138 123
186.649357097396319 -3.228693249652679 -23.755359977947677 139 137 122
186.401747118777365 -2.418885813184527 -23.977816622429600 142 140 125
182.375596982726421 -2.941461407495933 -27.034990886140179 139 136 121
179.068999131623457 -3.232759278079858 -29.551906074981474 139 138 120
177.471968584958347 -2.931407159228783 -30.786454032933591 139 138 120
174.165144169618941 -3.257574223275954 -33.302901908095720 137 136 118
171.308135339041286 -3.439802017848818 -35.481727231776290 135 134 116
168.721029530549060 -3.540094483275254 -37.457939982814594 134 133 115
168.024183186717124 -2.955510309980072 -38.017459578444203 133 130 113
167.057500425356977 -2.475811600084800 -38.779387372846770 134 131 114
165.460785814228757 -2.239150285179805 -40.013420578334006 135 132 115
163.774112713581360 -2.046210039112164 -41.314826792782441 133 130 113
160.916881063255289 -2.311470666661047 -43.492690821597165 132 129 112
157.158937828999740 -2.941545810563802 -46.344491146161801 133 130 113
154.661572600212025 -3.104136640561665 -48.252135329642812 135 132 115
154.055639798885238 -2.540397032605743 -48.744074203878341 135 132 115
154.530941667750255 -1.553022916937809 -48.427326101929282 134 131 114
151.403106443905330 -1.996924325792437 -50.806472124182051 133 130 113
149.806723369983615 -1.845397003903794 -52.039787608974649 136 133 116
147.309326332988292 -2.067632212685318 -53.946802625964608 138 137 119
145.262396580039621 -2.121469696500379 -55.516758625346284 138 136 121
142.043792394364061 -2.668417687867527 -57.962279262069757 138 136 121
141.799388380062965 -2.005278046727629 -58.184759903595392 133 131 116
139.752418161825716 -2.094136991499545 -59.754336051030833 130 128 115
137.254629783288749 -2.384450891678033 -61.660463083398326 132 129 113
133.855047079803057 -3.070961399002100 -64.239685400297873 136 133 118
131.717559535397868 -3.240832433174374 -65.875983355949330 138 135 120
129.129067141030930 -3.616950132533672 -67.848693561362438 138 135 120
128.434487063168035 -3.190865795041876 -68.407665812430054 138 134 121
126.928298529828567 -3.121763156724296 -69.572422732681105 138 135 119
127.046057900087916 -2.350406707611829 -69.525839486274293 136 133 114
126.442440044825318 -1.896224526123478 -70.017758093144437 136 133 114
122.500286156362563 -2.928219023059945 -72.999013284190823 138 135 116
121.626054900075218 -2.612209733748220 -73.692625739365980 139 136 117
119.037078493928860 -3.073425570767660 -75.664228437322322 139 136 117
118.885210354701087 -2.445411901194852 -75.819757470105031 139 136 121
117.560044243663540 -2.353593178228240 -76.849630954922276 139 136 119
117.047620715740933 -1.896176778238168 -77.274351021919188 139 136 119
111.026757287471170 -3.989879387652642 -81.799984352554645 142 139 122
111.598026247060488 -3.050513463197335 -81.417793520510600 141 138 119
110.182588393087698 -3.038651883266239 -82.514517158813504 142 139 122
108.857543650410662 -2.992572555617033 -83.543977887264958 140 137 120
108.526496276235662 -2.482265000517438 -83.834294349898073 141 138 121
106.026927469008925 -3.010345568792937 -85.737122179524761 139 136 119
104.250150705015187 -3.205800886699850 -87.102284044545115 137 134 117
101.659740431610302 -3.805915064952861 -89.071771034916992 137 134 115
99.611471588930016 -4.157538371648053 -90.638021159291441 139 136 117
99.100235794652761 -3.767721826000454 -91.062613594733051 139 136 119
99.131924680611675 -3.112797301001767 -91.084514916297053 141 138 121
97.988220489269111 -3.041065814694890 -91.979274623638162 142 139 124
98.925333135823834 -1.936253641488373 -91.330369639100667 142 139 124
96.244016311056498 -2.644719074382002 -93.366110817927819 140 137 122
92.204886194038735 -4.056438603760600 -96.407923098044250 139 136 121
90.065609597145226 -4.525799190579325 -98.040282380701598 140 137 122
91.456569016665924 -3.200105432669252 -97.056475357204903 140 137 122
89.045787204830503 -3.824269438041666 -98.889930661083724 140 137 122
85.547991963800854 -5.026541738333282 -101.527718326355597 140 137 118
86.668628071312938 -3.841795764974407 -100.745715365393664 140 137 118
84.438397386659702 -4.407551845255211 -102.444429161912637 138 135 116
84.291760299319435 -3.887287327342232 -102.601351595841237 139 136 117
86.682954389049698 -2.020381113083447 -100.882176647624959 141 138 119
84.271744396315825 -2.702434058250521 -102.714831231291470 142 139 120
82.077637017235816 -2.690695915345601 -104.436770731523751 137 134 115
83.202630541644382 -1.487186313762104 -103.657045487320460 138 135 116
81.970199366266414 -1.564470317426562 -104.618683503252953 137 134 115
78.923302201101293 -2.646278381426519 -106.919124836766969 136 133 114
76.601665977674458 -3.345881454636392 -108.683591667431870 134 131 112
221.469896806914988 -4.469749156562795 1.725764261522528 118 117 112
219.597745712788679 -4.049988254261914 0.289037534588516 121 121 115
217.004514296539242 -3.866283898527167 -1.687168068643587 123 123 115
213.419609594484427 -4.010392917015892 -4.405033957502951 125 125 115
210.014866169963284 -4.118864700152852 -6.987737446118359 128 128 118
206.880476937530204 -4.161115512571450 -9.367882444488885 129 129 119
204.828009659291183 -3.871783766456260 -10.938721724029847 132 130 118
204.939783016487183 -2.887115199270113 -10.891470518281920 132 130 118
200.091933680508703 -3.538368050585099 -14.551952125932360 135 133 121
196.867105744982467 -3.678374004855383 -16.998684200878415 138 134 122
194.453893289190717 -3.565045363910239 -18.838568075313106 135 136 120
193.393674821360861 -3.007380341958410 -19.667410139691526 135 136 120
188.544918348251286 -3.752343198626299 -23.326493171886881 138 136 121
187.123917105130943 -3.343311203990007 -24.424643578491128 139 137 122
186.063924656875940 -2.817029375048576 -25.253270726888218 140 137 122
185.184568912588418 -2.233565745477857 -25.947184686451124 141 138 123
178.530345925916720 -3.701567565333282 -30.952273822317352 139 138 120
176.658275232188259 -3.500810826781362 -32.386784692650394 139 138 120
174.786248875590928 -3.311254618997141 -33.821201481025071 139 138 120
172.282460894492147 -3.362544802281630 -35.726918715285080 134 133 115
169.868872274580355 -3.395837701258802 -37.565113384927344 132 131 113
169.531509390480323 -2.676335291426123 -37.854561876990374 132 129 112
168.111077257784473 -2.362263758069901 -38.952007068338929 130 127 110
166.781048558517142 -2.022690474280427 -39.982104569770428 134 131 114
163.284022611681053 -2.511692878335994 -42.627602308105594 135 132 115
161.231615754105832 -2.470315368166604 -44.195918175172920 133 130 113
157.734185941014687 -2.997311024915105 -46.840831621639836 133 130 113
155.771949646717587 -2.949990994759122 -48.341487061523594 134 131 114
154.171037923735952 -2.773186392986544 -49.572896247868869 134 131 114
152.299177066798904 -2.712683089568221 -51.006063804338481 135 132 115
152.414990695591655 -1.874243752735071 -50.959240239746379 134 131 114
149.910852690339510 -2.083047397347506 -52.863168658465753 135 132 115
149.213924701532335 -1.578383695740603 -53.421826533855324 136 135 117
146.348230391155710 -1.958667546120176 -55.594458063294184 136 134 119
141.674634178095232 -3.096103618961574 -59.111579469681203 136 134 119
141.520175755477908 -2.398644348805648 -59.266584158222315 132 130 115
139.919610620702258 -2.302542473420552 -60.497328437473101 133 131 118
135.154601804049349 -3.540050196045653 -64.080547164795234 135 132 117
133.192090867528066 -3.625285199812857 -65.579706761226191 137 134 119
130.171392295087315 -3.444369755958202 -67.905679259102527 139 136 121
128.299309432642502 -3.523197435357741 -69.337306405098190 139 136 121
126.698593677440257 -3.495540353037498 -70.567274091414447 139 136 119
126.726485375951455 -2.766063145555560 -70.588126259731951 137 134 115
126.693041714457763 -1.345310276961055 -70.697610334630525 139 136 117
122.377733313311452 -2.551857069398238 -73.941988471092515 140 137 118
120.053233921404185 -2.890601836946653 -75.708800067590289 140 137 119
118.000166709360073 -3.120616878288125 -77.274006443474605 139 136 121
117.033532914839498 -2.868398145960557 -78.033616097760159 139 136 119
115.614293871992089 -2.829258975350800 -79.128802042278750 138 135 118
114.195111812970282 -2.798529018945452 -80.223928687397972 142 139 122
114.587608180052229 -1.934804901019627 -79.977152810606668 140 137 118
110.179190442659589 -3.312912028979797 -83.286080687962908 140 137 120
107.853934763194573 -3.737516652103009 -85.051646680459726 141 138 121
110.240670758106887 -1.944130604361930 -83.329582214956361 143 140 123
108.821984214700720 -1.950027687750097 -84.424568892527162 140 137 120
104.865262181141446 -3.182241735254696 -87.396793772479157 139 136 119
103.990239969171796 -2.950271145430147 -88.089162784615809 138 135 116
101.845994666305572 -3.340254381882803 -89.719962126310179 136 133 115
101.605981392191239 -2.811760211306893 -89.943157309422389 138 135 118
99.733744973923791 -3.087806917050913 -91.372680920326360 140 137 120
98.224252278369164 -3.195424017476879 -92.534038075652091 141 138 123
96.261103269512304 -3.538136075610884 -94.030242079798938 141 138 123
93.571839152321772 -4.256792373290577 -96.062076401481136 140 137 122
90.882168969420675 -4.991960276158055 -98.093546500472456 139 136 121
92.004614875006425 -3.808087115348170 -97.312400356407437 140 137 122
88.588419951207555 -4.935174335478427 -99.879140366619424 140 137 122
89.893434684215435 -3.656914754757316 -98.964588320794434 140 137 120
92.016788228273441 -1.947109577706482 -97.448238908473883 140 137 118
90.235373251606546 -2.254609641297210 -98.810028535596103 140 137 118
89.816638210299189 -1.859831269488915 -99.168065203841280 139 136 117
87.580851121212817 -2.423617685600767 -100.864141110267923 141 138 119
86.980728647324526 -2.134951317056983 -101.356028158195699 140 137 118
82.744719701257154 -3.785902608751477 -104.522909518470698 141 138 119
81.235276600840720 -4.002330571923162 -105.683170355068484 141 138 119
82.453954072393344 -2.757906710491966 -104.837825456166911 138 135 116
82.582146466330428 -2.096404272639834 -104.795102550002269 140 137 118
77.525326123792652 -4.259648903214813 -108.561767223304855 139 136 117
77.198682079317379 -3.861222307001271 -108.853038576859035 140 137 118
76.781426896144495 -3.514367422160159 -109.211289903637180 135 132 113
221.494262898563363 -4.738688854047741 0.608287089003028 115 114 109
221.334571820820827 -3.792552189462083 0.453225923392125 121 121 114
218.011202928554837 -3.830941658379615 -2.058269370071770 122 122 114
213.512450610106896 -4.258345347984799 -5.444626446496045 125 125 115
210.188770016119662 -4.340367823895827 -7.955523486464585 127 127 117
210.119997256930958 -3.400739057993298 -8.043153790038872 128 128 118
206.615438272880851 -3.571313668103133 -10.688325486439396 131 129 117
203.653302311531291 -3.586100142294063 -12.929440793650770 133 131 119
199.877149466520564 -3.886589391311952 -15.775922296033286 134 132 120
195.196355007059140 -4.510285021228659 -19.294888274475682 136 132 120
193.319156237136099 -4.222504374429121 -20.727841671539380 136 134 119
193.160691278555760 -3.364655225837528 -20.882580620600748 135 136 120
191.826518512740279 -2.908801578060738 -21.911892547001031 137 135 120
187.868843865516567 -3.364078629490425 -24.891659102641484 139 137 122
185.539495719432949 -3.277665128455546 -26.660527439401164 141 138 123
184.024490571031095 -2.919913374925466 -27.824037731575004 141 138 123
181.604674313340581 -2.890921330924147 -29.659894250857803 140 139 121
179.637315318166088 -2.715177083679485 -31.159420943182255 140 139 121
177.217453508239942 -2.713848607101717 -32.994970915435232 138 137 119
174.435486763071481 -2.858290093499627 -35.099226184084614 133 132 114
172.468107716669749 -2.721688907839720 -36.598340364774003 131 130 112
170.048101143976567 -2.763672630629144 -38.433375248789133 132 129 112
170.072565026494487 -1.911791414637188 -38.453847527635105 131 128 111
168.377024667890510 -1.703952117741298 -39.751165039686413 133 130 113
164.327134975430226 -2.395423776535717 -42.795243848945233 133 130 113
161.001378732962905 -2.835624939609993 -45.301460992635157 133 130 113
157.856520082183920 -3.226428542111259 -47.673009628188908 133 130 113
157.338260256773424 -2.620157075922614 -48.096469870447464 134 131 114
155.280272606981157 -2.617099070087075 -49.661721463739326 135 132 115
152.135095240515057 -3.053512261060165 -52.032648144394415 134 131 114
150.983023707735299 -2.719695542436824 -52.926102719229391 133 130 113
151.462190492665940 -1.741819045586034 -52.611105816116606 135 132 115
149.404346340583430 -1.780775819390758 -54.175993578987715 135 134 116
150.428043376841856 -0.583743517515585 -53.458600652889345 136 134 119
143.928901639898868 -2.450591983907666 -58.312056828314667 136 134 119
142.777345267880463 -2.157975272720820 -59.205333761918354 129 127 112
140.719304640548785 -2.247644314212358 -60.769605524856757 134 132 119
137.210437264700261 -2.955047187079809 -63.407190258400874 137 133 120
134.063926877479162 -3.531310252343606 -65.776039681485400 137 134 119
134.091404065031952 -2.782676033348258 -65.796890741924386 139 136 121
131.760976262645073 -3.039158824858342 -67.561712971013890 139 136 121
129.248986064124637 -3.387609481877842 -69.460447470537474 136 133 118
130.184405203454730 -2.259917079531095 -68.810967835641179 136 133 115
128.489094226185955 -2.272253677355300 -70.106128701845734 138 135 116
128.155015357377749 -1.697537737396514 -70.395657895698804 139 136 117
126.006092231906507 -1.926293545492992 -72.025878978006943 139 136 117
123.584746855701951 -2.289104034176979 -73.856970951940411 141 138 119
120.890868326163769 -2.788524429112982 -75.888854459854031 141 138 119
117.561164895505030 -3.590885244316467 -78.389455391010245 140 137 122
115.865534543066346 -3.671498218282271 -79.683760666189471 139 136 119
116.440350718313042 -2.724467641982135 -79.303345706068853 139 136 119
115.199145219348338 -2.609235766106681 -80.262767778333114 141 138 121
112.867922934720539 -3.006227041740456 -82.025763605429290 140 137 118
113.716464185795772 -1.934572758993484 -81.445003942988649 140 137 120
108.295732071612505 -3.799890329803162 -85.484076724695001 142 139 122
107.963298916014097 -3.294373497930967 -85.773680920924392 142 139 122
105.722417959985364 -3.698055846105428 -87.468967970466792 140 137 120
105.026784761839622 -3.375685574609282 -88.026368831418154 139 136 119
104.604171910557611 -2.925772531843577 -88.383117897528905 139 136 117
102.726910642286811 -3.183255243351128 -89.810428725933434 138 135 116
101.668095333469381 -3.052720247707251 -90.635545392841294 138 135 118
100.063630504803271 -3.196236199949341 -91.861957565228494 139 136 119
98.550110827785957 -3.304382452923145 -93.021382779592841 140 137 122
94.397745295168434 -4.733222862326662 -96.119706276126465 140 137 122
88.979058604459937 -5.000707102062157 -100.287063767491759 141 138 123
91.016853556611764 -3.348887887312525 -98.840045424354429 141 138 121
89.574617696789687 -2.258149863353011 -100.045913290654738 140 137 118
86.330047326651837 -3.350580749750397 -102.473396864270455 140 137 118
85.910571768307548 -2.971008597652392 -102.830922746444998 141 138 119
83.212163105933030 -3.804086671806122 -104.857204548230328 140 137 118
80.260194194380219 -3.037563518122389 -107.222085034631164 139 136 117
77.378135797944850 -4.028569633378080 -109.380601570317992 139 136 117
77.507714491436161 -3.381234554862302 -109.338396033361562 140 137 118
221.013861227227096 -3.176742662042853 -0.951710453645063 123 123 115
212.716973964121905 -3.816270276082983 -7.174942460006150 129 127 118
211.560383235766039 -3.218571140805163 -8.068951341445739 127 127 115
209.134455458552907 -3.036651659505591 -9.903458289673779 129 127 115
204.441376336304671 -3.606500979591202 -13.417101594664359 133 131 119
199.657267272523541 -4.234444114538108 -16.997457383750486 133 131 118
195.689088328600747 -4.620889387098211 -19.972907239933846 135 132 117
193.806892975933465 -4.333905588961835 -21.403462086575985 136 134 119
195.099699802738542 -2.987253609384543 -20.483773817587604 136 134 119
192.492105212815488 -2.959969108871256 -22.451498019618668 137 135 120
189.612275354172027 -3.041760934217240 -24.620439679582461 137 135 120
186.006471487996151 -3.392260422633440 -27.326182999174051 139 136 121
185.576388237850608 -2.654838227617426 -27.682317728211217 139 136 121
183.059371879098848 -2.655316733272374 -29.582229582068521 138 137 119
180.905324709793604 -2.541837861519488 -31.213522132853853 138 137 119
179.205098199976931 -2.278535509247006 -32.509168715318992 138 137 119
175.326427892815900 -2.812866775123956 -35.415058046778057 131 130 112
172.990705982377051 -2.808048132397431 -37.180037299651303 130 129 111
172.470693395788885 -2.149794753561158 -37.603194102910805 133 130 113
171.496981946125032 -1.662635576459602 -38.361836191257964 132 129 112
169.343019781392968 -1.622157787142798 -39.992417971125661 131 128 111
166.371730860287727 -1.902397523935814 -42.226422089979451 132 129 112
161.765494759532970 -2.821244144741970 -45.667159509321607 133 130 113
158.793697993880073 -3.142278256774457 -47.900500760086800 133 130 113
156.911770262331260 -3.060700634996131 -49.329069286794294 134 131 114
154.484776489053786 -3.202258814338662 -51.159736548096816 135 132 115
152.330256479965158 -3.251571448696961 -52.789127199198731 134 131 114
151.266075176575924 -2.883196815091829 -53.614124995570450 133 130 113
149.656820261814943 -2.737958921232494 -54.841217895584293 135 132 115
151.137685222876200 -1.363258925260559 -53.790066935896647 134 133 115
148.710834313521843 -1.558038627647316 -55.620254706937487 135 133 118
146.102063622797488 -1.841389349737444 -57.584218741980578 136 134 119
143.402221126664756 -2.177717890133640 -59.614927895107172 130 128 113
141.793273000529041 -2.079554090461473 -60.841683004448271 133 131 118
136.938538554204968 -2.598061567679406 -64.500237213730600 136 133 119
136.057182998301300 -2.226288380231557 -65.191015434206236 139 136 121
133.174808707399279 -2.710687608725988 -67.354595606245908 139 136 121
133.931204836939116 -1.653688059331746 -66.840462069897939 134 131 114
132.868470503727224 -1.376602775760154 -67.665212404702942 136 133 114
129.894949138654113 -1.935895547936477 -69.895276096937295 135 132 113
128.468280636587224 -1.836291458981842 -70.987530209410863 139 136 117
126.768624947956269 -1.865389803641909 -72.280440043511533 138 135 116
121.609740866871959 -3.439180775303527 -76.115204201686481 141 138 119
118.543974804516736 -4.109262445147847 -78.410856826070585 141 138 121
117.298962522558853 -3.978944064398569 -79.368613039372889 141 138 123
115.234438670480927 -4.227022356840493 -80.928152663817286 140 137 120
114.809249519662288 -3.740144777391996 -81.284049731606018 139 136 119
113.655639398702746 -3.589857239926084 -82.174879093070786 141 138 121
111.317775663228957 -3.993431512881104 -83.934629910748839 140 137 118
109.890890569879701 -3.987383181427987 -85.025817390284971 142 139 122
112.656126458790652 -2.027418588815411 -83.043105113643804 141 138 121
109.771608496962472 -2.712188116390596 -85.203597248714431 139 136 119
108.162929408099245 -2.809280406667553 -86.428471195542443 140 137 120
102.515976667555904 -3.554740526666927 -90.703424715088232 140 137 119
101.454371990214341 -3.426399495692022 -91.527184374074835 138 135 118
100.301677424522907 -3.348847658428889 -92.417703028940167 139 136 119
99.149092220963254 -3.277992573147110 -93.308205069242149 141 138 123
97.449058531568213 -3.485289433461380 -94.599099782232173 140 137 122
95.018751857879735 -4.066997456082737 -96.423651479884597 140 137 122
93.592306509152934 -4.159470319968184 -97.514035203584370 140 137 122
91.070197295052395 -4.813700903297039 -99.404781254347370 140 137 122
90.374138426616739 -4.555330480430470 -99.961319693498382 140 137 122
91.687760292567646 -3.273581131578676 -99.050921192507076 140 137 120
93.441233471315655 -0.515778864908563 -97.922704266380293 143 140 121
84.612531441872562 -4.516793204367159 -104.411210864505449 141 138 119
86.331808783861121 -2.416942701010741 -103.259862139260093 141 138 119
88.015858017367833 -0.919126930407838 -102.085463361728358 140 137 118
82.551397663071711 -2.062185452989184 -106.221910163388287 138 135 116
80.302382979223012 -2.698119117092556 -107.910915385953814 138 135 116
78.052984238338183 -3.347828254592531 -109.599595079081780 139 136 117
222.302064988712630 -3.056153061652822 -1.125788467200749 121 121 113
218.778830434225256 -3.163338930125823 -3.762678326880064 126 124 115
213.073314217397410 -3.979603602628638 -8.008886453282059 126 123 114
212.459340697037163 -3.209581388103674 -8.499102045590178 125 125 113
210.481593399205195 -2.881276422877467 -9.995229393641466 127 125 112
205.684711430083183 -3.479005083348260 -13.569785681358553 132 130 116
199.432297260535705 -4.581930862107106 -18.216562264538794 130 128 113
202.456727769364818 -2.657904601728966 -16.024901219552731 134 131 114
199.114616267044596 -2.837789054975149 -18.525973633656264 135 132 117
192.497457359074758 -4.139306145201896 -23.439648923764793 137 134 119
192.793812541310615 -3.134208045030589 -23.259193552027455 137 134 119
189.997131831048819 -3.186229255288843 -25.357361038541683 138 135 120
189.202156597425528 -2.563514374824789 -25.981187493097337 137 134 119
188.134417941251968 -2.040463161746666 -26.806075627825948 137 134 119
185.610775478376837 -2.035378346810793 -28.702874842236696 140 137 122
180.993768520042153 -2.787422675704340 -32.140176500016935 139 136 121
177.741661456622438 -3.079211108085980 -34.572295960387663 140 137 122
174.853477176143599 -3.259257081697753 -36.736229514275180 140 137 122
173.785898678517611 -2.794680500841822 -37.560592359539442 132 129 114
174.994634978021480 -1.501917225246406 -36.710989219878826 131 128 111
171.651291091417079 -1.884094401079877 -39.209389764948355 133 130 115
167.670281878174990 -2.523900830073547 -42.176093690606962 133 130 115
167.331732007968640 -1.819292550645806 -42.464821019818885 132 129 114
161.710914359063338 -3.116798946516601 -46.635736103058548 133 129 117
159.641831633211950 -3.092404784465956 -48.195899473768691 133 129 117
158.483700217852800 -2.729851332253511 -49.086750823184104 133 129 117
156.596882287524409 -2.656650169167354 -50.512893672460280 134 131 116
152.978891962181763 -3.271184897922732 -53.210089184389460 135 132 117
151.365294715678942 -3.118047414646002 -54.435186042224530 133 130 113
151.209901234588131 -2.395770975601394 -54.589998857583538 133 130 113
150.599157996079271 -1.856291907775564 -55.079386709232921 132 131 113
148.803697735171966 -1.797624590666697 -56.438226265314029 134 132 117
146.825931510101782 -1.823617836149427 -57.930697589172496 135 133 118
145.942220712591961 -1.413915300393588 -58.620739495973027 135 133 118
145.514644967124468 -0.821390993979184 -58.976582299895313 131 129 116
139.342185538268097 -2.615686639311443 -63.543633454688688 134 130 118
136.816898966255906 -2.922349271331475 -65.436437159843820 135 132 118
135.294806508027449 -2.821620194948918 -66.593911243756793 137 134 119
133.590323152604583 -2.807251755354112 -67.884958964058313 137 134 119
131.794617512740501 -2.841958530158298 -69.242719985252393 135 132 115
132.462595100198712 -1.827294417055246 -68.796710426453188 135 132 113
129.663317384292583 -2.310673729013699 -70.889195328732455 135 132 113
127.685209272881039 -2.452503363661083 -72.380310733192232 135 132 113
119.682393647794427 -5.253336196435678 -78.278542663143270 137 134 115
117.612070556723054 -5.477864459111073 -79.835550363818243 140 137 118
118.372129632669171 -4.453823476639265 -79.322829909389213 139 136 117
117.580411377293700 -4.120899924688511 -79.945231523451554 141 138 123
117.336905197198234 -3.544949393124180 -80.167244204478720 140 137 120
116.089000018225363 -3.426835113075900 -81.123490842825788 139 136 119
111.369662139825223 -4.904908817220892 -84.615223239042905 141 138 120
110.121469788489875 -4.812172695603777 -85.571071264982464 140 137 118
110.883780505001610 -3.794273075880622 -85.059364771550094 141 138 121
111.281186432308317 -2.941765370261556 -84.814822155375282 141 138 121
108.845489517724374 -3.417858864857814 -86.637882323652718 140 137 120
106.683799762068446 -3.778937999776795 -88.260633823364316 139 136 119
107.173589995490445 -2.890698008627681 -87.949796468012948 141 138 121
106.017887562294561 -2.787504540732202 -88.839140111559630 142 139 120
102.484205087212686 -3.837669026908570 -91.461325169215172 145 142 124
100.962438931152235 -3.932897453367748 -92.616938265949500 140 137 120
100.206617302160055 -3.026208950313788 -93.262418753906786 139 136 121
98.776717693249651 -3.095984210226810 -94.351383609214935 140 137 122
96.339889756898117 -3.675167259779293 -96.172841547978607 140 137 122
95.550735771766909 -3.444146280642134 -96.795420965762872 140 137 122
92.838799990530944 -4.186085258185294 -98.816169580757645 139 136 121
93.148819143118601 -3.412951730589201 -98.639863277725880 139 136 121
93.551060000333692 -2.590518821844025 -98.397324100454000 140 137 118
92.195446188872225 -1.436122976704457 -99.534428034786345 145 142 123
83.432673341512213 -5.395914974108349 -105.944040364988354 141 138 119
84.202825877158091 -4.402083221864205 -105.435837628299623 139 136 117
86.441126907472665 -2.627374766272545 -103.864287896527344 140 137 118
86.020794021369468 -2.251364532632566 -104.221366971424629 140 136 117
85.509094649398378 -1.926381679806993 -104.645070267116694 140 135 117
83.254242854656709 -2.541362193630331 -106.331498717140732 139 135 116
83.110003547921238 -2.028570839160190 -106.489491316066250 139 135 116
79.517486156470454 -2.811565267150890 -109.197138951944197 139 136 117
214.590356677492480 -4.744373594460159 -7.950750010048466 123 121 114
213.701215885680796 -4.056529205491251 -8.641057280009136 126 123 114
211.170966392708522 -3.894788688998811 -10.536308249701534 126 126 114
209.917372970194549 -3.339040415818079 -11.494338438375905 127 125 112
208.937536939471130 -2.702131664551370 -12.251591995732184 130 128 114
206.407425493961995 -2.577019807242102 -14.146531969668132 129 127 112
203.694862929722490 -2.527071615943846 -16.175132026261309 132 129 112
200.799803684378730 -2.553948979267948 -18.337353261973902 134 131 116
198.999362371714426 -2.230875380141396 -19.696531566655125 136 133 118
195.465569610036198 -2.505157456158658 -22.326650410998667 136 133 118
192.479015739493633 -2.613665642245252 -24.555119549487415 137 134 119
190.404818951557104 -2.425676991583819 -26.114520330679682 137 134 119
188.513157167122984 -2.186566779254123 -27.540053681944471 136 133 118
184.796285200212452 -2.598437420463344 -30.302889563668685 140 137 122
181.626777317650294 -2.839005696195424 -32.664192538918059 139 136 121
178.822209430281134 -2.968368006565619 -34.757790716142864 140 137 122
174.374359154331216 -3.705302781024034 -38.054454111348633 140 137 122
175.038614864749775 -2.615337920603642 -37.607439127751178 132 129 114
173.968604738894442 -2.155199627490783 -38.430593004880080 131 128 111
171.803039767092486 -2.105142516796310 -40.055722646383771 133 130 115
168.906894771490784 -2.339447270830345 -42.215289308559477 133 130 115
164.366668185616703 -3.206965889169274 -45.577274913552714 131 128 113
161.470038215096992 -3.480958836187399 -47.736201034881930 132 128 116
160.948246986476676 -2.868172416392136 -48.158038927639893 132 128 116
160.609455706597771 -2.188102631202368 -48.446398180243762 131 127 115
156.981852779884264 -2.781717705105458 -51.139210393142832 130 127 112
156.277888694860735 -2.257556775118352 -51.694702918986479 132 129 114
154.112039021070728 -2.311605401363629 -53.318624747386451 134 131 114
153.317041437351463 -1.835946264085036 -53.940926791093716 131 128 111
151.608250233052104 -1.729296275582350 -55.230863551599924 132 131 113
148.985369702877563 -2.000065895691525 -57.188206991417445 134 132 117
144.076746609033535 -3.211895096662682 -60.813844347643510 134 132 117
147.030721361780991 -1.246068977512649 -58.699766662315369 136 134 119
145.322146454757245 -1.178063259675585 -59.989409113805692 131 129 116
140.687064431573873 -2.331596879039154 -63.413930991560790 135 131 119
135.776932969862656 -3.627656710324313 -67.037979721577784 137 134 119
134.982479918034358 -3.224570391285735 -67.659795238999607 138 135 120
133.273390989767137 -3.212978962318472 -68.948611083873544 137 134 119
131.564313565913778 -3.211487357526814 -70.237328469855669 137 134 117
128.757130931107895 -3.691318676449488 -72.326068207303706 137 134 115
126.681844391030268 -3.871630257757075 -73.881156555501235 136 133 114
127.352442975897588 -2.869284088421415 -73.436274078095295 136 133 114
125.368862315679181 -3.025728318540204 -74.924620998591280 136 133 114
119.600801104046425 -3.483988718052406 -79.255451816613231 142 139 122
121.738624523937148 -1.830713016443808 -77.745442857003695 141 138 121
118.747533644864475 -2.489786852763526 -79.966074257344900 139 136 119
117.405211954471767 -2.414131883138750 -80.987574190169966 139 136 119
111.298073550727466 -4.535953550567953 -85.471644424674366 139 136 119
114.812451782834103 -2.243933890709787 -82.963866207426520 140 137 120
105.711246775929723 -5.154522314794895 -89.665809271687550 139 136 119
105.468586466236530 -4.618779408761899 -89.887812736927600 139 136 119
106.693542050255786 -3.387380808573884 -89.045337189953159 139 136 119
105.809894536246333 -3.155765969940942 -89.733576225233350 141 138 121
104.009147248611853 -3.370261412835594 -91.087074684336613 142 139 122
101.382602092716937 -3.995095174169412 -93.039020419698602 140 137 120
100.590890711203187 -3.742046016582340 -93.660603134926191 143 140 123
100.350060118023038 -3.223517233686740 -93.883304736657266 141 138 121
99.742481693393231 -2.886976800315586 -94.372117675106324 142 139 122
97.207262476289927 -3.510344282289344 -96.256909634776662 141 138 121
94.947139498677785 -4.011550437934431 -97.941987505607642 140 137 120
91.952022022141293 -4.895498769021571 -100.158377849382305 141 138 121
91.252718373195279 -4.637098134975645 -100.713364307638187 140 137 120
94.687889566197711 -2.280219899837144 -98.279220221199893 139 136 117
94.762585601647231 -0.999359782922220 -98.328139085154618 144 141 122
86.380962465179337 -4.120202491731106 -104.485292317373109 141 138 119
86.234699720175428 -3.599824374109716 -104.642395004731100 142 136 118
88.296352540055437 -1.916401572154862 -103.207115495336382 141 134 116
84.103718902491877 -3.535080652014833 -106.284220763689547 141 134 116
84.694647424438031 -2.628817862271901 -105.911094251694493 142 135 117
82.249297435944158 -3.346705167374037 -107.727047517343010 142 135 117
82.841196322763921 -2.441152456382852 -107.354377915380013 141 136 117
83.802193458273422 -1.331286043296925 -106.716951214319408 140 137 118
77.857344117221572 -3.982478392138883 -111.051493131937804 140 137 118
216.020109048051779 -5.541001161119194 -7.961385246085314 119 118 113
213.208596102756502 -5.445052012627455 -10.053980175436720 125 123 118
212.408578279707285 -4.735094025117864 -10.676292309623534 125 122 116
208.134033338691381 -5.129658843631408 -13.837670799128233 124 124 113
208.065800069997977 -4.205562089838635 -13.925399314303036 127 125 113
204.979907264794122 -4.255072948820068 -16.217811221001256 128 126 113
202.076823270135947 -4.263422749767455 -18.376384157655338 129 127 112
202.283576102103495 -3.267276693232114 -18.263830065719048 132 129 114
201.484487080633357 -2.603213680210690 -18.886114115369537 134 131 116
199.496357005644484 -2.341578225248675 -20.376588115657086 135 132 117
192.866802925595209 -2.757205948248103 -25.293452502219395 137 134 119
189.689019867665735 -2.947547108264955 -27.651313674872000 139 136 121
187.243178816747104 -2.903126122973712 -29.474878840123608 130 127 112
184.156648123544187 -3.097186332012811 -31.765497664314040 138 135 120
182.259832818453219 -2.890136373965130 -33.188235576658343 138 135 120
179.630766740516322 -2.954677325455617 -35.144742686915151 140 137 122
174.987620827944255 -3.757072072762721 -38.569021276434455 138 135 120
174.463915927099549 -3.097593803709385 -38.990424297620166 132 129 114
173.757373324941170 -2.507729970685975 -39.545359582692214 130 127 110
171.311249157244902 -2.561418563743116 -41.367779414671816 132 129 114
169.139789411473316 -2.527823129212875 -42.989919568211661 133 130 115
165.777662921908018 -2.951971452913434 -45.478902550296596 131 128 113
163.514436929497094 -2.982249575020336 -47.167343448307236 132 128 116
160.884735080813414 -3.165081771803610 -49.122328776805716 131 127 115
159.262669108866135 -2.977939671546353 -50.343724252021588 132 128 116
158.740166318837339 -2.376258875836339 -50.765107420473043 134 131 116
156.476913205279345 -2.454140713288274 -52.453045334863759 133 130 115
156.229752663115875 -1.755693509148412 -52.674570701391588 133 130 113
155.158069466218080 -1.383972386001831 -53.496014064721123 136 133 116
155.003204144673987 -0.653809204232212 -53.651160732001728 132 131 113
148.248235223096060 -2.569482850023026 -58.603445246941618 134 132 117
147.268257308069536 -2.193797187897515 -59.357942026849827 135 133 118
146.013395872214517 -1.935608697653748 -60.312302669961298 136 134 120
145.400603524248254 -1.421607966771134 -60.800447973348668 132 130 117
140.844336212614792 -2.539142740044514 -64.152186208241631 134 130 118
137.938495229831545 -2.997586646987660 -66.304807166485944 138 135 120
137.142344478042475 -2.589587075209689 -66.925861084644424 135 132 117
135.795941427012224 -2.418307541556331 -67.946392820205403 135 132 117
130.687489415802418 -3.853612388762030 -71.695850130069658 136 133 116
127.688935562917464 -4.416575305142304 -73.913900587300930 137 134 115
128.086027712476920 -3.533864335715733 -73.669518758294544 136 133 114
126.372377095780905 -3.564622574121745 -74.955716380659368 136 133 114
126.678474984341548 -2.722710101305808 -74.778242134592801 136 133 114
121.935044742052227 -4.100980849224083 -78.259476148472231 138 135 116
120.955883268315503 -3.839645049949046 -79.013186450512222 140 137 119
122.548542920258612 -2.436481809021128 -77.904951789300867 142 139 122
120.651534551671205 -2.590945549124258 -79.323876098626329 140 137 120
122.429254969698292 -1.094742656014725 -78.083413807612430 138 135 118
119.338144573544795 -1.804140250609955 -80.366537091016426 138 135 118
115.603336832395826 -2.827040706521172 -83.114502922985935 140 137 120
112.511274895955381 -3.575800478791914 -85.396765818109685 140 137 120
112.360326028451510 -2.977174118630197 -85.552432128995378 140 137 120
108.164543485164614 -4.269926888415441 -88.631385894885000 140 137 120
107.829932454494013 -3.771225929035330 -88.919878043945459 140 137 120
106.943897693049536 -3.535364063565842 -89.607018745016234 140 137 120
106.058066597396788 -3.304475800085627 -90.294205683319916 141 138 121
103.792503525073812 -3.740441557879228 -91.977352583677344 141 138 121
102.814845262687072 -3.568221711998689 -92.730864701598279 139 136 119
99.812786201127139 -4.384990335792438 -94.944625729366862 142 139 122
100.583918334718490 -3.375378899675234 -94.437054057190636 140 137 120
96.476782690463651 -4.760162678818816 -97.446609989388804 143 140 123
99.274216239145403 -2.752458084394136 -95.479792374638890 141 138 121
90.505090529840217 -5.881652200949690 -101.894915278706151 140 137 120
90.540806591376963 -5.257666773695354 -101.918424715587037 139 136 119
91.314159230028892 -4.258978049333794 -101.411802892461310 140 137 118
91.627535141540008 -3.489869955257007 -101.237061015583180 140 137 118
89.637213905775653 -3.900983647770862 -102.719561827131315 143 140 121
90.228021898387297 -2.991061979286364 -102.346415316992704 142 139 120
88.422156535555885 -3.322099411897911 -103.696265681219245 141 138 119
86.985034728802518 -3.471158653838760 -104.780959351979050 143 138 119
86.562589812273970 -3.095323378032679 -105.137026237831464 143 136 118
79.351289118138709 -5.735759184808141 -110.417837280544376 143 136 118
82.343865820896724 -3.559535296628257 -108.324392365716335 140 133 115
81.553051310091760 -3.399705422715913 -108.945444587900596 140 136 117
84.917852998393499 -0.995961709214425 -106.588977266452389 138 135 116
82.835331890160106 -1.535048883080367 -108.136911564634630 138 135 116
221.235151457972336 -4.210106711024173 -5.259575633218475 114 113 109
215.849256544078457 -4.895983671876043 -9.216596101909261 124 120 117
215.322545532547736 -4.094405668760114 -9.638023713994329 126 123 118
212.687064413938089 -3.961562537810113 -11.593493664300013 123 123 113
205.924846674508586 -5.159488715766019 -16.549698504878364 126 124 112
204.664643742529279 -4.627803531028311 -17.504319033422405 127 125 112
201.111641798844147 -4.847917536411243 -20.125805850100136 126 124 111
200.585389080085889 -4.097355801457196 -20.546927571800126 130 127 112
201.618872646593758 -2.834024813818448 -19.834898933905805 131 128 113
199.717199554197862 -2.543672297047940 -21.256170372539117 133 130 115
195.705388972338312 -2.974918106324727 -24.210285848259957 134 131 116
190.408712487561615 -3.866421087721932 -28.097012610777597 137 134 119
190.617305817687281 -2.903120565162536 -27.985000911270021 134 131 116
187.155471151868937 -3.207040885032669 -30.538380295767752 134 131 116
185.437215108268788 -2.923642438153897 -31.825608470268151 140 137 122
183.351889443648417 -2.779429971533306 -33.379234624747852 134 131 116
179.522466402303792 -3.266049727944608 -36.198315912982594 139 136 121
176.059949552669366 -3.644223369351846 -38.750604616340809 136 133 118
174.157985986800469 -3.480178992280412 -40.170436940326596 131 128 113
173.174260585453538 -2.993440185165418 -40.924284061434093 131 128 111
171.364276042389861 -2.815338921916211 -42.277404644322672 131 128 113
170.289042987385756 -2.376300445610342 -43.097842699035482 133 130 115
168.295527030063624 -2.285698932019328 -44.583979573397528 130 127 112
165.475312063120953 -2.517404035351432 -46.669038775607476 132 128 116
161.001356307451630 -3.392029790404272 -49.951796076364332 132 128 116
160.110011151808749 -2.925989276879295 -50.638765647509331 132 128 116
158.300043006862865 -2.818444914126080 -51.991167797579749 132 129 114
158.603666129982003 -1.902175372277424 -51.813275026874066 133 130 115
153.393536659153739 -3.137962331703640 -55.627002811346642 134 131 114
156.087283025600357 -1.293190802189805 -53.719763337058083 134 131 114
150.233115314818889 -2.822918529081124 -57.998371949575898 132 131 113
149.158643764374688 -2.477156847239624 -58.818214160556295 133 131 116
146.613238408569032 -2.729998761008383 -60.701947112196194 136 134 119
145.722867386480004 -2.326421801734148 -61.388739736751461 133 131 117
144.648785414248664 -2.003049661206544 -62.208537853817205 131 129 116
142.655114492753881 -2.064549233138143 -63.693034940967920 134 130 118
140.569413822311390 -2.175983749740441 -65.243850191123386 138 135 120
138.483644220416352 -2.299766084836381 -66.794505362409495 133 130 115
135.845738107321580 -2.668216274942500 -68.743655139683881 134 131 116
133.391657869227288 -2.974410809780327 -70.559669644349356 137 134 117
131.213498957401868 -3.177376069607023 -72.176169901746988 136 133 114
130.323861924593245 -2.839321615826782 -72.862639208193372 136 133 114
128.882094784980609 -2.745380268401310 -73.947611894775548 136 133 114
125.506929863223206 -3.502683074122831 -76.426928009145882 137 134 115
127.656249313771085 -1.855160095324599 -74.922359495531822 139 136 117
124.280918372595451 -2.636084883325319 -77.401353033851251 142 139 121
118.418207297794609 -4.544034112291693 -81.671981306383429 143 140 123
122.042743530752503 -2.236627359982763 -79.106201801304763 143 140 123
120.325011562028976 -2.316637883405404 -80.389939940337371 141 138 121
115.842837031446336 -3.662062358630145 -83.663919239611630 140 137 120
114.954093003313744 -3.391715672744694 -84.350118806365657 139 136 119
115.540352017837506 -2.447712464536724 -83.975146899111820 139 136 119
114.283495740712752 -2.353551427812130 -84.926864800018194 140 137 120
112.934536843863810 -2.309639893365614 -85.944862764900222 141 138 121
107.989177291124037 -3.961280661793672 -89.548398323706436 143 140 123
107.838798912421439 -3.377934990132854 -89.704180262676147 141 138 121
104.460230755052592 -4.329698573912677 -92.179866598318000 140 137 120
103.018551901540889 -4.375086286539365 -93.263447336660221 141 138 121
103.791536878411279 -3.362682307573329 -92.756790803404073 140 137 120
101.519630912572538 -3.820434888939155 -94.436679022525368 141 138 121
99.098462492035068 -3.735098058749268 -96.272468656926549 140 137 120
97.010779666974642 -4.135940625249897 -97.819356628663314 141 138 121
98.432422047594798 -2.806115411551624 -96.850270755734101 140 137 120
94.035579902350321 -4.375002839250655 -100.051913674310754 142 139 122
89.175707616900269 -6.203209177809482 -103.583669685729802 141 138 121
89.674178949653040 -5.350183566133081 -103.276622859243815 141 138 119
89.433959107539181 -4.869668835763211 -103.499225344452270 141 138 119
89.009289914347178 -4.484678154012690 -103.854322385165716 142 139 120
89.602052085987637 -3.577870867975393 -103.482078689673045 140 137 118
85.055105068376065 -4.739842789297144 -106.837818307390592 145 138 120
89.072137004521693 -2.043306929982101 -104.020377363052432 143 136 118
79.381887269881020 -5.401642636135453 -111.101067870460355 142 135 117
79.884785948868014 -4.557019385344542 -110.796052581515653 141 137 118
81.129372293599687 -3.308618327524560 -109.963143338015101 140 137 118
78.762372943225799 -4.012223652408543 -111.705867407053347 140 137 118
221.694892241378113 -4.340901381712991 -6.032462137491649 114 113 108
211.904580897593377 -5.431750746346419 -13.199482774988581 122 120 115
211.560617498480610 -4.587798962448681 -13.487054623219450 123 123 113
212.412458092582483 -3.365669028903196 -12.909422276639702 125 123 111
204.527775505076647 -4.941150595086192 -18.655064033152939 128 126 113
202.068798838265337 -4.806659713559204 -20.473272299475781 125 123 110
202.185321923742947 -3.845029927917264 -20.428056197705018 129 126 112
201.474315711998088 -3.155433045998104 -20.981882709624756 130 127 112
196.347661025104429 -3.939282130036786 -24.729337683268881 133 130 115
198.396971206289550 -2.344230403202126 -23.287243849959538 135 132 117
192.165797757406722 -3.541689597538849 -27.832349956242069 133 130 115
189.706813472491547 -3.487137735850798 -29.649731725601072 135 132 117
188.260104952506055 -3.098147932507376 -30.735377554726881 135 132 117
187.733898152644372 -2.397550966794304 -31.156006931399560 138 135 120
188.496621817486528 -1.247878478953702 -30.645854395361596 138 135 120
183.184318038284005 -2.242127332388836 -34.524047498915792 137 134 119
178.515871091766343 -3.038307756348577 -37.936286127672304 135 132 117
174.307303345401181 -3.696817905265021 -41.015652074146004 131 128 113
174.794398210441869 -2.677343937588809 -40.704876121046681 130 127 110
174.084830946470845 -2.092320204436541 -41.258314596695783 131 128 113
171.349380530659488 -2.258192203789033 -43.273743637908893 132 129 114
168.890114297523922 -2.337590372362613 -45.089611709253404 132 129 114
167.075573065389335 -2.189959346043088 -46.440238742253882 130 126 114
161.483931856454461 -3.479397279213018 -50.514335902186161 132 128 116
159.945480888628310 -3.259304822257183 -51.665212798419219 132 128 115
160.157864050339157 -2.376512798204244 -51.554185426932378 132 129 114
157.882536919202408 -2.454076742834584 -53.236350444930196 133 130 115
157.450424932840463 -1.826857889671013 -53.590380255156276 133 130 113
155.267324022800693 -1.889515348709218 -55.205960536226002 133 130 113
150.779543261811170 -2.876885716625035 -58.480943464887588 133 132 114
146.567762117713869 -3.780938489135598 -61.556244639326167 133 131 116
147.426762330060797 -2.673329008503267 -60.980858613021752 134 132 117
146.073191944989844 -2.455653728260133 -61.998439095272118 134 132 118
144.719735758384445 -2.245814841643566 -63.015993545740656 132 130 117
143.735346910340155 -1.892289158482078 -63.768152046616905 134 130 118
140.906164423850100 -2.307588860252288 -65.847031386781737 136 133 118
138.907079346500552 -2.393751215149186 -67.328684493915063 135 132 117
136.169758053250121 -2.801522770700426 -69.340728520122298 136 133 118
138.046413817730439 -1.275093969736987 -68.037048805262913 137 134 117
135.032295787177304 -1.819237209659209 -70.247847133631240 138 135 116
132.110156933905330 -2.341829905609327 -72.392010930787364 138 135 116
129.372343711595335 -2.802173295527658 -74.403278471517694 138 135 116
126.634253620049336 -3.278865132821746 -76.414245276172977 138 135 116
124.172914220428567 -3.650630763439380 -78.226112066617588 139 136 117
122.080789382335752 -3.874208659802786 -79.772699668845490 140 137 120
121.651229728271758 -3.372222786412862 -80.126661420121764 143 140 123
118.820007776350252 -3.945731133939725 -82.202936565946914 141 138 121
119.499570613165361 -2.956621040337869 -81.762206310369152 141 138 121
117.130215297629690 -3.343959398434206 -83.507058788517583 140 137 120
117.533402362483258 -2.481236854314699 -83.265386995193268 139 136 119
116.827918013153649 -2.124587758468491 -83.818427948344407 138 135 118
116.584975498455691 -1.558199857744941 -84.040611852002542 139 136 119
115.510237691793691 -1.379751938907687 -84.858604442307126 140 137 120
108.979172460107904 -3.761301277861484 -89.580631567706803 141 138 121
105.128950126635331 -4.919237034998302 -92.382852353045877 141 138 121
103.775815601748604 -4.916297995296630 -93.398430961316251 142 139 122
102.700313045334738 -4.788765973378240 -94.215533595055973 143 140 123
101.069687456646278 -4.933990345716245 -95.429412963893753 143 140 123
100.272043232304142 -4.686260684572273 -96.048102671199160 143 140 123
97.160249943596085 -5.568331817257979 -98.319553914228806 141 138 121
95.251566427336329 -5.880288630738444 -99.731271717604841 141 138 121
93.898361898107709 -5.930017029470741 -100.746274703636345 142 139 122
97.917399428310446 -3.326203665183929 -97.928838789399407 140 137 120
95.175600628825137 -4.067472597715572 -99.935307935935498 144 141 124
91.228758555439313 -5.429419011547710 -102.800065069629767 142 139 122
89.227160250133323 -5.833596064379142 -104.277242372080650 141 138 119
89.820747781705322 -4.932282307817820 -103.905336978291558 142 139 120
90.044249710569943 -4.215946140485163 -103.797915373145656 143 140 121
