ply
format ascii 1.0
element vertex 684
property double x
property double y
property double z
property uchar red
property uchar green
property uchar blue
end_header
9.049204694949310 -1.071528813314699 -10.539959151746103 151 158 124
-8.400730855814260 -1.054236668163788 -45.981407337958103 148 154 126
-9.063832839895682 -1.152698317618441 -47.326051380283303 148 153 123
-9.504832483642673 -1.022799342605746 -48.225004626945207 144 149 117
-11.757813227365617 -1.086276932230157 -52.800336085945588 141 146 116
-15.865174286870158 -1.076225690630640 -61.145368394017225 142 145 118
-16.306484483804013 -1.019353728442817 -62.043421369370350 140 143 117
-17.322519113311145 -1.074910663990150 -64.106536363013277 140 144 119
81.631742029537904 -1.000386479479047 134.216606161969139 135 136 122
78.295504580882252 -1.711908821709759 127.505558409612263 138 139 125
71.633113334499882 -1.084205968739225 114.057529546248105 140 140 128
15.511907266539893 -1.084395954863127 0.890952462829318 159 166 137
14.623206774464123 -1.102445972757029 -0.900888168479725 157 164 133
-6.700579452351946 -1.071748013035986 -43.912242680741173 154 160 132
-10.787446749373260 -1.198511418111164 -52.154811947729542 146 151 121
-11.454376630864303 -1.333789728904496 -53.497245764664655 140 145 115
-12.031980712275939 -1.379705724791370 -54.661614819532673 143 148 118
-12.296840773550173 -1.090205388011581 -55.203039956005227 144 149 119
-15.360960516611200 -1.081740824556706 -61.386525763364887 142 146 119
88.706613632926292 -1.257829421937645 145.800611291337361 132 132 121
81.555293384744616 -1.625823097146280 131.488144741880490 135 136 122
79.320586671474274 -1.724056666358118 127.015287695027894 137 138 124
78.116283870892701 -1.273092826872861 124.593590136624272 137 138 124
16.096979738660764 -1.167750241602450 0.390196035333361 160 164 136
15.158466131468728 -1.224303989072963 -1.488276719138440 157 162 132
-6.373394981746003 -1.308679823054982 -44.620622176442055 152 159 128
-6.729384485276128 -1.068774195328106 -45.339658566691384 153 159 131
-10.572635575266119 -1.540781966970172 -53.030065908853260 148 153 123
-11.288160650243171 -1.726254177416993 -54.459594165691158 145 150 120
-11.779094909118967 -1.677099477267877 -55.444686607173821 144 149 119
-11.820780523491976 -1.144816438843822 -55.541082293775105 144 149 119
89.963919680381522 -1.175866076216871 145.641712237708759 130 130 120
87.446944798691192 -1.332112967505322 140.639335165838759 131 132 118
85.245161093378258 -1.349183526344590 136.260751298111927 136 137 123
82.863051698354269 -1.491095826549769 131.526284141315301 134 135 121
81.111515179462913 -1.314858553553770 128.038902597504773 137 138 124
79.179668960462394 -1.260194058750594 124.195596466173498 138 139 125
73.698853374198393 -1.055958471554962 113.290713596182684 141 141 129
-0.567025776566382 -1.050781284968509 -34.430534445146208 157 164 131
-5.642245800098792 -1.130240097621128 -44.528802668824852 151 158 127
-9.774074824217379 -1.258259552217103 -52.749849470537129 148 153 123
-10.493496466424673 -1.442037621044057 -54.177531061619135 147 152 122
-11.438806539351347 -1.877233626799040 -56.048854855201739 145 150 120
-11.345207221474809 -1.199399573232131 -55.878891964629275 143 148 118
89.864418641567411 -1.805144180485395 142.813459661333525 129 129 119
88.511153012442222 -1.344922352378701 140.130353457614120 131 132 119
85.798977584466641 -1.628552321799552 134.779235336328611 136 137 123
84.037857304337123 -1.430051034625163 131.296209456361538 134 135 121
81.868964405404625 -1.475973997156319 127.013046616808452 139 140 126
80.198228968398709 -1.272454530780312 123.708447052906024 140 141 127
76.720572374769631 -1.002912809302894 116.833237379667196 136 136 124
72.608278376503392 -1.183474521494841 108.714244817320548 140 140 128
11.573677781417004 -1.140886568233249 -11.857803373849492 155 162 129
8.366484179367717 -1.201100142059576 -18.193853968758276 149 156 122
7.734746862876719 -1.086083545679406 -19.444841314455800 147 154 120
-6.264588271395581 -1.125244511268263 -47.113458593780138 147 154 123
-9.605058485970005 -1.061179594383850 -53.719606029789389 148 153 123
-10.464654642924344 -1.396917659432425 -55.411241067676571 144 149 119
-10.915537862611814 -1.302828688058957 -56.305097435129767 143 148 118
-11.321017631530168 -1.164704940524928 -57.110269044952588 143 148 118
-15.655652838205597 -1.455688587996527 -65.676052131469504 138 142 115
92.256683754205866 -1.130813892870331 144.876974673734679 129 129 116
90.212888069088535 -1.022222394039950 140.864951915679057 131 132 119
87.531409640350304 -1.277636280456449 135.609716897782448 136 137 123
85.715077359020071 -1.099467924994618 132.042454662098947 134 135 121
81.307855628730067 -1.234698395382261 123.398934589057575 138 139 125
69.404279343089186 -1.501495826334808 100.051283112883624 139 139 127
12.261499317070815 -1.108746458781631 -12.076326788223270 153 160 127
9.082426829864502 -1.126909003511950 -18.315404395528446 150 157 124
8.401619212318906 -1.052290916690941 -19.653359720167543 148 155 122
-5.856391513590253 -1.271359878515720 -47.639811139417134 150 155 123
-6.309576980311178 -1.135848591914612 -48.532992500480361 151 156 126
-9.077969680228449 -1.066941140962462 -53.971704201253630 149 154 125
-9.987866216401727 -1.451210665831613 -55.749635036362235 144 149 119
-10.623832665901674 -1.552838377320746 -56.996369150630869 143 148 118
-11.442481998434815 -1.858348802955178 -58.597045272324323 143 148 118
-11.347857356930575 -1.184971423602444 -58.427527018274304 142 147 115
-15.435196190664300 -1.768965288842737 -66.443446431055435 140 144 117
13.771730439197327 -1.076093859178830 -10.692833476531518 153 160 129
-4.489211222577211 -1.046798529586127 -46.300717098541895 152 157 126
-5.174290179910642 -1.137339019011487 -47.634928968673506 150 155 124
-5.629912246910948 -1.000966741547456 -48.526953531126537 151 156 126
-8.003363853551804 -1.083460025341550 -53.155315289074281 144 148 121
-8.550876820706407 -1.072682793831798 -54.223804516808542 146 150 123
-9.282033164176767 -1.262500800987630 -55.645810094910075 146 150 123
-10.196851654072248 -1.656192189846995 -57.421289300249811 142 146 119
-10.606712147842131 -1.519902999988666 -58.224346302295743 144 148 121
-10.832938706664720 -1.190510110459220 -58.673805323081837 143 148 118
15.152987030580235 -1.171045949487481 -9.578902347004799 151 158 127
14.372758289515147 -1.123086286086413 -11.090738308235899 152 159 128
-0.866104024969729 -1.079118017236901 -40.606121192511125 151 156 124
-4.536855784975913 -1.050006252996748 -47.719056588459921 151 156 126
-6.280230220241066 -1.034548250876443 -51.097828978375730 149 153 126
-7.061362686296420 -1.249597971090001 -52.606525312959064 144 148 121
-7.842527995420014 -1.473600484461981 -54.115113779933665 143 147 120
-8.346827807907275 -1.416638699922494 -55.093892548623444 145 149 122
-8.897293310891499 -1.413938363723121 -56.160886153796355 146 150 123
-9.078553260199214 -1.026520755001140 -56.521595439104999 144 148 121
-9.675195620761258 -1.083189572815341 -57.676745962287470 144 148 121
95.539184874413721 -1.146966751460887 143.417662543707763 136 134 121
-3.944823494524215 -1.009353112769911 -47.891842385169440 149 153 126
-5.144163554702061 -1.023281702124095 -50.200269845338966 151 155 128
-6.207764678032049 -1.515386062803574 -52.236135589431854 148 152 127
-6.900281365274353 -1.637558400360369 -53.566463672566186 144 148 123
-7.685610168646591 -1.863679539381716 -55.073038530085427 141 145 118
-7.914231807240270 -1.518954264232512 -55.521509576866151 143 147 120
-8.096451159482712 -1.128028716979286 -55.881795996072952 144 148 121
93.645674614444857 -1.506275003636012 137.232241267097265 134 134 124
89.980163226958524 -1.102034263852825 130.223796388824013 136 136 124
83.387737959711117 -1.252571603472032 117.637177937485433 135 136 122
20.121774071951563 -1.051666193980970 -3.199329963097512 149 153 126
10.794377626347895 -1.163270434058034 -21.018622545666972 148 155 123
0.077853136085679 -1.272015719338130 -41.499157009476363 149 154 122
-0.664751885635553 -1.371528376015909 -42.916615137483461 151 156 124
-1.360758533240571 -1.433890125641718 -44.245889295970699 146 151 119
-3.632082510282856 -1.248755321545805 -48.593286737446192 148 152 126
-4.141661604962650 -1.159736725831332 -49.569869892492392 150 154 129
-4.837787699391299 -1.265296203021524 -50.898642252118094 149 153 128
-5.533937652338423 -1.378723255455336 -52.227322213006090 150 154 130
-6.416659342739706 -1.691085358878684 -53.908134695476036 145 149 124
-7.252779064879505 -1.965452941672362 -55.500773611591313 141 145 118
-7.249411029913702 -1.379668991993555 -55.508414636440932 144 148 121
101.895928744170902 -1.466963017672461 150.357211590673501 134 132 119
90.134895966282755 -1.580643671495342 128.048380530287261 137 137 125
88.642973502553090 -1.230187278653430 125.211019381892498 137 137 125
86.589676911028292 -1.197747291241448 121.315184575578570 136 137 123
84.115293672770434 -1.417131382824394 116.625658365163872 135 136 122
82.716665195669265 -1.077023027778338 113.965489980743399 134 134 122
24.431078794450571 -1.131536367925133 3.386928596340056 148 150 128
23.544857373744762 -1.079292110651317 1.704037296418534 146 150 125
13.934767193206198 -1.056113399442951 -16.535697385580221 148 155 122
11.274830157674486 -1.293502078604844 -21.579705504821476 151 158 125
10.575508509119700 -1.227906916824359 -22.908710902986400 149 156 123
9.969862295671589 -1.087236678049584 -24.061585323854814 148 155 124
6.379116184911609 -1.001332271927278 -30.880803088598185 155 162 129
5.539069657604102 -1.120784691971177 -32.473158054174093 155 162 129
1.529192887828742 -1.053044940303343 -40.089408134674983 147 152 122
-1.081964362095661 -1.097578230966917 -45.047878608623279 142 147 116
-3.599673785449014 -1.165677042006156 -49.829093860910405 150 154 129
-4.299464100555767 -1.271172937990427 -51.156113924396863 149 153 130
-5.093038008427186 -1.479520480253276 -52.658927304745674 153 157 134
-5.464701877377536 -1.266939520407965 -53.370183865771878 147 151 128
-6.070784868697245 -1.298587678879204 -54.521075573775533 146 150 123
-11.847667331334819 -1.122460867424161 -65.505749497033122 139 143 120
90.421291232677206 -1.985742187473188 126.141797740326382 138 138 125
88.780330492560978 -1.713818456443031 123.043967713872576 138 139 126
87.468436931145831 -1.285791289961836 120.563118420438514 135 136 122
85.827324185558624 -1.050278014311132 117.465735903989128 136 137 123
74.285957131858751 -1.008449885218360 95.715370093601820 133 135 123
72.409107761375424 -1.052515915780016 92.179346596110321 134 136 124
25.167967696804823 -1.103028711551759 3.144968912589945 145 147 125
14.521964951586199 -1.103812990507056 -16.926978669511215 150 155 123
12.177628559460899 -1.054971652479731 -21.348903169682842 152 159 128
11.333342725441184 -1.111423316028501 -22.939878563894183 150 157 126
10.536122115233468 -1.135943317170140 -24.442839603572907 149 156 123
7.441178181763121 -1.239158413991828 -30.277852994289532 153 160 127
6.832233063733355 -1.136805253006548 -31.428754813583225 155 162 129
6.129068717204802 -1.127579120092566 -32.755341643477692 155 162 129
2.518720530326178 -1.289255785024812 -39.562633365857749 147 152 122
1.721208651184412 -1.417603573327505 -41.064386311904940 148 153 123
1.253455058595236 -1.239665829938517 -41.951035048321131 148 153 121
-0.526774081447215 -1.103749116170566 -45.313416215831126 138 143 113
-1.371507657165466 -1.317690398670836 -46.902556292184755 148 152 125
-4.087605944148805 -1.010417809479451 -52.036162418206203 152 157 134
-11.443016259997236 -1.229630861826605 -65.919947797784261 139 143 120
107.259555453306390 -1.175595938221485 155.215817059949387 129 129 117
92.916529723439595 -2.387039496069252 128.388840386633973 134 135 121
91.597800688057660 -1.925479101512354 125.910915986153327 136 137 123
89.853613532312409 -1.702158776048287 122.641251652534663 139 140 126
87.400336063594850 -1.874588449865011 118.052004073826964 138 139 125
25.999970235916365 -1.000729494621284 3.078465387275799 147 149 127
25.009723122057935 -1.021635949374590 1.224374829573975 149 153 128
8.038055690813678 -1.246086062242435 -30.563325838930837 153 160 127
7.567952742609606 -1.015075653894824 -31.449396955275546 155 162 129
2.430217325176443 -1.289705279260836 -41.072313497894442 147 152 122
1.912661952862976 -1.155936503882400 -42.045541465140815 149 154 122
0.075780673626511 -1.064060503915897 -45.491225995176876 141 146 116
-0.631266254943327 -1.139282627193799 -46.815086142806962 145 149 122
-4.728414006138181 -1.021739743487238 -54.500957618514150 147 153 125
-5.482966585098211 -1.203309876988949 -55.911855417259886 147 151 124
-6.000656560373670 -1.150383681054387 -56.884186837628675 143 147 120
-9.719470328555275 -1.039218522761438 -63.864115265493695 143 146 125
108.709742398059220 -1.029912132667790 155.296565194252025 129 129 117
103.916638541227854 -2.133733507195062 146.404184460927553 133 133 121
95.954330009691120 -1.383277419676298 131.581308081760000 135 136 122
92.823251903019752 -1.840838073419136 125.767228612470490 136 137 123
89.644516254745881 -2.359117811751043 119.865714474847067 138 139 125
88.033569631395977 -2.087868120499335 116.864391620962436 138 139 125
87.705434333471402 -1.152079758356809 116.235725688581311 134 135 122
19.297202074128876 -1.022437144866462 -11.008715899136433 154 157 130
-0.269926732986860 -1.329858362416040 -47.429423579444943 147 151 124
-0.599788021908367 -1.042833259125725 -48.050585757515250 147 151 124
-3.677524796996863 -1.093088544255719 -53.783517250846529 149 153 128
-4.293108813408935 -1.123459329168482 -54.929876849660531 145 151 123
-5.051567484032077 -1.305504787731351 -56.338901094783978 146 150 123
-5.333824406917017 -1.010182831611143 -56.872063557145765 143 147 120
-5.949439147294811 -1.059741493892182 -58.018210947258893 142 146 119
104.772247308902507 -2.263546202269073 145.441905961933742 131 131 119
103.439921083598762 -1.715051069026046 142.969591547566864 134 134 122
99.772221514819464 -1.167079840272381 136.182431767437748 135 136 122
92.379123148927889 -2.613323277506339 122.551024431816217 135 136 122
92.192551007882571 -1.580105063432897 122.186208930772921 136 137 123
90.000079246135428 -1.600411878100918 118.135780228331328 136 137 123
87.950789488801121 -1.569928471440950 114.348907591264009 135 136 123
82.136714641105598 -1.436499857134278 103.604183661367216 136 137 123
80.421419410119611 -1.313288916901594 100.432586891090210 137 138 123
75.227316998312148 -1.088713351334210 90.831497555560759 133 134 120
73.368416281164329 -1.126712334389967 87.397683917589006 135 136 122
70.888426372181797 -1.546486960345564 82.823761524589287 139 140 126
69.889231051995949 -1.126403439910205 80.969412426773658 140 141 127
19.901641334084360 -1.069422981324347 -11.408252805356909 154 157 131
18.948597223439251 -1.137934334289131 -13.168792246222353 155 158 131
0.280869022912015 -1.335927621294571 -47.692859907166536 148 152 125
-0.337827584859596 -1.327200334573660 -48.838132909035693 147 151 124
-2.002543978672236 -1.152899619684152 -51.923593429442093 148 152 127
-3.099889081349730 -1.645025971077471 -53.943315943118279 149 153 128
-3.910100453678737 -1.862857290532237 -55.438072396216114 148 152 127
-4.241692412348613 -1.609367788582938 -56.058061429019631 145 151 123
-4.716874049996491 -1.504268207747334 -56.940406854343024 146 150 123
-5.383527438310935 -1.598587402285104 -58.172535672505319 143 147 120
-5.762980024815150 -1.407124659640488 -58.879848757332752 142 146 119
-8.757772353082672 -1.099903311116092 -64.434422506443553 144 146 123
99.447164603793993 -1.875272862920855 133.130320003324442 133 134 120
94.847882485915349 -1.892252062556171 124.688322626563917 136 137 123
92.692100023479782 -1.865793770190691 120.730719397273049 136 137 123
90.728243158944878 -1.763809008193796 117.123957727601152 136 137 123
89.580407947396580 -1.254201411464476 115.007219273266657 135 136 122
85.364247511554339 -1.307995525664527 107.269187830824791 138 139 125
83.496077565188230 -1.240353818960428 103.838721147649778 138 139 123
81.963901202668694 -1.009347468251951 101.021846885747465 136 137 121
79.759497057701012 -1.168904375923224 96.978559965698309 135 136 120
77.987112811031750 -1.111242250073062 93.724090226794289 135 136 122
75.686503025154551 -1.372838389188539 89.506160326819355 135 136 122
74.394105862687468 -1.083892453423092 87.128274540853255 136 137 123
21.415464895060452 -1.097234332201028 -10.136714603200659 152 157 132
20.505580906395380 -1.116430904706730 -11.807550435369279 153 157 134
19.499542941851061 -1.224469888891434 -13.653189805332431 152 156 131
18.781867086695343 -1.106083939531017 -14.973958016068764 150 154 127
7.771139063508940 -1.153259664748964 -35.203521399663657 154 160 130
7.005125259000522 -1.203281364199148 -36.610290281508810 152 157 127
4.421802396345612 -1.040366779717622 -41.362494226269320 144 149 119
0.257895976545200 -1.286804927161851 -49.012681944143196 147 150 123
-0.267781390801929 -1.191206438254430 -49.981631470871605 148 151 124
-1.703983515577335 -1.394734799247447 -52.618228825218608 149 151 127
-2.662639796377277 -1.745696249772084 -54.373176022373997 150 152 128
-3.669435933592666 -2.155004133267714 -56.215351573004966 147 152 126
-3.762186994926481 -1.662977895834918 -56.397762226262472 145 151 123
-4.239801330796482 -1.558092874848819 -57.278941648522675 146 150 123
-4.765528490362939 -1.506901169992431 -58.247410253487800 142 146 119
-5.050686812235739 -1.217146541703095 -58.779127389216825 141 145 118
-7.775592464541944 -1.167891722489534 -63.795005310413075 144 146 122
-8.301337817359467 -1.155432632664524 -64.763066517525090 145 147 123
107.059418268952655 -1.041579681182441 144.556870668987727 134 134 120
103.156053359099005 -1.754508369807530 137.451995916824785 134 135 121
97.664729330627679 -2.150702756660389 127.445191856282833 136 137 123
95.642626684214221 -2.028248143877812 123.755225177634060 138 139 125
94.247690016700730 -1.606992234764958 121.203314236542752 138 139 125
92.804440878269631 -1.226661675865820 118.564078196205543 137 138 124
86.881923662844244 -1.036780023131930 107.759792738916758 136 137 123
80.910398197167552 -1.074887056102947 96.870440577715215 135 136 120
21.302252946055916 -1.007192000542379 -11.857223404535745 152 156 133
18.606727112092756 -1.083179677948023 -16.775008461267134 150 154 127
14.323098518919053 -1.230436248460950 -24.590660197409335 149 154 124
12.206898243479031 -1.037330235955756 -28.458055913061997 151 158 127
11.195423228720514 -1.256476286459508 -30.299950535990291 152 159 128
8.454108865381997 -1.073223587568889 -35.309357893563316 152 159 128
7.780834194657103 -1.035292610933343 -36.539680430365024 150 156 126
6.337585968922482 -1.069971233179484 -39.174645009348836 150 155 125
5.277598080664475 -1.410549836033661 -41.102940158539894 149 152 123
4.410921089090337 -1.583820975954911 -42.682001218172275 147 150 121
4.124273642273835 -1.226319664532766 -43.213703312274987 147 151 124
3.692621375003370 -1.007714732378953 -44.007182521861608 147 151 124
3.019269882739010 -1.021584902625844 -45.236935092274535 146 150 123
1.527503224854456 -1.209694191694210 -47.957968165615057 147 151 124
-1.936256001037961 -1.561479835487593 -54.279136232641747 148 151 124
-2.754763695691580 -1.778610121794163 -55.769930969663250 147 150 123
-3.283164625664440 -1.716560701989215 -56.737232215945255 145 151 123
-3.714854897579045 -1.563592922880044 -57.530017608050770 146 150 123
-4.049824593362217 -1.318061398815459 -58.148308827533100 144 148 121
-4.433142525521589 -1.124847276913018 -58.853790772074916 141 145 118
-6.885293657599590 -1.340932903364002 -63.332268928798413 142 145 118
-7.123497671978654 -1.022313444769447 -63.775887079564882 143 144 117
-7.990492521168520 -1.362385224385005 -65.353079114425640 145 145 119
106.988989213244992 -1.617431245162760 141.935877979167344 136 134 122
97.307770101224506 -1.723728351120806 124.396657203331984 139 137 124
95.857133688826252 -1.323603893406776 121.760751460995067 141 139 126
20.213273921550041 -1.002906059349475 -15.327223546402649 150 154 129
15.085561822280255 -1.114109229883570 -24.624040785910324 149 154 124
11.265259394494905 -1.067966419612929 -31.554748079202312 150 157 126
6.865020721190419 -1.120727905840261 -39.537304407929582 150 155 125
5.993960245061970 -1.283567906124928 -41.114375796536990 149 152 123
5.220041408864233 -1.366440454414758 -42.517024788028209 147 150 121
4.883352377289185 -1.052554019579169 -43.135197094596208 147 150 123
-0.288083542834059 -1.075861043439384 -52.522860652193685 151 154 125
-0.916324407922431 -1.092423168405478 -53.663307397458652 148 151 122
-2.030554449699267 -1.593223158241763 -55.674862932028759 148 151 122
-2.172826644479073 -1.145858144104151 -55.943982009303255 148 151 122
-2.801088168251624 -1.182723501513835 -57.084209880153480 147 150 121
-5.602233687645281 -1.120751339768965 -62.174604701179277 141 144 115
-6.133303423733452 -1.096334440722179 -63.140241829322520 142 145 116
-7.344962939405832 -1.780516683173619 -65.325017561732722 141 144 115
-7.292675240796342 -1.165392442826051 -65.245504715417582 143 143 115
-7.920984625970306 -1.259959089645498 -66.385115741178907 140 141 114
-8.208969515938847 -1.004002825236110 -66.915132752881391 136 139 112
117.127804034585864 -1.026806273685046 157.699176717258780 128 125 116
108.222591992622725 -1.561714944293037 141.677729776836571 134 132 120
106.716088311920302 -1.096807646045321 138.957025016917186 134 132 119
99.852389721333637 -2.130003998517578 126.620127331166543 138 136 123
98.784285609415662 -1.517274571669214 124.685902077103862 140 138 125
97.423681252597348 -1.065126289361121 122.228107570461390 141 139 126
92.947504116142213 -1.117187306107203 114.171013847005440 140 138 125
90.904259956866440 -1.078639517665092 110.492024890737042 138 136 123
84.774033992152638 -1.100483075327078 99.456709326332629 139 137 124
22.314397109972873 -1.257581078216126 -13.004005632175421 151 154 133
21.634436738993855 -1.090846124021537 -14.232455596938792 151 155 132
12.641080110676342 -1.059050870266427 -30.439285607405424 148 155 124
11.716902564005153 -1.202695952645318 -32.102002439388428 148 155 124
2.532926641346123 -1.313986511211032 -48.659603518365827 148 151 124
1.563150617939911 -1.022312782984898 -50.415846035500721 148 151 122
-6.156869419743472 -1.082553810069623 -64.348557522688139 141 144 116
-6.788325366397842 -1.170315144378478 -65.486733294723138 142 142 114
-8.002392912530439 -1.315000191578225 -67.675910349266019 137 140 113
-8.340670444380322 -1.114821695598762 -68.292152269810884 133 136 109
110.388291300613616 -1.061781158371768 143.075416049936450 135 133 120
107.404560081004121 -1.300515909516542 137.742888274597561 135 133 120
105.204474130068803 -1.189683969825782 133.805611182007766 137 135 122
102.220513127966186 -1.490629529628227 128.473833700931579 138 136 123
99.873267737431050 -1.506726197870099 124.275687064989455 141 139 126
89.850354932402908 -1.076254476955104 106.340111724874163 135 133 120
85.448682280005457 -1.271630909388048 98.470568299035079 138 136 123
24.090167442627759 -1.090786971462165 -11.305490614846349 147 152 130
23.259639782528666 -1.031264859987577 -12.793382763708308 150 153 132
22.183872392803323 -1.177464307681183 -14.716129895776703 150 154 131
13.243094699975117 -1.066132749439355 -30.727214426052683 147 154 123
12.510494606314907 -1.039391074572135 -32.039899591688993 148 155 124
3.329384465890101 -1.089474051919616 -48.488642806525235 148 151 124
2.743902368620184 -1.032389857510691 -49.539444393391364 146 149 120
2.011172994394116 -1.121498358052240 -50.850875207594498 148 151 122
1.278433379379706 -1.218480367095607 -52.162220076661242 151 154 125
0.742024754163580 -1.134550609657928 -53.125915694293894 151 154 125
-5.649352352582540 -1.087511542777452 -64.591300915561703 139 142 115
-6.382174084825834 -1.276161456822708 -65.901662916231459 138 138 112
-7.213224009509517 -1.574156858138512 -67.385625108145774 140 140 114
-7.504088484358164 -1.319738225116798 -67.914248708699631 139 139 113
107.645949248667321 -1.717143569131822 135.747096038348502 137 135 122
105.828544857194288 -1.419375945221810 132.511692255892257 138 136 123
103.420275787748309 -1.432213796659698 128.231846709210458 139 137 124
101.208844325592196 -1.373940205526742 124.300538279784291 138 136 123
87.692238831199134 -1.670581193103855 100.283696138830265 136 134 121
31.476471418370991 -1.106752564978621 0.348758457268616 145 144 124
25.680076507963562 -1.090601201810852 -9.959780760682150 149 151 129
24.746798474721302 -1.098942555988752 -11.619536700328553 147 150 128
21.210672203050649 -1.074455167298495 -17.909957788055095 148 152 125
13.697193729990104 -1.200125716362630 -31.275651243331254 147 154 123
13.010212333259361 -1.131547612027301 -32.499731995675660 149 156 125
12.224612013320339 -1.156048308590786 -33.897393456179088 148 155 124
7.267587978846521 -1.072376171943349 -42.723578805646838 147 149 121
6.432597499610111 -1.206566011873828 -44.207341982702417 150 150 124
4.519411462138635 -1.113059705848661 -47.616539359508920 149 149 123
3.783029452574908 -1.187693213480831 -48.926371763860345 149 149 123
-0.434524094949069 -1.018377234336107 -56.444315560879630 145 148 119
-1.170948520854992 -1.150774147641979 -57.753533085645870 144 147 118
-2.104737975767833 -1.485261267580033 -59.409687180709511 144 147 118
-2.495805429718118 -1.292628531337505 -60.111455796095044 142 145 116
117.514074306660575 -1.216919416669612 150.753951293058321 133 131 119
114.648801064702297 -1.325310236353057 145.695988586446902 133 131 119
111.634985545488306 -1.535509273416067 140.377559304478325 135 133 121
108.423143599636973 -1.873595858294852 134.711746057328241 137 135 122
105.458563549852727 -2.127520627110858 129.481071671392954 140 138 125
104.571966949258169 -1.398098099246440 127.902248205040223 140 138 125
102.299907954882926 -1.363596516819188 123.889329591521175 138 136 123
100.522565062684450 -1.106874476226122 120.746041912860335 142 140 127
88.071908730609877 -1.996824236063253 98.775114924837624 138 136 123
87.184845856748240 -1.403184407568460 97.197912201553720 140 138 125
85.505960825503109 -1.245509497386160 94.230259931409364 142 140 127
83.827015689047244 -1.106389967585508 91.262827415243606 141 139 126
33.302803945569366 -1.033203337585888 2.024044510426279 151 150 130
32.018300138950480 -1.226229375246558 -0.241797365356518 142 141 121
21.700944192908594 -1.201883648630159 -18.475767196879872 151 155 128
20.861978204069061 -1.180380310702330 -19.959231131861486 147 151 124
20.072540368562642 -1.127533284502768 -21.355852917037993 149 152 125
16.914694672899643 -1.001236043392153 -26.941419036281275 154 157 130
16.075663314816467 -1.032666586380124 -28.424306823812884 149 152 125
15.236620026223406 -1.073128537438518 -29.907095939009082 150 154 127
14.348015562261025 -1.164915697989840 -31.476505726545724 149 153 126
13.261194206631558 -1.436544012911721 -33.392673576875012 148 152 125
12.669866222448888 -1.291499532492289 -34.441583930891483 148 152 125
12.078539677325551 -1.152758910922646 -35.490430084563030 151 155 128
11.437660038735174 -1.063699334180982 -36.625917701142214 153 156 125
10.747223226294892 -1.025129416032235 -37.848036505120064 151 154 123
9.759437738215325 -1.257483968969645 -39.590269269739281 150 153 122
8.920307911055019 -1.367875626820654 -41.072297163579947 150 153 122
8.180286116013008 -1.398325712329907 -42.380843109194387 146 149 118
7.390695563341467 -1.481420244090834 -43.775992520255301 146 148 119
6.848911371871637 -1.347900791428261 -44.737626937062799 148 150 122
6.455826250677489 -1.084252373875681 -45.439161307437814 149 151 123
5.814923713465404 -1.052466113749846 -46.574048426375242 149 150 123
5.124452307594510 -1.073307092250351 -47.795539134769882 149 149 123
4.483546059976888 -1.055387829974111 -48.930281738686972 148 148 122
0.191872265751869 -1.519967485612592 -56.517100542457285 148 151 122
-0.151574371829128 -1.263901787659340 -57.131444855583794 146 149 120
-1.040408054233609 -1.542433405160754 -58.698822731295706 144 147 118
-1.582172415956663 -1.490564842589277 -59.659626160956492 144 147 118
-2.024760359400176 -1.346698327858157 -60.447104460470371 143 146 117
-2.368161399847210 -1.109185997021396 -61.061279607981305 144 147 118
114.559169468579711 -1.894856353788040 143.084117421011342 133 133 121
112.325788755301204 -1.737349664360626 139.162287981955217 134 134 122
108.998419807009739 -2.124683787806219 133.330531616592424 134 134 122
107.411250948020566 -1.711420750070844 130.538089516865170 136 137 123
104.481456361357317 -1.968802746872662 125.401668356512204 138 139 125
102.347158347240210 -1.866999704142077 121.654729249263852 137 137 123
100.461411347849477 -1.665035562615255 118.342147604627854 140 139 126
99.321502976817953 -1.108825359368952 116.331996157841473 139 139 125
90.534317048543841 -1.227527510081285 100.914955015919475 140 138 125
88.300023043656324 -1.337286390089800 96.996313591207524 141 139 126
86.214847968831847 -1.391684156188937 93.338340976495203 142 140 127
84.975072717267196 -1.011733539749309 91.156062061672202 141 139 126
34.048630120438247 -1.005522002879363 1.777817771883605 151 150 130
32.608409037387702 -1.308833402965770 -0.744970924731803 139 138 118
31.765404738759955 -1.181848736714717 -2.227588718454598 148 147 127
21.645286430906438 -1.067756159927962 -20.002545744824602 149 153 126
20.702558886287903 -1.135218178626276 -21.657172511919242 149 152 125
17.479186795824830 -1.050076004065869 -27.321826283641855 150 153 126
16.387020011003330 -1.290459959690356 -29.235758512854289 147 150 123
15.693173523385383 -1.206387909760496 -30.456714516215357 148 152 125
14.849941339129970 -1.256603787218681 -31.937399276020670 146 150 123
14.255676766465257 -1.103011154268592 -32.984992766601295 143 147 120
13.263038847128584 -1.298425158153639 -34.725284392368593 147 151 124
10.437754228361214 -1.176244990197440 -39.693892017329290 150 153 122
9.445051788549819 -1.418588426193800 -41.433669708502578 150 153 122
8.601745762984024 -1.538159686050177 -42.913605233085946 146 149 118
7.858042081026824 -1.577248097735468 -44.220300857989798 145 148 118
7.413183001935536 -1.354183884313967 -45.007507875692653 146 149 120
6.818906356263014 -1.271596088996940 -46.054364702124246 146 149 120
6.025387335014244 -1.377480040484113 -47.447400164337807 147 150 121
5.480923989706696 -1.262671681599993 -48.407560280444812 147 150 121
4.787023532019404 -1.291861989048685 -49.627324598367011 146 149 120
4.242568205549844 -1.189279376662422 -50.587362704908230 147 150 123
3.399213523599784 -1.372247458081041 -52.066622377111969 147 150 123
2.804942225635571 -1.329605304475703 -53.113070581311746 145 148 121
2.260494939416816 -1.246009295220814 -54.072917095637337 145 148 121
1.221443828305354 -1.048129558124853 -55.905912064520862 147 150 123
-0.070369905041701 -1.701403590029100 -58.163519332599719 147 150 123
-1.212745531325766 -2.223708341674731 -60.161388756700205 148 151 124
-1.607717423671076 -2.029934707971406 -60.861301245971561 147 150 123
-1.554193932529060 -1.400732384873998 -60.782524511346026 145 148 121
114.961322497428469 -1.027701895729478 141.330778345130824 136 136 124
111.417542285114379 -1.500984441981892 135.160001557291622 137 137 125
108.922992378200490 -1.510758934531462 130.810542049896156 139 140 126
106.428348726121754 -1.547836135566396 126.461408430360308 141 142 128
103.234011936733324 -1.954595445421869 120.898786544137920 138 139 125
102.588147778180527 -1.135135490185409 119.758165126805807 140 141 127
100.143222092364084 -1.222837664950020 115.496626595835949 139 140 126
85.775180243024252 -1.105429132994801 90.441681164937563 140 141 127
25.819303699825738 -1.102753339588207 -14.128040226036859 146 150 125
24.972005887580124 -1.052250582730403 -15.607816750847149 149 153 128
22.279968571766958 -1.075548586343375 -20.306095294144285 153 157 132
21.232507989261521 -1.223713952244464 -22.131505184654941 150 153 126
17.442757049809103 -1.596679399243481 -28.739937458648285 151 154 127
16.195062463817806 -1.965733734618122 -30.910717906789984 147 151 124
15.747947380368672 -1.675809062613510 -31.697533888029000 147 151 124
15.501001661655621 -1.221408734414373 -32.138367698107459 144 148 121
11.117052059771012 -1.095013961489892 -39.797984153382117 149 152 123
10.319650856023813 -1.159953698302164 -41.189583852165697 150 153 124
9.572293212593323 -1.188881769487256 -42.494636019914338 146 149 120
8.724827299015104 -1.315182346360206 -43.972512200090904 145 148 119
7.877351172942255 -1.450470035919730 -45.450290985779418 145 148 121
6.979809617306543 -1.640019758623899 -47.014418980129392 146 149 122
6.082254397043826 -1.839094434863761 -48.578442392236951 147 150 123
5.735323979155581 -1.543645642073344 -49.191525466785436 147 150 123
5.188175002335868 -1.436104807292594 -50.150325977706132 146 149 122
4.490850089937027 -1.473367486384292 -51.368368955255846 147 150 123
3.643334985359331 -1.657881802432327 -52.845622379365494 148 151 124
3.096194649556864 -1.569887316696608 -53.804225823729183 146 149 122
2.799392100061766 -1.251655783841982 -54.330665527961060 146 149 122
1.605027729797087 -1.196824199061512 -56.420463354303422 146 149 122
0.356928705624284 -1.802801428581849 -58.588611554236138 146 149 122
-0.540701174525339 -2.084158633494871 -60.151752273906880 147 150 123
-0.687230504323395 -1.646738871656367 -60.418732380902867 149 152 125
-0.783648136747132 -1.161777314504977 -60.599316238815817 147 150 123
-4.166189240040509 -1.093387780819369 -66.520228311799258 144 147 120
108.032504123852902 -1.296350704535985 126.910845054918440 141 142 128
105.625837250071470 -1.308666505902596 122.741086534519440 139 140 126
102.566246071470005 -1.668592048375481 117.446097381232420 142 143 129
101.314436069548904 -1.161943041378699 115.268271679546416 141 142 128
86.724427658041819 -1.118512697910938 89.987699131047236 140 141 127
26.571988937528673 -1.032832132119391 -14.267124228037829 145 149 124
25.469153000420818 -1.178267807974217 -16.176929721708859 151 155 130
24.567385098709906 -1.177147036905401 -17.740998513760246 151 155 130
23.615333629357636 -1.225489666914022 -19.391361552694462 154 158 133
22.864366909042175 -1.123481481313332 -20.696034943100045 152 156 131
19.508515419200535 -1.083614569148089 -26.518562753082108 153 156 129
17.852474330065050 -1.769922543186598 -29.377597062100818 151 154 127
17.151740626047413 -1.680723036578730 -30.595311024231023 144 148 121
16.702422815530213 -1.388837661968767 -31.381093410887928 142 146 119
12.548349787883538 -1.001580210549954 -38.599072797320616 149 152 123
11.696745814896460 -1.101623567069932 -40.075239622819623 148 151 122
9.644854296698952 -1.008409336836408 -43.639795536447508 144 147 119
8.239945415986767 -1.636742161418389 -46.065272975901905 144 147 120
7.589496654862032 -1.600909824621565 -47.195634862341080 148 151 124
6.838447328630210 -1.662977149196075 -48.498579822708678 150 153 126
6.540123478108555 -1.320556380646311 -49.024540733698672 148 151 124
5.839386001249068 -1.349855466923279 -50.241033125369114 146 149 122
4.987729101516152 -1.525583994551638 -51.716395565407197 148 150 126
4.136062123865514 -1.710280335297597 -53.191660873998472 148 150 126
3.385003904869507 -1.810122546636946 -54.494212744212291 146 148 124
3.438920877593816 -1.162914431648589 -54.415809592488216 146 148 124
2.087780037522251 -1.250020315617236 -56.761721714152060 145 147 122
0.682625045221300 -2.000166221756928 -59.185827531423911 144 147 120
0.485052024745755 -1.606665896743702 -59.538795311856916 145 148 121
-0.165365266356062 -1.651945520749817 -60.668337327287389 146 149 122
-0.211922789086216 -1.118106333169153 -60.762418327855158 145 148 121
-1.063608140790549 -1.369997980575047 -62.236983171314677 145 148 121
-3.262544606582054 -1.262302486045371 -66.063919003731058 144 147 120
114.327428298584309 -1.176224281303903 135.427462417029773 137 137 125
111.505366667241205 -1.325044679903983 130.570961355823840 140 141 127
106.012332559496642 -1.640986013209330 121.118443730951071 138 139 125
103.694616576827144 -1.633418661141878 117.127644511696474 140 141 127
101.679610387273087 -1.501010211147743 113.655898222404858 142 143 129
95.936984752740386 -1.080020168725729 103.760904298964192 136 137 123
78.402903535844885 -1.105652810213917 73.570520548657271 136 137 123
29.943108349451620 -1.134480991002237 -9.892430090997379 143 145 123
25.361718980201815 -1.066403879601014 -17.789568400106560 152 156 131
24.101887969267878 -1.352945254261038 -19.955392171511505 149 153 128
23.347226358529966 -1.251666049959236 -21.258290435233306 151 155 130
20.931661993126284 -1.118468987279312 -25.425290263147247 152 155 128
19.318074291406930 -1.750336355539277 -28.194335626771220 153 156 129
18.310750900790651 -1.901676455717018 -29.928055448247591 151 154 127
18.010791611913078 -1.479249970408192 -30.454057510167928 144 147 120
12.980597992461483 -1.139203638309828 -39.137018884451294 149 152 125
12.074289185767512 -1.283884118577959 -40.697414517599356 149 152 124
11.572285199649585 -1.084621687151309 -41.567897488878486 150 153 125
10.868131000381126 -1.068379140844232 -42.783224115162341 148 151 123
10.113435959567241 -1.104225240250663 -44.084694886413502 144 147 120
9.055476724771665 -1.417975006853972 -45.903377814235967 146 148 122
8.098588258156298 -1.652338374352485 -47.549512045359648 149 152 125
7.697700520536458 -1.395777776431752 -48.247240712293660 149 152 125
6.841897139114508 -1.555648545077688 -49.720782721584072 148 151 124
6.289384876150905 -1.447957136299824 -50.677019004731136 144 147 120
5.332470912945467 -1.716862228653794 -52.322785483047312 147 149 127
4.931625926250646 -1.482846872653922 -53.020302532376434 144 146 124
4.530801034901941 -1.252888098316857 -53.717787438817368 143 145 123
3.071957667605190 -1.422006391073559 -56.233048615547801 144 146 123
2.266694432049178 -1.589542588207117 -57.619831068356746 144 147 121
1.511985972304188 -1.717486846471578 -58.920347407421900 144 147 118
1.616848491572270 -1.032646451373472 -58.755844913581228 146 149 121
0.963292525390131 -1.074559368049267 -59.883920052821622 144 147 120
-0.398194507765879 -1.806716380849461 -62.218242755862690 144 146 122
-0.748357721931001 -1.571405022179817 -62.829160246933554 144 146 122
114.494757827866152 -1.616696085355519 133.356486612763604 137 137 125
110.242639618745969 -1.277360880799108 126.075046107917530 139 140 126
102.744778948448811 -2.611735857206242 113.268617375806713 140 141 127
102.697557671098977 -1.515227517710996 113.169062076932477 141 142 128
94.242226682743791 -1.385926309998786 98.699298695307135 139 140 126
92.369120054356983 -1.285405085285431 95.492573028334135 140 141 127
42.350271598745806 -1.030918731229112 9.890220821921503 143 145 124
31.519598817908729 -1.193473013840820 -8.650550564255553 147 150 129
30.355233975798086 -1.334097060884957 -10.641829254109695 145 148 127
29.444638201913619 -1.294576568879772 -12.202070089990571 146 150 127
28.686310853817204 -1.148386371109440 -13.503676968942273 144 147 123
25.903700981609461 -1.153582727952876 -18.269671125981120 150 153 126
25.043832052664186 -1.121769987461416 -19.743241285925023 149 152 125
24.183957906307214 -1.099020677880602 -21.216715655429567 150 153 126
21.502767965445514 -1.166963903061811 -25.808865105107913 150 153 124
20.338253274213855 -1.428163408344676 -27.798830963892641 149 152 123
19.529114260962288 -1.411353718349093 -29.185656822760677 151 151 125
19.075377647186826 -1.110844762718477 -29.969414035936722 144 145 119
14.474428470456530 -1.010846153537481 -37.857523584205268 149 152 125
12.906920462686784 -1.070916399918916 -40.543640225567970 149 152 125
11.843849707193471 -1.356232690242270 -42.360170499464630 150 153 126
10.983905081702602 -1.474898625732814 -43.832155493834705 148 151 124
10.327103874047083 -1.423650795054759 -44.959637071050452 145 147 121
9.822674909450981 -1.244221362148062 -45.828755789920677 148 150 126
7.093976038676402 -1.223423224761296 -50.509949474720884 141 143 119
5.878446186228118 -1.722663286735862 -52.583918469134090 145 147 125
5.831246769018676 -1.162154591930684 -52.677966912218608 142 144 122
3.759393861455564 -1.285139502607717 -56.230747919229344 143 145 123
3.153456991267859 -1.260869402430670 -57.271426240888388 143 146 120
2.547528534822007 -1.242819627166368 -58.312044558723528 144 147 118
1.335696634439287 -1.225364696797097 -60.393101241850815 146 149 122
0.628169021850852 -1.323588015872252 -61.605635784110405 146 148 124
-0.130171579871870 -1.478204078090150 -62.904139972626581 146 148 124
-1.994676769612369 -1.020735328613020 -66.118654778552070 138 140 118
114.143618685717215 -2.293425340558872 130.427387511173436 137 137 125
111.093548832047730 -1.388858970881274 125.225686223117833 140 141 127
107.224497323212731 -2.085618994385060 118.658524049933987 138 139 125
104.221569690181255 -2.403615373542555 113.557713422572135 139 140 126
103.868297101411713 -1.454571253599655 112.940936635793634 140 141 127
99.390791414222889 -1.457312725758900 105.327406355288133 138 138 126
97.253849784189669 -1.443088145801044 101.693492318865935 136 137 123
94.454359640916408 -1.790641877729624 96.939097682091472 136 137 123
93.132648679367222 -1.404330590736429 94.685092171575093 137 138 124
42.716424754130173 -1.287299964996623 8.941681273844353 145 147 126
32.036923658928785 -1.315932876185242 -9.229353108838183 147 149 128
30.968898583578465 -1.380813864127065 -11.045782304401797 146 148 127
29.951862957280909 -1.418457152872957 -12.776026164015491 146 148 126
29.138832018730511 -1.311757438614443 -14.161915422337557 144 146 121
28.325799097740926 -1.213600702589442 -15.547715795100970 146 149 122
27.563770597028352 -1.084677818715614 -16.847374314191256 147 150 123
22.073376512463895 -1.215462426381810 -26.192201943375437 147 150 122
21.056259555552330 -1.353230473039105 -27.921376260270620 148 151 123
20.090147168902462 -1.460194432198891 -29.564409185776725 145 145 119
19.277077567103248 -1.452060047141663 -30.949265365284674 147 148 122
18.923173706790706 -1.074326245904478 -31.559859369808720 146 149 122
15.010934835278206 -1.060986842204173 -38.224529151769559 148 151 122
14.299925437472226 -1.021654828046106 -39.436813946062472 148 151 123
12.520712074457549 -1.274362952048467 -42.463104092375858 150 153 126
11.707642904047063 -1.347939597153679 -43.847119385577116 148 150 126
10.945604358777246 -1.385239769264395 -45.145062081967154 145 147 123
7.849986362742456 -1.044980958449263 -50.430023478574526 142 144 122
6.832764667939685 -1.357591017855832 -52.157347952551248 146 145 124
3.788413790281666 -1.170809398786483 -57.354396660105635 144 146 120
3.128521187880082 -1.200124164033106 -58.479570053400295 145 148 119
2.621795843346320 -1.091396948578597 -59.346862418537711 146 149 121
1.910865388696536 -1.181954600037407 -60.557847959386834 145 148 121
0.893593579774802 -1.572710448617738 -62.284344065075771 145 147 123
-2.963458786537259 -1.919268104308397 -68.860851395811466 143 145 120
-2.857242817946798 -1.255816372334685 -68.696776223233059 145 145 121
115.164501319516617 -1.154872156685820 129.816422173654615 139 140 126
110.000228738748177 -1.269303022482239 121.091422992068203 139 140 126
107.699576240421521 -1.231944323054202 117.203012888008999 140 141 127
105.552457687371074 -1.144205536310071 113.573210738013728 140 141 127
102.381201871322205 -1.584428956952792 108.221609226004944 138 139 125
99.977910374176986 -1.675567046826135 104.161906179325996 140 141 125
97.472134251812264 -1.843910079936955 99.930308365488486 139 140 124
95.222310646354572 -1.908626836553636 96.129491492175418 140 141 125
94.098966228023130 -1.417964690440829 94.222949511194884 137 138 122
37.204119276041354 -1.030611266738171 -1.948676866058179 142 144 123
36.079735166857702 -1.086377624628359 -3.849096799404919 148 150 128
35.160311321034740 -1.004322363263764 -5.405552147679202 149 150 132
32.808989024245349 -1.248650005179205 -9.377681339737336 150 152 131
31.633303385141673 -1.389327124390007 -11.363543652816020 147 149 128
30.560097323446499 -1.465360275176377 -13.177379487456648 146 148 126
29.845623015629684 -1.281322683756896 -14.389496207877698 143 145 122
28.926151607518989 -1.260868293576149 -15.945294713803861 144 147 120
28.160429285195207 -1.132130252736136 -17.243184218614516 145 148 121
27.343456367802375 -1.050954715408448 -18.626924914594980 150 153 126
26.321468330611481 -1.137672184578781 -20.354294412620874 148 151 124
25.401980495494840 -1.154851176749496 -21.909697680613704 149 152 125
20.958250979777688 -1.260243897582434 -29.427470839985602 147 147 119
20.038737266249967 -1.334136441858794 -30.982277946752987 143 144 116
18.763609232434519 -1.045577223661835 -33.146703474153242 147 150 123
17.895360779281788 -1.102643836466866 -34.615350018606279 148 151 124
17.027109707090489 -1.168727641051277 -36.083902491635371 147 150 123
15.444410556357042 -1.197842826005052 -38.763070378272829 149 152 123
14.576155129874920 -1.290140219629315 -40.231350938583603 148 151 124
13.810443137019163 -1.303627890585494 -41.527781384276778 150 153 126
13.198557780927288 -1.192495431384471 -42.566508088566309 150 153 126
12.432855118159907 -1.220986692826465 -43.862788558247757 148 150 126
11.513321878574331 -1.391543036896185 -45.416591314765100 145 147 123
8.402824707724051 -1.050866068377528 -50.694438869449584 148 150 128
7.585866861720859 -1.177955323134178 -52.076043001402979 149 148 127
4.116591801323324 -1.367043345993130 -57.952811500771702 145 147 121
3.453532010310155 -1.397364257939490 -59.076459365117387 144 147 120
3.046974284665168 -1.193119224620070 -59.770937018827709 146 149 123
2.486539606496535 -1.138515334234118 -60.722836789200727 146 148 124
1.823514318194682 -1.187198307680311 -61.846312149601886 144 146 123
1.314409370574182 -1.095370362345859 -62.712292168102380 143 145 123
-1.286261243150562 -1.331084050090995 -67.119517072393108 138 142 115
-1.949239041703009 -1.419131213409601 -68.242609956346342 141 145 118
-2.663527029436722 -1.564647531888505 -69.451423547708231 143 145 121
122.858426926216879 -1.725013272370195 140.442339439638118 135 135 123
120.444133993708093 -1.609910155243753 136.385776497577069 136 136 124
118.029760120740193 -1.520495407596215 132.329516700445993 139 139 127
109.091745076627205 -1.073654452943945 117.311386926015786 140 140 128
106.728442530719676 -1.083781694693405 113.342578301699831 140 141 128
104.004922164351939 -1.295740834766314 108.772162010646412 140 141 127
101.847269211161731 -1.255868439874939 105.147892194386571 142 143 128
98.660534581721635 -1.754699441646066 99.804298970921565 142 143 127
96.451285363176453 -1.792114879066696 96.094649308713940 141 142 126
95.322472416816282 -1.300017034581049 94.190708674433267 137 138 122
87.719586711843846 -1.096968542105606 81.418698086814942 142 143 129
33.582017489927907 -1.181402608568621 -9.526469949394652 147 149 128
32.246199577766319 -1.436078399950308 -11.767128741090602 147 149 128
31.425291505509009 -1.319843449747585 -13.149347756621523 145 147 125
30.758866711990819 -1.095884900085894 -14.274003241540385 144 147 121
29.834972465707537 -1.073983254146202 -15.827700774175554 145 148 121
28.911074553196968 -1.061699664148753 -17.381297549418605 146 149 122
26.190859419184079 -1.042398949164676 -21.955675526164271 148 151 124
21.674281959117351 -1.184714529790007 -29.549077298037275 146 146 118
21.059400579890607 -1.007568493996541 -30.587050226034847 142 143 116
16.082478494563617 -1.161237236266265 -38.957837807600811 150 153 124
14.849444995742701 -1.558585212786679 -41.024481944008585 150 153 126
14.286128693145614 -1.397999436246612 -41.976094079927321 151 154 127
