ply
format ascii 1.0
element vertex 682
property double x
property double y
property double z
property uchar red
property uchar green
property uchar blue
end_header
152.186448436981919 -1.917466061514529 14.113845065730487 155 152 143
149.718060327892601 -1.968217898792938 11.636892687973528 149 146 137
147.849558197358022 -1.794173418583349 9.757514052252873 152 149 140
143.881498506568875 -2.490346588004021 5.787465366331219 152 149 140
142.013030783941048 -2.350837674100723 3.908425761919119 149 149 141
140.519552904287423 -2.069069949018696 2.402822385179974 152 149 140
138.726171148627969 -1.923691904196165 0.598660382550918 151 148 139
136.482875532620881 -1.981341169703251 -1.653327818888982 149 146 137
134.464588660381651 -1.959280721826494 -3.681203269443188 150 146 135
132.596330872872613 -1.887289220758438 -5.559648315448385 147 145 133
131.253112599764165 -1.601208631769027 -6.915461997545748 147 145 133
130.134971830578081 -1.226421364167641 -8.047288433662374 147 145 132
127.816852824216141 -1.388406217202396 -10.373266287934001 147 145 132
125.648761071250220 -1.500450323368136 -12.549812961334510 145 143 128
124.380794986430786 -1.224971828863076 -13.830659014761380 143 141 126
122.437808420663316 -1.263362271303806 -15.783076737521355 143 140 125
120.119790246706444 -1.486423164280804 -18.108474143308797 144 141 126
118.101845119036639 -1.588529981760123 -20.135234967255030 145 142 127
116.759093357280449 -1.392977979595945 -21.490339970562360 147 144 129
114.141058910931633 -1.801322765937134 -24.113738939496130 145 142 127
111.523008417645585 -2.228546702742613 -26.736935899050280 144 141 126
109.655201791095692 -2.319600125703721 -28.613918475602105 146 143 128
108.462689648871915 -2.102064637846342 -29.819406115136303 143 140 125
106.444910086786479 -2.289591559137405 -31.845366873050665 140 137 122
104.202046287663180 -2.600599926618687 -34.094953701694322 139 136 121
102.859634589278059 -2.488571748054968 -35.449361637477608 145 142 127
101.217130382131813 -2.533612839209085 -37.102025092484581 147 141 127
99.724758865000922 -2.516129246541113 -38.605437339922446 142 139 124
98.457584558224397 -2.397056661712604 -39.885052212651175 141 138 123
97.490685477696104 -2.136233922556818 -40.866341290225478 142 139 124
95.773354808309236 -2.261918171596825 -42.593236806564875 143 141 126
93.455606456992541 -2.705845843278583 -44.916489801871393 139 136 119
91.888437244156918 -2.781307518375215 -46.494021240656821 143 140 123
91.297138367819144 -2.363702368362659 -47.102315583979419 143 140 123
90.405707538165302 -2.106429460465638 -48.008812988971641 145 142 125
89.063961606626918 -2.091457757988857 -49.362540374267070 144 141 124
86.370942836682275 -2.799101450127441 -52.057845150745550 143 140 123
84.653867758235521 -3.007633814601403 -53.784010143643144 142 139 124
83.237143899706027 -3.067813417306001 -55.211953660452309 143 140 124
83.322190097815067 -2.329307168161363 -55.149382401009348 144 141 125
82.731639201798160 -1.956324431562853 -55.757575254635924 146 143 127
81.540478377833963 -1.915302141825853 -56.961892421172735 146 143 125
78.547038812144677 -2.873101339486406 -59.954337482119541 145 144 126
77.581235156530312 -2.730954550742329 -60.934929016042673 144 143 125
76.915957430381113 -2.428324185050927 -61.617507522900809 144 143 125
75.499702592365793 -2.551203092073433 -63.045030022079573 139 138 120
74.158608545275257 -2.641805650840995 -64.397982537753421 137 136 118
72.817567131530367 -2.741948475196852 -65.750862030293092 141 139 122
71.626826801461661 -2.765785511719253 -66.954712730040427 142 139 122
71.187452840120031 -2.366060377161748 -67.413785614120030 140 137 120
70.222301681720211 -2.273561775597840 -68.394178246742229 139 136 119
69.182108260423973 -2.231581313795711 -69.449009794347887 139 136 119
67.991712345963762 -2.284978621732422 -70.652720982618320 136 133 116
67.928630189771411 -1.682176158570271 -70.739606528819166 138 135 118
65.986891747126108 -2.194114091383176 -72.687746887194322 141 138 121
64.345752381063249 -2.540573359912063 -74.337960628778092 143 140 123
63.832099472765165 -2.221660866516139 -74.871525759048808 141 138 121
63.844808218646037 -1.588217510870054 -74.884125930190550 144 141 124
62.203858256394398 -1.959652149562342 -76.534173197876754 141 138 119
61.540278346540774 -1.745137912841793 -77.216656910649874 141 138 119
60.726460478506354 -1.627645859479798 -78.047986370969824 146 141 122
59.687174190115030 -1.655381884581825 -79.102534261025511 149 142 124
59.174375616531691 -1.362705609623095 -79.636238039519043 149 142 124
57.759254576621686 -1.638544535139845 -81.062728449514196 146 143 124
58.299705500376660 -0.692727156899186 -80.555001897896545 144 143 123
57.110440026596976 -0.838496152624992 -81.758303056927787 145 144 124
54.416689652187173 -1.951379081849507 -84.449086505295838 143 142 122
52.475055294226735 -2.601734092796648 -86.395851860907470 143 142 122
52.564819123178992 -1.956696422720400 -86.334575380850282 143 142 122
52.730108602949088 -1.261732153066999 -86.199085147914076 145 142 125
52.895694767988658 -0.565043417921813 -86.063754598983365 145 142 125
47.943789911574825 -3.221859597939420 -90.984118750524800 143 140 123
47.507331582098416 -2.937855089457684 -91.443395292357479 144 141 124
48.124926112965753 -1.957932462888734 -90.862066155489856 145 142 125
48.667633349747874 -1.023046236484357 -90.355306496453267 145 142 125
48.081351313317100 -0.840635251351151 -90.963579907100609 143 140 123
47.043429545318006 -0.966631326685011 -92.017769138976149 142 139 122
204.300514221899789 -2.975600173637352 64.910164932953762 177 178 173
201.147179266868619 -2.895921599758766 61.761816228465165 187 184 179
197.693029966784422 -2.939642158668900 58.315210745126933 186 183 178
195.066080727069561 -2.728539431756746 55.689700298344604 180 177 172
192.213528757857176 -2.613496742417730 52.840529563514053 170 167 162
188.684135703270584 -2.752805611215595 49.320045487988381 172 169 164
186.583630453398882 -2.418889481737906 47.217434055358581 172 169 161
184.257530960954966 -2.179665566164848 44.891144194868531 173 170 161
180.803322137278599 -2.359055030893598 41.445963695614552 174 171 162
175.769680549478153 -3.131650133404851 36.434447997175823 175 172 163
172.766666186111678 -3.202564309158618 33.437454333554854 174 171 162
171.192692191807680 -2.770627747863352 31.857955373956912 172 169 160
168.490551719197981 -2.768160898128063 29.159704864230378 170 167 158
166.164497189339556 -2.644417413273258 26.834582191879406 167 164 155
164.816292677201403 -2.167954005518254 25.479194203448742 160 157 148
162.715959419560193 -1.988088397588659 23.378086209732004 165 162 153
159.036020482865979 -2.431578347791407 19.711036087015941 166 163 154
156.258713545792347 -2.550760778078931 16.939138268470089 161 158 149
154.534546598043278 -2.276828871618669 15.211399754427816 159 156 147
153.036106551123254 -1.925937306728017 13.707458735092104 159 156 147
150.334082849737428 -2.066622500456279 11.010625898309144 148 145 136
148.083439544336557 -2.044810042977316 8.761334866856629 149 146 137
145.908051972261205 -2.008581136197185 6.586752239701866 152 149 140
143.356525404725687 -2.142326781102399 4.039568427524699 149 149 141
141.105947893253187 -2.169862792192564 1.790753889059886 151 148 139
139.081104946477126 -2.119333328284871 -0.234278203791803 151 148 139
137.582971426675158 -1.861545407644388 -1.737407502068663 149 146 137
135.633452597689228 -1.806223363523860 -3.687664842196909 151 147 136
134.060189365946428 -1.603739097720408 -5.265141960423449 147 145 133
132.035511474335181 -1.607528000603912 -7.289693888863610 147 145 133
130.161362440463819 -1.560293908328033 -9.165065742356802 147 145 132
127.911004100573322 -1.691730618431529 -11.412915629665008 148 146 133
126.413188369202686 -1.506125488662184 -12.915453943110180 144 142 128
125.141201073590665 -1.230444809884547 -14.194378344261708 142 140 125
124.245578657307263 -0.794499397619451 -15.100709674422745 142 139 124
121.543826752468632 -1.184203929353839 -17.795109256599602 144 141 126
119.067845706872021 -1.490100278860764 -20.265802868919934 146 143 128
117.118715423242946 -1.570995070027180 -22.214843939500042 147 144 129
114.868546902754773 -1.805684148164203 -24.461721807265945 146 143 128
112.994738076935775 -1.880369763248156 -26.336001434330200 145 142 127
110.819872106607846 -2.110486278466093 -28.508091966743905 148 145 130
109.322498420824999 -2.034210891942489 -30.009716367313274 146 143 128
107.749906690183806 -2.004665531324795 -31.585734582337011 143 140 125
105.123427967272903 -2.494879270649455 -34.204251120047445 141 138 123
102.873341565269513 -2.820987967313410 -36.450227244956267 144 141 126
101.451415393904739 -2.757660874847613 -37.876953309594910 146 140 126
99.653098829014709 -2.890183819035963 -39.675893941917820 142 139 124
98.306576282842414 -2.811054783910234 -41.027996614800145 142 139 124
98.466064869246168 -1.987640127305537 -40.891053458722041 144 141 126
96.969143944672837 -1.998105791533345 -42.392001589491713 142 140 125
94.568631743429734 -2.478128847875187 -44.786147979677594 139 136 121
93.222393243252711 -2.436178326521143 -46.138003842071271 141 138 122
92.102153880520333 -2.287420164035534 -47.266499687102481 143 140 124
90.831373084733485 -2.224704073222809 -48.543809122146740 145 142 125
88.280256012192268 -2.839765115022445 -51.086234414153211 145 142 125
86.783590385601997 -2.918578028051242 -52.586601146036315 145 142 125
85.060994682846413 -3.127713988250415 -54.310118878073638 143 140 125
84.317707551394093 -2.827020048415435 -55.066216905145012 144 141 126
84.026546907963706 -2.288838584289123 -55.375901963194394 144 141 126
83.132858094411731 -2.078215859323377 -56.280838962661534 147 144 129
81.259833767424880 -2.406708993399110 -58.152881322983092 145 142 127
79.311463044156042 -2.789872471031285 -60.099174361199459 144 141 124
78.267286930815047 -2.688490808209672 -61.152712048985109 144 141 124
77.147846777011850 -2.636263706580938 -62.280596590126208 144 141 124
76.179207177038009 -2.507734491159791 -63.259691245465405 143 140 123
74.909210732907340 -2.555465174394280 -64.536239027524431 141 138 121
74.242226137112098 -2.271007800676155 -65.217813910058965 141 138 120
72.595522629321025 -2.549115639187969 -66.866069360918146 142 139 120
71.476479257583179 -2.536572527383908 -67.993735233996460 141 138 119
70.432897320365214 -2.488427177957801 -69.047009185485308 140 137 118
69.615568070719974 -2.316336775580948 -69.877220821112900 138 135 116
68.873750158750923 -2.105866343128741 -70.633093001863159 138 135 116
69.036847313595985 -1.368773064660977 -70.496987623248941 139 136 119
67.541308830063201 -1.611024139867351 -71.996211225399662 140 137 120
65.819562554464056 -1.998512620794167 -73.718299448384556 144 141 124
64.474878005991528 -2.172594846004682 -75.068674982361216 143 140 123
64.035283475570168 -1.811143559436371 -75.527248375004604 144 141 124
62.766169735421656 -1.955244929662325 -76.803226447729372 142 141 123
60.441045960488083 -2.752033408514720 -79.119318892108140 143 141 123
60.378958822496543 -2.177848627163834 -79.206385875430470 145 142 125
60.317108963355594 -1.603701900502261 -79.293565980425541 148 141 125
60.029146694126140 -1.170035339400872 -79.603705305328930 148 142 126
59.892305028664694 -0.643869246276581 -79.765374583386802 147 142 126
58.925595444727577 -0.639421965010598 -80.744115314100753 145 142 124
56.902392536932126 -1.308907275041981 -82.762520522206643 144 142 123
55.030047576512104 -1.897093129129741 -84.632214741539684 146 144 125
53.308595465261405 -2.402303710211911 -86.353231919025120 143 142 122
53.549853749187690 -1.658850900045909 -86.143725133583530 141 139 120
54.093414402062336 -0.717991633342358 -85.637435229384749 142 139 122
52.900729307204685 -0.901044701123025 -86.838716669730161 144 141 124
51.028474064366009 -1.536611268946811 -88.707966096158003 143 140 123
48.929564571995172 -2.334547574332618 -90.799690208000555 143 140 123
48.114477849843269 -2.299200371762162 -91.629567094644727 144 141 124
47.450571427216275 -2.169053279172194 -92.311026171429319 144 141 123
47.919953334554847 -1.286211502301503 -91.879511091381715 143 140 122
47.180897451930406 -1.211468930477729 -92.635307502449677 143 140 122
208.483682942827329 -1.954297240964443 67.554511738079810 177 177 172
204.490366583823516 -2.136730534249410 63.591257573033545 186 183 178
200.270673948878994 -2.423366480393319 59.404796997935875 188 185 180
195.447358289964995 -2.943791558330264 54.622643038073988 185 182 177
192.510179523493605 -2.856403996378761 51.703383256174192 170 167 162
190.704741141437978 -2.400551609209983 49.901793233911718 172 169 164
187.314870093014065 -2.508785079706406 46.535960204034552 172 169 161
185.283122172214632 -2.164111364869927 44.511203652547181 177 174 165
180.535068689130242 -2.798364801955530 39.805075103149107 175 172 163
175.183300602491528 -3.683237586540670 34.503470222211348 175 172 163
172.698790302533610 -3.568041306558706 32.032522457967474 175 172 163
170.591584842639406 -3.332674077017899 29.934130796179772 172 169 160
168.786247804670097 -3.000930361665186 28.133769804159641 170 167 158
166.754568991201808 -2.766567098531019 26.110115672856494 165 162 153
165.100238804931962 -2.404684565370183 24.458921056440232 158 155 146
163.144100642522176 -2.169408831098865 22.509978028999143 164 161 152
160.584269996782098 -2.179845644412101 19.965497579622337 164 161 152
158.024450548562925 -2.208649763177134 17.421200837291963 162 159 150
156.143870076397548 -1.990268723914400 15.547144060331362 160 157 148
153.508616155845118 -2.083129807558681 12.928735396595954 159 156 147
150.420527992364441 -2.375193010762892 9.863858260455856 155 152 143
148.389076937218817 -2.264919222830679 7.841372485657331 149 146 137
146.810523916362285 -1.985628405935664 6.265635375996254 153 150 141
144.779154156555137 -1.902811396147920 4.243393336196931 149 149 141
142.596856985298018 -1.896811627696623 2.072427401313263 150 147 138
139.810720876740561 -2.157723927891861 -0.693787675108666 150 147 138
137.477489027569391 -2.248520752150351 -3.013268371324841 149 146 137
135.823660156815123 -2.068432036446529 -4.662831520276853 150 146 135
133.490479780834562 -2.190200494775962 -6.982018034502659 149 147 135
131.610264871508889 -2.133675943359616 -8.854583625333646 148 146 134
129.881078854873863 -2.025042237564843 -10.578219536606611 146 144 131
128.000949751213682 -1.994843237048904 -12.450555194453614 146 144 131
126.271858117987449 -1.911439511962062 -14.173976553559953 146 144 129
124.542815599605305 -1.840374186841007 -15.897294403690154 146 144 129
123.795369054918069 -1.341415086209979 -16.653443424627199 141 138 123
122.746011963604062 -0.984240671012676 -17.707135553608907 143 140 125
120.564118938404960 -1.150628074536022 -19.876520362820486 143 140 125
117.098549588579388 -1.922225888078023 -23.310170127270993 146 143 128
114.841129106945388 -2.159418783210344 -25.553552908636249 146 143 128
112.885783093142010 -2.271845109320916 -27.499295825277471 146 143 128
111.534621776786778 -2.114215388143236 -28.849987373401461 147 144 129
110.108010192588011 -2.001949362252424 -30.274975705627156 148 145 130
109.210142977262208 -1.647470159669802 -31.179394558999434 146 143 128
106.499701647857393 -2.171038210947216 -33.868259225794759 144 141 126
103.789222617047884 -2.714036513998692 -36.556905851024879 144 141 126
101.758513667491670 -2.944634949816773 -38.576237877555116 145 139 125
100.483194897043532 -2.818297635450414 -39.852031246290892 141 138 123
99.056869274274518 -2.775822929226214 -41.276437984370887 140 137 122
98.688226664010102 -2.215777322358559 -41.660139878598102 146 143 128
98.017549155831460 -1.810037541081945 -42.341196505254629 141 139 124
96.138182647205269 -2.020776510842002 -44.211416890387056 142 139 124
94.485499404432773 -2.129373881397635 -45.858556512929425 142 139 124
93.210646562414965 -2.055779709259087 -47.134029868570337 145 142 127
91.331371004355958 -2.303709219077764 -49.003910943230579 145 142 127
88.696450335771118 -2.958433011664924 -51.616695498446262 146 143 128
86.590451316181728 -3.354761224879128 -53.709161958611645 146 143 128
85.995907889121099 -2.968364895886652 -54.315582871917115 144 141 126
85.023617094044923 -2.786841256321584 -55.293476306264409 144 141 126
84.051427471669015 -2.612116542457960 -56.271348156527011 143 140 125
83.154925019217700 -2.403472012046234 -57.174918758238761 146 143 128
81.653812114447021 -2.528993223061853 -58.672677135508934 144 141 126
80.001551550602628 -2.747695993904187 -60.318885596004350 144 141 124
78.878504283075870 -2.687354195466162 -61.445128034954905 143 140 123
77.755539414285096 -2.634900040907869 -62.571328701697496 142 139 122
76.557048493708663 -2.632425818878204 -63.771742380514667 144 141 124
75.585467162099278 -2.511273881407595 -64.749353783494882 144 141 124
74.840837451343603 -2.268953157067206 -65.504208660398291 141 138 120
73.642603079095636 -2.289290001310134 -66.704510265291987 143 140 121
72.066302563064170 -2.534063227197579 -68.275930511080873 143 140 121
70.565652348653984 -2.746556879149342 -69.773014986807766 142 139 120
69.897039222608456 -2.488381515255666 -70.453540252122565 139 136 117
69.228565079550151 -2.234747817456006 -71.134085256771385 139 136 117
69.165414807773942 -1.631161617793004 -71.220946284103974 138 135 118
68.118997465999328 -1.607317443250618 -72.272613643570935 138 135 118
66.467394528285908 -1.949715985228839 -73.917863447441448 143 140 123
65.118445533671235 -2.123289316132326 -75.266204123305783 142 139 122
64.980262075096519 -1.579609769610287 -75.427411766911320 143 140 123
63.782833657801746 -1.676381061106465 -76.627312159729087 144 143 125
60.844770334715449 -2.839147059312446 -79.533280314158333 144 143 125
59.495941329094094 -3.051689523195040 -80.881277263483582 145 142 125
59.888118333141449 -2.203337663956893 -80.523331485209695 145 142 125
60.507715670646704 -1.211197026126891 -79.943086250300354 148 142 126
59.462110169659013 -1.250235696296604 -80.994494706906778 147 143 126
59.476580198005152 -0.633237656522103 -81.007768189645077 146 143 126
56.765368985362386 -1.731461053824856 -83.690349330779611 142 139 122
55.038394237183027 -2.226078410428799 -85.408833539069519 145 142 125
54.447386011789717 -2.009702924392150 -86.015195570787313 144 141 124
54.235241904394698 -1.554721805969678 -86.250966560954936 142 139 122
54.326321870399468 -0.905691551046480 -86.190360814033852 143 140 121
53.735887751755044 -0.697092636908058 -86.796917448291254 141 138 119
50.948472512642283 -1.923513107715222 -89.552582132410322 143 140 121
49.297345275846340 -2.425725258343008 -91.196414468211941 145 142 123
46.661035688173243 -3.588629363467757 -93.803303614051742 143 140 121
45.161259125098312 -4.017744130257883 -95.298576251626685 143 141 120
45.859490175681728 -2.993608813179604 -94.645419567905890 144 142 121
47.012967808056530 -1.659131718663532 -93.548092482754043 141 139 118
204.140160549333928 -2.596825679457449 61.768071001420594 188 187 185
195.824913400601019 -3.158841176267196 53.557364501681548 185 181 178
192.651231701571618 -3.150497885751646 50.419483899686270 171 167 164
190.612957897264266 -2.775361147470051 48.397535737296579 172 167 163
186.530918253922181 -3.123325250084278 44.367571494215383 174 171 163
184.341270575049833 -2.837733307093847 42.197244034271733 175 172 163
181.167560523641896 -2.916012878651068 39.060268648592114 175 172 163
177.615334733700081 -3.152309239407526 35.551706016373402 175 172 163
174.517292400292092 -3.250089213516780 32.489591066129975 175 172 163
172.479089353808007 -2.983660753649705 30.468728042360254 173 170 161
170.289508589843706 -2.787550063826840 28.299289646044343 170 167 159
168.327075116734648 -2.522667881688671 26.353053519622335 167 164 155
165.456177145573804 -2.612793603416840 23.514771350762061 161 158 149
163.039537372462291 -2.551343052267459 21.122766675822504 159 156 147
160.471491042538844 -2.565092353258220 18.582250678697790 162 159 150
158.357736590106498 -2.421821640682942 16.487940028206680 164 161 152
156.244013230331063 -2.293651233021544 14.393769938119362 160 157 148
154.054603785639188 -2.210353472647450 12.225410823405952 158 155 146
151.713783498753003 -2.202789183712447 9.908547929431222 156 153 144
149.903030369287194 -1.999713239903974 8.112102419027764 152 149 140
147.713708626211258 -1.962507471095775 5.944175796185789 152 149 140
146.736014207642995 -1.447110027338562 4.965430706004639 149 149 141
144.092415977620220 -1.623624521666300 2.351875017898010 150 147 138
140.842986078238994 -2.070300951632056 -0.855943043047290 151 148 139
137.669253584810235 -2.508547018180752 -3.989202376576543 152 149 140
135.404290563821434 -2.586058391676375 -6.230620515087395 152 148 137
133.745231721270130 -2.421928753112054 -7.877517388660493 148 146 134
131.707537056320490 -2.432094752466128 -9.895776494695781 147 145 133
130.957458074887569 -1.899679231612926 -10.651010550657304 146 144 131
129.071349986484165 -1.868173350989749 -12.520499335070895 145 143 130
126.352085865106062 -2.216579710538519 -15.206946235714838 145 143 128
124.541777184563088 -2.181344625201314 -17.001876698687255 145 143 128
123.337512211998032 -1.888093103865699 -18.202521207640558 143 140 125
122.663599675768694 -1.364406987519029 -18.883244288844423 143 140 125
120.474702477354057 -1.533570559450774 -21.049249749101875 142 139 124
117.755514712594206 -1.961107903018136 -23.734918643519762 148 145 130
115.566627415913743 -2.163391880040914 -25.900587915765044 147 144 129
113.832333068044761 -2.169912561803495 -27.620594676925862 145 142 127
112.779980776061521 -1.869245381559419 -28.672272254817983 144 141 126
111.424647109416085 -1.719075558938819 -30.020890976381366 145 142 127
109.538979796129297 -1.830826029803460 -31.889116016508183 144 141 126
106.895588316113546 -2.319205679608233 -34.499560428396592 145 142 127
104.327941449423932 -2.789874462879588 -37.035564225595351 141 138 123
103.351679748378530 -2.504625044581899 -38.012625693686005 145 139 125
101.920810323453964 -2.449071586367561 -39.434993318554064 142 139 124
99.883697447176104 -2.702977422997574 -41.451021813706291 139 136 121
99.210843212541505 -2.292939974623561 -42.131081339933928 147 144 129
98.386529093484270 -1.963465489613611 -42.959571471402455 144 142 127
97.334936620451884 -1.754434922878577 -44.010669282379070 143 140 125
95.449615898064081 -1.976431379140947 -45.877925313093414 144 141 126
94.094953400935026 -1.940306140487114 -47.225691201659032 145 142 127
91.830640728780423 -2.382506847018271 -49.463666534313916 144 141 126
89.035606995061613 -3.116232218354163 -52.220758114895062 144 141 126
87.832656062322215 -3.038070271127184 -53.419817230958813 146 143 128
87.160533321094448 -2.689139943396563 -54.099597694834500 144 141 126
85.957766116854415 -2.625958618044510 -55.298590502916028 144 141 126
84.830906048583486 -2.530786626111436 -56.423367435738641 145 142 127
83.476629495147691 -2.565656176788594 -57.770587173412878 146 143 128
82.122411986754670 -2.610072846429614 -59.117736884741731 145 142 127
80.313196293541637 -2.911636762783118 -60.909723387788631 145 142 125
78.959066275356975 -2.976800054910182 -62.256701398725738 144 141 124
78.060101546360656 -2.800593225232987 -63.158760158229370 143 140 123
77.464672009806861 -2.462231991003214 -63.764262710429477 144 141 124
76.262500690026386 -2.466858125651442 -64.962842611344627 145 142 125
75.363864912353904 -2.309322273902051 -65.864866550278691 141 138 120
74.010113002055149 -2.415555850317746 -67.211602689664289 143 140 121
72.884038706077263 -2.401718693960513 -68.335918312936769 144 141 122
71.530399387676908 -2.526194381887366 -69.682520540682816 144 141 122
70.556238617808560 -2.441419776873789 -70.658523499084112 140 137 118
69.506283934018285 -2.407439846035789 -71.708602938687108 139 136 117
68.911799414497253 -2.114896251547749 -72.314085959813752 140 137 120
68.317467427121130 -1.826326769942825 -72.919601044255387 140 137 120
67.040112848413173 -1.945546255357686 -74.191892849800524 144 141 124
65.914637709826067 -1.983445377165614 -75.315962560413823 141 138 121
65.548436312754532 -1.574943561672505 -75.699272406291044 144 141 124
65.106499894473203 -1.214427614310232 -76.156715819893265 143 142 124
62.842371820290481 -1.960360729843410 -78.391652993317138 143 141 123
60.730005160081916 -2.629999634803396 -80.478259871787117 142 139 122
59.832657447905277 -2.570074519835383 -81.379895260490201 146 143 126
60.302534158417728 -1.673516766837139 -80.948758078017477 148 142 126
60.241045894026442 -1.102772305414798 -81.036076147476138 147 143 126
59.799987164296354 -0.768945216372021 -81.493664722446766 146 143 126
57.991633785959380 -1.295862861433306 -83.283744074836989 142 139 122
55.955285446867123 -1.979513648673609 -85.295714741296280 142 139 122
55.286562376514368 -1.809692877184536 -85.975277931426177 143 140 123
54.921952793356951 -1.450315773234019 -86.358843630289641 142 139 122
54.253547527034470 -1.288308389794114 -87.038478429650013 143 140 121
52.521188338511621 -1.817754594937760 -88.754028229301440 141 138 119
50.560719089753832 -2.507620269407578 -90.691376334608123 141 138 119
48.067975692044143 -3.558998930270152 -93.146377271205125 143 140 121
46.867512068263792 -3.779796552347786 -94.343548966317854 143 140 121
45.819152585865950 -3.908614705805660 -95.392715782334733 143 140 121
46.367823281044522 -2.984535368470957 -94.888697780615900 144 141 122
46.232405406431511 -2.512749606042235 -95.050488431273067 143 140 121
210.913634059137650 -1.856026554665376 66.945314328273639 167 168 163
209.020810516662010 -1.339944441842456 65.074050207481264 186 185 183
200.217872262442143 -3.126168264086046 56.444101542702271 189 185 182
194.452201731914727 -3.958418874188674 50.785670081102552 184 180 177
193.546483798073098 -3.187421015469276 49.880719548789671 170 166 163
190.666399858344562 -3.097997643676698 47.044983726787905 175 170 166
187.558489728992527 -3.107858079987445 43.986684496330554 176 173 164
185.969424723728821 -2.609715903142040 42.413723536988414 176 173 164
183.089355567052792 -2.578187002861790 39.578576579703963 175 172 163
178.918205400307073 -3.027128088056848 35.481423027461489 175 172 163
176.417843220468967 -2.904711976790630 33.017984430866193 174 171 162
173.765596431588421 -2.855327814084653 30.406240895313744 174 171 162
171.569060492925786 -2.657652075853557 28.240113720903821 171 168 161
169.752312889388890 -2.334929077080572 26.445304359106359 167 163 154
167.176069435562994 -2.309268851699423 23.908304175906636 164 160 151
163.384544545318079 -2.760935014792937 20.183861667830797 159 155 146
161.036165590992596 -2.689494852733142 17.869957307999499 165 158 148
158.915684374273695 -2.547102512909889 15.778873760017689 165 163 151
157.251000761161777 -2.242804372466986 14.133224932596306 162 160 148
155.282518348927738 -2.069429042437942 12.190824523915467 158 155 146
153.466004531778481 -1.849968278907805 10.396966249573410 156 153 144
150.813901257666430 -1.976910520283198 7.786969073303595 151 148 141
149.073428050756831 -1.755677657498160 6.067573875480889 153 150 143
146.877179936478456 -1.731978197154858 3.903099832098519 149 149 139
145.060823351537067 -1.568235499938070 2.109739872454099 151 149 137
141.952935308282662 -1.951304954210725 -0.944728296010652 151 149 137
137.857314130852757 -2.768362261446398 -4.963366567730560 151 149 138
135.509136685030739 -2.879782289269481 -7.275485056743634 150 146 134
134.756591897488931 -2.331209207871332 -8.029705797402329 146 143 131
133.168330082486477 -2.145358968447431 -9.599836422418491 147 144 132
131.808086995030976 -1.872454472906350 -10.947369863539478 145 142 130
129.991983431685497 -1.807416376687105 -12.739834851805114 145 142 129
127.567992336418072 -2.021781317445038 -15.125483572007511 144 142 127
125.144004739900197 -2.253394128723818 -17.510956425003798 144 142 127
123.935964646819201 -1.960483279092039 -18.709791422537364 142 139 124
122.652009529070682 -1.710216288246059 -19.982728862744523 144 141 126
120.988124144358196 -1.641035818119228 -21.626339375602498 144 141 126
118.716253505197898 -1.861075915652017 -23.862985813500728 147 144 129
116.520397291418959 -2.062313216607091 -26.025331953656121 147 144 129
114.248541355983576 -2.314380623060880 -28.261655752586023 146 143 128
113.572968109175378 -1.837097392027582 -28.941106707332040 143 140 125
112.365407119612343 -1.614891223874032 -30.139443107540927 144 141 126
110.321718334631683 -1.797691176104641 -32.153057639098762 145 142 127
107.517821529599487 -2.358205228227806 -34.907692107866154 142 139 124
105.778235646274908 -2.426374819780706 -36.624532833404658 138 135 120
104.951035489023155 -2.064435855066184 -37.451976467291814 143 137 123
103.135532805681706 -2.191087936784877 -39.242755751193329 143 140 125
101.928345177596754 -2.031265521729756 -40.440628618944004 143 140 125
99.884810854277774 -2.294514715549756 -42.453488939973369 147 144 129
98.373580883837121 -2.306510207151683 -43.947575924965776 144 142 127
97.014497250464927 -2.252687877644544 -45.293408922153503 143 139 127
95.655481149294147 -2.208427342430249 -46.639175802162782 144 140 128
93.992317199866733 -2.328882555581325 -48.281179431835596 145 141 129
91.568613630278222 -2.851732544441931 -50.663790311767542 145 141 128
89.981541433771028 -2.959110164240516 -52.231471704534158 145 141 128
89.459424310453500 -2.523099353576375 -52.762192935157287 145 142 128
88.328902891442894 -2.409701224113693 -53.885405901125694 146 143 128
87.122394730130722 -2.344366720617488 -55.082631211911121 141 138 123
85.383419662035450 -2.570559610336780 -56.798137536169492 144 141 126
84.329201380531799 -2.442615488162145 -57.847144505865742 145 142 127
83.427250244305228 -2.240028813670906 -58.748046119381740 144 141 126
81.384044714125920 -2.662687315284337 -60.759422853836668 144 141 124
79.569100869667821 -2.975228216294532 -62.548556037344980 144 141 124
77.982456974937335 -3.175168309431006 -64.115489536176000 143 140 123
77.613518947684767 -2.712769721557329 -64.498044974108581 144 141 124
76.788098751708958 -2.506959790464422 -65.324733020793389 144 141 124
76.267258325828692 -2.136216256093650 -65.855393190231979 143 140 121
74.985379554590864 -2.198184895539286 -67.126109949296364 144 141 122
74.008060767757698 -2.096320097320076 -68.100778041150505 145 142 123
72.574060295626779 -2.262104844270690 -69.519369438430857 144 141 122
71.368502600017976 -2.306703191717975 -70.715917854690559 142 139 120
69.706164654388303 -2.623944318648417 -72.356291025481625 141 138 119
68.729144916633757 -2.554113998371386 -73.330772434415763 140 137 120
68.437592676281767 -2.089705254395885 -73.639510774171356 141 138 121
68.222398516182182 -1.582167101650167 -73.874363625536432 142 139 122
67.169615513255366 -1.572448868423211 -74.922840269117643 143 140 123
66.269257741431872 -1.479174225593294 -75.823378939046933 144 141 124
65.902240643694427 -1.072131071374834 -76.206283541788309 143 142 124
64.697415090086992 -1.173208903370438 -77.402600840564617 141 139 122
63.264082675030664 -1.421494693486790 -78.820662609377280 141 138 121
60.078285590297611 -2.750418890859240 -81.938982086341582 144 141 124
59.940261000566849 -2.229286791565794 -82.100033640056381 149 143 127
59.573848394939560 -1.850043702734159 -82.482941269712654 146 142 126
60.045998573516357 -0.951795510033861 -82.052909107114232 146 143 126
57.012297609931352 -2.242289685268688 -85.022668656776375 143 140 123
56.188945250663593 -2.164186057409425 -85.849031404321067 141 138 121
54.984528607735257 -2.332829917848564 -87.044848833491557 141 138 121
54.695074427200836 -1.927757623109965 -87.353980097992263 141 138 121
53.948334288541702 -1.817091826987451 -88.106470163106678 142 139 120
52.362883101508089 -2.251275095558074 -89.671563066533253 141 138 119
51.234988914459080 -2.400551605487375 -90.793329049247063 141 138 119
48.963037962579335 -3.302275531238545 -93.022920151723127 143 140 121
47.606277765725025 -3.621266089196143 -94.366027122641100 144 141 122
47.470151131935225 -3.146513680299028 -94.527509242520011 145 142 123
46.723895163682258 -3.076163643521605 -95.279815942733222 143 140 121
214.220035429180029 -2.276297568820075 68.693635854529589 135 137 132
213.235348336089999 -1.449893865499392 67.715034692204995 160 161 156
206.080193400838084 -2.645527421283096 60.729608361710945 186 185 183
200.372316896274725 -3.414339834211001 55.153734319879703 189 185 182
194.892880080677685 -4.147570982431644 49.800785912802070 185 181 178
193.451075173010821 -3.558172267033078 48.378154647981148 176 172 169
188.657177545768661 -4.121425218952243 43.693226936346207 178 173 169
187.596344878116383 -3.433293468244190 42.641617973636642 178 175 167
187.602214528035347 -2.381581469130566 42.627984153293255 178 175 166
185.093940111601682 -2.213485189035767 40.167860534639033 175 172 163
180.528516241790328 -2.793603192787862 35.706382015803882 174 171 162
175.886826597699240 -3.433561282483693 31.171145861112223 173 170 161
173.911864851011558 -3.140770390904299 29.230615939460421 173 170 161
171.632154345260801 -2.973472989050455 26.993733007403421 171 168 161
169.885851667454915 -2.625406717320864 25.275821048481902 168 164 155
167.453800110223312 -2.545422958827987 22.890998546624729 167 163 154
165.097966282221535 -2.454038679863825 20.580455277992684 161 157 148
161.675307677336463 -2.784750650793729 17.232597785708663 164 157 147
159.319487449063388 -2.730643132307640 14.922431719434911 164 161 150
157.725755450583108 -2.398280919321648 13.353409890099044 163 161 149
156.513124973197307 -1.928350573257914 12.154948766078689 160 157 148
155.300572235566960 -1.466979989510377 10.956538561559398 157 154 145
152.182777566739730 -1.772042746498047 7.906006726689213 150 147 140
149.217390425805775 -2.038096131167023 5.003879879659280 154 151 144
147.319025392102674 -1.893188749322101 3.139087477243663 150 150 140
145.801798404909619 -1.606068763125862 1.644790498633910 151 149 137
142.836430456347557 -1.926356066145261 -1.256787272994643 151 149 137
138.346571228536050 -2.901256182271332 -5.639493082023932 150 148 136
136.905632113320337 -2.630146241667543 -7.059262232732237 147 143 131
135.312304350068644 -2.433649168159101 -8.627078918682372 145 141 130
134.100188045283460 -2.085933380430132 -9.824528005268178 145 141 130
132.506990015103128 -1.910580809046767 -11.392189104092495 145 141 129
130.380202992376383 -1.977760201584957 -13.478098748973622 147 143 131
128.329677793901539 -2.026692615594532 -15.489820729569288 146 143 128
126.431661642691225 -2.022971568575949 -17.353326734303266 145 142 127
125.143628723182417 -1.761802152826937 -18.624425592262185 142 140 125
123.703183716950406 -1.577951438545933 -20.043532919962814 145 142 127
121.500321078935343 -1.748298471655274 -22.202845179824550 144 141 126
119.297471460723742 -1.934250354530192 -24.362003039757752 145 142 127
117.323396236387126 -2.030950396231439 -26.298947844823857 148 142 128
115.501862656129987 -2.071162907338236 -28.087731734236883 145 141 129
114.519230041160654 -1.733755320568064 -29.062282269174091 143 139 127
113.231647764508864 -1.546285725777234 -30.332838083850419 143 140 125
110.952680893151268 -1.836449905969467 -32.565367886179132 145 142 127
108.826250319520796 -2.070122019185336 -34.649734261873448 139 136 119
107.233737678797226 -2.062690024138293 -36.215994757816247 138 135 118
105.488724237665636 -2.140211326343105 -37.930142696448343 137 134 119
104.430264795868126 -1.895767185269506 -38.978319902816651 142 139 124
103.219337285165409 -1.733530939630525 -40.174428470313018 144 141 126
101.321914544461350 -1.918977755198955 -42.036271160759753 145 142 127
98.051287129459936 -2.801197775795742 -45.229465133914687 146 144 129
96.993068304865815 -2.597763479506058 -46.277335315794375 143 140 127
95.400862375861976 -2.671293048359549 -47.842909163523728 144 140 128
92.740478727896601 -3.299075388757906 -50.443789638585173 145 141 129
91.377219276591291 -3.281678818686511 -51.787249990146563 145 141 129
90.929735513774176 -2.801774970238850 -52.243268492778782 145 141 129
90.482411505005331 -2.324823632311737 -52.699333029526002 147 143 130
89.577343666259083 -2.090154024010936 -53.599073868994537 145 142 127
87.756526914420363 -2.343706253869707 -55.386004673768099 143 140 125
85.859393974255980 -2.650553730537494 -57.246736365808488 142 139 124
84.649234393651426 -2.604363703861328 -58.442017786403198 143 140 125
83.973496252876160 -2.279672710788222 -59.119819147879582 143 140 125
82.305482956105720 -2.496043016096575 -60.758515564178396 143 140 123
80.332112086400954 -2.890343050313698 -62.692733983861700 144 141 124
78.587767245823699 -3.173145601088115 -64.405088715691221 145 142 125
77.683319313180391 -3.005187015219902 -65.304439426047878 145 142 125
77.237134413089336 -2.589207115046151 -65.760421298843852 145 142 125
77.172939500614305 -1.962868868668198 -65.847016771893294 143 140 121
75.276113158602342 -2.366919355808748 -67.706894580021498 144 141 122
73.913882406742644 -2.481950624904677 -69.049483911597065 145 142 123
72.933596299728364 -2.389105183769049 -70.022639606874293 144 141 122
72.258949544162178 -2.127978562234643 -70.700308783285408 143 140 121
70.362198038491911 -2.575996690609688 -72.559769811844262 142 139 120
69.152975631299427 -2.638595723059820 -73.754379752550449 141 138 121
68.478629455598281 -2.397456377312285 -74.431986986268271 141 138 121
68.339281010172328 -1.846730131219461 -74.592709839376113 142 139 122
67.894505426379780 -1.477227079397284 -75.048887514710515 143 140 123
66.227195358628961 -1.837450294645186 -76.686439603094414 144 141 124
65.553409012667302 -1.615211470657260 -77.364120104875411 141 140 122
65.338362477907808 -1.121542284492494 -77.598900819457043 144 141 124
63.824081810445293 -1.415582442522090 -79.088625134012460 140 137 120
60.322229294605762 -2.930530138498209 -82.497265482443396 142 139 122
59.572300040815875 -2.784867033435517 -83.248590130692691 150 144 128
59.510628992102454 -2.220278572897486 -83.335757389948554 148 144 127
59.984471490787413 -1.323963457890308 -82.906514929349271 147 144 127
58.088019872583274 -1.901484172332468 -84.764786387869094 144 141 124
55.809088761758957 -2.732231202015125 -86.991768807079012 141 138 121
55.518661237288626 -2.325215824592730 -87.300454428303340 141 138 121
55.228452155782207 -1.919857102725999 -87.609227499104918 141 138 121
54.785459972002371 -1.613738955966050 -88.065605894222813 142 139 120
53.654073461705792 -1.752096971252635 -89.185813551015940 141 138 119
51.757565865258826 -2.391913987670348 -91.043416982605152 144 141 122
50.779255840341861 -2.449505017343655 -92.015969510617452 140 137 118
50.183693717710085 -2.264177370267312 -92.619833382502264 143 140 121
48.975958951141905 -2.484418500024322 -93.813532316083723 144 141 122
49.299254548845013 -1.703184825456510 -93.532801912848868 142 139 120
213.425773790884477 -1.732563155173126 66.407397730229377 157 158 153
207.394085650688737 -2.557694323186145 60.543578242507635 183 182 180
206.253539704668071 -1.816344668311364 59.418697155392834 183 179 176
193.043310739257578 -4.031437395981896 46.582639382540947 175 171 168
190.679860763755755 -3.768538040948142 44.273974161927157 176 171 167
189.692201924440951 -3.050210448317347 43.297907154510256 176 173 164
187.481681348744758 -2.762931323099025 41.137547849846641 177 174 165
185.194750736269611 -2.518097138816164 38.903320867045551 175 172 163
182.067039280979827 -2.587002879541481 35.855102306023724 173 170 161
179.015752834378247 -2.650775559063852 32.881128330551292 172 169 160
175.429375836328347 -2.929333696870948 29.389338540932641 173 170 161
172.072288742661186 -3.149746098032034 26.119835378481469 172 169 162
169.556053563037096 -3.084476356141820 23.664578606863671 170 166 157
168.033618466827818 -2.667731274795840 22.171438873532907 168 164 155
166.052559887926861 -2.433818438037895 20.234431716909853 163 159 150
163.842192281605207 -2.300775209804013 18.075586859790945 163 156 146
160.714441442251427 -2.534064772439032 15.029079225228543 163 161 149
158.580556916211521 -2.406074487159808 12.944556022065569 165 163 151
157.517069064294162 -1.876419262064750 11.895848568897094 160 157 148
155.765556897317140 -1.624599139873797 10.181419521705465 158 155 146
152.332001545159386 -2.052030337168883 6.839770575550432 150 147 140
149.280709846354597 -2.350879321495171 3.868218871211582 156 153 146
147.146953103542984 -2.301056421003406 1.784439153149776 151 151 141
145.395551326191026 -2.110664632999141 0.070589608642649 151 149 137
142.573654736331093 -2.372264575532802 -2.678510697852886 151 149 137
140.134093765978918 -2.495471597769913 -5.057649177432950 151 149 137
138.000429358335708 -2.508143977466598 -7.140829773008932 148 144 132
136.631535972929669 -2.213685883504642 -8.484446803257214 145 141 130
134.803854407883193 -2.123804501706936 -10.271628639613823 143 139 128
133.129176130456017 -1.981278705719235 -11.910830849876703 146 142 130
130.613250143388228 -2.213973543019931 -14.363168439055499 147 143 131
128.785682409680561 -2.164657978789676 -16.149987167595668 146 143 128
126.881670122677221 -2.161808154687531 -18.010615673584113 145 142 127
125.742593818158497 -1.833805248729976 -19.131945046421748 143 141 126
123.685696240213133 -1.923334050745973 -21.140200623505791 145 142 127
121.475831855654164 -2.096184810343638 -23.296137499706361 145 142 127
119.189480439635886 -2.319318753608565 -25.525824537083309 145 142 127
117.974151187019473 -2.069292333165619 -26.720730994707367 147 141 127
115.917359955640165 -2.215228401076526 -28.728456819299566 144 140 128
114.625661132492439 -2.020694550382989 -29.997116008177414 143 139 125
112.721957672392008 -2.121369016565693 -31.856826628371579 142 139 124
111.659933306238614 -1.838957109210785 -32.903689208439289 143 140 125
110.521490586097258 -1.600251189790758 -34.024402507129963 138 135 119
109.077059369677855 -1.515848533240744 -35.440579176723901 137 134 117
106.867457412848054 -1.810237372562438 -37.595390544940500 140 137 122
104.734378719303621 -2.083085115412329 -39.676173228419856 144 141 126
103.443137681761499 -1.959413439855624 -40.944322000395431 143 140 125
100.774357340737396 -2.523179407631096 -43.541844478961480 144 141 126
99.100514658598357 -2.612302756628631 -45.179061954126126 145 142 127
97.503251434931158 -2.674946860902540 -46.742328458978818 144 141 126
95.982577616763066 -2.710286746248134 -48.231657244017214 144 141 126
93.926108267776243 -3.027806972272794 -50.237770854106799 144 141 126
92.635166175199899 -2.969197235492640 -51.505392925109135 145 142 127
91.727082968629418 -2.722899783446756 -52.403810914183367 145 142 127
91.125358554296270 -2.324397609419399 -53.006921079336422 146 143 128
89.681556848771677 -2.368725165376055 -54.422073820038776 145 142 127
88.161238456416100 -2.463318508375584 -55.910962713961567 143 140 125
86.028367197576102 -2.892089299027776 -57.990239639232470 142 139 124
83.972044943292374 -3.295207423894500 -59.995542516750334 143 140 125
83.983454565668666 -2.606039286227283 -60.008094794835557 143 140 125
82.539910905670141 -2.700584515096324 -61.422854067898612 142 138 126
81.096413507344053 -2.805226145787755 -62.837531545051263 144 141 126
79.346569394371343 -3.087250196822596 -64.547263457305633 146 143 128
78.745770079589164 -2.750109251637001 -65.150184564959176 146 143 128
77.685475332290039 -2.671224932502500 -66.195779577049052 146 143 126
76.778497512490034 -2.514360750764451 -67.093805797786615 144 141 122
75.488540467567233 -2.578355974695998 -68.360637077757929 144 141 122
74.964876444438971 -2.219267780197140 -68.889826473683144 144 141 124
74.441377774652523 -1.863610712786586 -69.419059655765523 143 140 123
73.611508283170039 -1.686426242041347 -70.243324518487299 143 140 123
71.632161245447861 -2.175482670591017 -72.173708584707214 143 140 123
69.959348814935282 -2.501249397397929 -73.808983039551407 141 138 121
69.283001337588885 -2.259023104646759 -74.485644045913602 141 138 121
68.913429247506741 -1.841817570448901 -74.867430955557325 142 139 122
68.390724122967072 -1.517205135409144 -75.396724208969260 143 140 123
66.564803322035985 -1.968345353701205 -77.179179381727607 144 141 124
65.658955363315627 -1.883821676487507 -78.077001486979043 142 141 123
64.523168284093529 -1.943452215000346 -79.195914308149810 142 139 122
63.080693919949738 -2.196022873821751 -80.609558493548917 142 139 122
60.181015295242659 -3.343162330469053 -83.423191723032886 144 141 124
59.735570439396909 -3.012437056105469 -83.878650061767445 149 143 127
59.750566919761127 -2.401851067607076 -83.892109394881714 147 143 127
60.149416248417751 -1.553736771661849 -83.537353188471798 146 143 126
57.633117894679387 -2.513837747773661 -85.982025081907466 142 139 122
56.958158387861005 -2.340992131519308 -86.658635918455644 141 138 121
54.978795752328466 -2.992641992032974 -88.587338866861472 141 138 121
54.994712368784732 -2.396865839347099 -88.601085944848393 141 138 121
55.164418422373544 -1.702880268198127 -88.467698511452909 143 140 121
54.183024711432054 -1.743387229377370 -89.438951669540387 142 139 120
52.741101096959824 -2.086803552905257 -90.851924211630774 140 137 118
51.990158820450787 -1.993493336496446 -91.602225338700805 138 135 116
51.623274242100834 -1.655539155650055 -91.984482170752699 146 143 124
50.027903521058064 -2.123209560938433 -93.544484903189868 140 137 120
49.891720073676439 -1.642642762069334 -93.705999694078002 142 139 122
211.470284474931589 -1.574345278655538 63.017771988141561 171 170 168
207.412771790591705 -1.777407934939593 59.085441473486156 181 177 174
194.313782569643536 -3.939330938725640 46.417337455344295 174 170 167
191.482836667432082 -3.830890799035514 43.668757300400813 174 169 165
191.488948166997034 -2.771956665214277 43.654933438955169 180 177 168
187.661232109854609 -3.038026713640186 39.945894227026400 175 172 163
185.903846635253871 -2.608287210106940 38.232443536498721 175 172 163
184.683281576127769 -2.001629005132130 37.036370880647496 173 170 161
181.392322337974662 -2.141137781884657 33.845258482057744 170 167 158
176.184202050482725 -2.993657051433477 28.807176610169762 171 168 159
172.893155176204374 -3.186506053615124 25.616655194137991 172 169 162
170.675732079421891 -3.008754429331573 23.460725453491278 173 169 160
168.151570841000307 -2.960275524851383 21.009433317758379 169 165 156
167.161277578847887 -2.356067886602923 20.035801303216374 165 161 152
163.870228555333881 -2.627290470960503 16.846087654024473 162 155 145
162.113085628958515 -2.337336797387280 15.133959815027339 161 158 146
160.279293778291219 -2.089250563518001 13.348072636349798 161 159 147
158.215446079386652 -1.943377842310273 11.340718867175525 160 157 148
155.844821530899338 -1.932204647159700 9.038077081505691 160 157 149
152.246935962082489 -2.422727713297015 5.553974814183164 144 141 134
149.646189830734158 -2.541102506332805 3.030179252723570 155 152 145
147.505701292789581 -2.492695125836878 0.949634573037088 152 152 142
145.672086526002801 -2.334856058967438 -0.835408362535702 152 150 138
142.841238001325962 -2.598126051102237 -3.580208903439967 152 150 138
141.774845313490573 -2.152891822131429 -4.626657705339625 150 148 136
140.324952614677812 -1.874828840888464 -6.042215063485656 149 145 133
138.644966550493223 -1.703585908447089 -7.679173646669085 146 142 131
135.507289864333927 -2.161479076180592 -10.718620832404241 146 142 131
133.136831667997626 -2.313890692660374 -13.019658339728863 147 143 131
131.150023770843745 -2.317820875478030 -14.951466804524188 147 143 131
129.086516819585711 -2.369035720735224 -16.956954864874632 145 142 127
127.253237637941140 -2.334019321929873 -18.740894067806011 146 143 128
125.957156833125651 -2.074886214519854 -20.008121884275369 143 141 126
124.584416596459519 -1.858934424845932 -21.349090489238563 140 137 122
