ply
format ascii 1.0
element vertex 692
property double x
property double y
property double z
property uchar red
property uchar green
property uchar blue
end_header
-116.271398110742354 -88.765310166706371 -11.876170627920288 10 16 16
-116.247741159727624 -88.245595543236874 -12.447132140500457 7 12 15
-116.237295584217946 -87.703344213578490 -12.679428703200614 8 14 14
-116.226911326454953 -87.162157929618317 -12.911684968650604 8 14 14
-116.220969202886621 -86.613079266393427 -13.031038487632287 8 14 16
-116.210708423957826 -86.073747680283788 -13.263216589894483 9 14 17
-116.213647203991201 -85.506975413697603 -13.156785874341267 10 15 18
-116.194754557270514 -84.988495809856829 -13.614596562479903 10 15 19
-116.193438929377294 -84.431983415764464 -13.620954415994646 12 17 20
-116.179054892429775 -83.906393261975921 -13.965822508214160 12 17 21
-116.169113931286489 -83.371815033931227 -14.197798682041565 10 18 21
-116.137360189042596 -82.892604142065025 -14.993934516376527 11 21 23
-116.162557198249715 -82.272421951849836 -14.323110890853769 14 23 28
-116.165939942055175 -81.705970590422197 -14.216464481315768 13 22 29
-116.178137141140098 -81.115578835199216 -13.884129927244459 11 20 27
-116.146660325876283 -80.643031040993776 -14.680064694049889 13 22 29
-116.158993040888021 -80.052016161541943 -14.347671723754416 11 20 27
-116.188885941008266 -79.409339467329175 -13.563974262424495 7 16 23
-116.236336573926351 -78.711729955134345 -12.329007153316354 9 18 22
-116.227009558172199 -78.177620142417851 -12.560684796139782 9 19 21
-116.217757115768080 -77.644554065595372 -12.792316019630277 10 20 22
-116.212952293461697 -77.098943864903063 -12.911089754959306 14 24 26
-116.230083299343860 -76.484534636134413 -12.465783223627966 12 22 24
-116.304123639478931 -75.684184235828340 -10.553999943780212 21 31 33
-116.334521826911498 -75.018554193828521 -9.770297025071528 19 30 30
-116.369371033656435 -74.334375943766759 -8.873796795083564 20 30 31
-116.448017987315353 -73.496284968034360 -6.849339324897784 15 25 26
-116.509262462469195 -72.709207115507638 -5.276117576756036 15 24 25
-116.526877024349446 -72.069379712804960 -4.830841355926026 20 29 29
-116.518349001916746 -71.521911611161499 -5.062274266661717 17 26 26
-116.523025344473467 -70.927348183659078 -4.955298375533602 6 13 12
-116.536536793833179 -70.299545489744759 -4.622720178221300 2 8 6
-116.606982426483384 -69.454420257208952 -2.823976368874241 1 8 7
-116.607568140547770 -68.870230667446492 -2.829709522192559 1 7 6
-116.608249758658104 -68.285966407648758 -2.835397563960242 0 6 5
-116.595908891238480 -67.753838806778433 -3.179355504107974 0 5 1
-116.618654570959833 -67.081850018250648 -2.621096742471053 0 5 1
-116.619634473049871 -66.496802272888999 -2.626650151015752 0 5 1
-116.638215705988003 -65.838776532414428 -2.181098802697818 0 6 2
-116.626278839665815 -65.307956106603783 -2.524850014695829 3 8 4
-116.666954803672169 -64.553448683236610 -1.515427332597170 4 9 5
-116.642102679680434 -64.079576490151410 -2.197347617588036 3 9 5
-116.661124292351175 -63.415727425874927 -1.751645535512836 3 9 5
-116.649617732593057 -62.886721289426234 -2.095172214933683 3 9 5
-116.712659218213929 -62.021590044851472 -0.521894225919198 2 8 4
-116.740803092580720 -61.309791119140733 0.149396112712196 2 8 4
-116.769076029173846 -60.594605871191924 0.820713337154302 3 10 3
-116.722994906219824 -60.227639348895394 -0.424556819001339 1 8 3
-116.716456882254221 -59.677970558542967 -0.655060374085991 0 6 2
-116.710038587534910 -59.129281635841537 -0.885496564839599 1 7 3
-116.751974480977935 -58.345031008249492 0.124222701440118 4 10 8
-116.776516028005176 -57.642842963599698 0.683029743726365 5 11 9
-116.809975379426604 -56.893691949911030 1.467337389475603 11 17 15
-116.790923276285923 -56.408476919326532 0.898933941974946 13 19 17
-116.780772949795264 -55.880672031677513 0.556068444957845 10 16 14
-116.770751520448741 -55.354376299751834 0.213280146390616 8 14 12
-116.822361923005445 -54.505537252576843 1.448680593460608 9 15 13
-116.847781685885991 -53.791051337056743 2.007781183038020 9 15 13
-116.851381825605685 -53.192151993931674 2.003338705739708 9 15 13
-116.872721000900441 -52.497228806726163 2.449829640272696 9 15 13
-116.881025277863159 -51.872687703113648 2.558232547505440 6 12 10
-116.885084289672136 -51.271958316494633 2.553990755484733 6 12 10
-116.884894933663503 -50.695859684958428 2.437111210677301 6 12 11
-116.928913653200979 -49.869484530152029 3.447393284901096 7 13 13
-116.937869501657673 -49.240723801318268 3.556064466980985 9 15 15
-116.964631539742783 -48.508779461394340 4.115627488082623 12 18 18
-116.960698532601697 -47.955139627245131 3.886329288168923 12 18 18
-116.987824531510796 -47.219263659181806 4.446025956657650 10 16 17
-116.970980236590506 -46.744847649784056 3.878789876791927 10 16 14
-117.002895025866692 -45.979130262604720 4.551329198380159 8 14 10
-116.995223315005845 -45.452822334086804 4.209664871536688 7 14 7
-117.014261016640248 -44.764376489703444 4.544262578582504 3 9 5
-116.958241256450762 -44.542251552993278 2.963152084881330 3 9 5
-116.959914674444747 -43.966027874616437 2.847162397601721 0 11 6
-116.997229910362961 -43.165416518456986 3.632784978120839 3 15 11
-117.119050474226839 -41.821773591631633 6.559563734605632 54 68 66
-117.143576349031122 -41.093691807993821 7.007237857170367 20 34 34
-117.123910318598050 -40.652346210704188 6.328133394151990 2 17 14
-117.131077423693768 -40.038913047265375 6.325247736949336 8 21 19
-117.111760833800957 -39.602052237094441 5.646356609254383 10 19 18
-117.074805477643423 -39.287236678459216 4.516847889641468 14 23 22
-116.988985254120166 -39.307926449583022 2.147968175752851 15 26 25
-117.032528674552395 -38.461330177923656 3.046955837479430 5 20 17
-117.143281330141377 -37.151440040114579 5.636210524235025 6 18 16
-117.160637584799503 -36.476424609730678 5.859283193888615 8 20 18
-117.213994119410785 -35.551008687374015 6.983871855382631 9 21 19
-117.227391732095100 -34.902410671248319 7.094463767080470 12 24 22
-117.227595177713653 -34.348011492660923 6.867136615674639 13 23 22
-117.228017514255498 -33.794424011667900 6.639922536147310 10 20 19
-117.237635033649269 -33.177172481552290 6.638169844379178 10 20 19
-117.238512665686699 -32.624636921158881 6.411184404603517 12 22 21
-117.226131109867310 -32.171265230161147 5.846299903567768 14 24 23
-117.258955690055657 -31.389673375869783 6.408252177224739 14 24 23
-117.238019384731672 -31.005118124531577 5.618265705692068 11 21 20
-117.199231727303669 -30.758609911462198 4.377724656334010 16 26 25
-117.178653779070672 -30.382272645870188 3.587994213461030 14 26 26
-117.257708206559499 -29.257538506230162 5.277119400885624 13 24 23
-117.251204031473861 -28.778795875017401 4.825644347734482 8 20 18
-117.240397307948513 -28.336654613952010 4.261628841527084 14 25 23
-117.347750191697742 -26.986543416183885 6.627125303671534 13 25 21
-117.446532893653824 -25.694930717479977 8.767406204819309 14 25 23
-117.473058115434398 -24.961491040123420 9.105122771712246 14 24 25
-117.422502459964562 -24.835460693172045 7.527615436865716 13 23 24
-117.408549468332012 -24.427794131195103 6.851590747256211 8 18 19
-117.413082971486887 -23.877424762279862 6.626376561388895 8 18 17
-117.381318944901054 -23.621279417764107 5.499955278036026 7 17 17
-117.335998023679821 -23.481216285581475 4.035666660523503 9 19 15
-117.419187257975722 -22.304976644554181 5.726239753351734 7 16 13
-117.530436509945332 -20.894696566075385 8.092980876181826 9 15 13
-117.531933238962992 -20.379662207786549 7.755818744071178 7 12 10
-117.473846171095886 -20.361048722800945 5.954096333230211 6 10 9
-117.448146999822171 -20.082335723172356 4.941203040579438 7 15 14
-117.482703302451625 -19.305690177503447 5.393175794235390 9 17 17
-117.540789169306137 -18.331622573515617 6.408667270943738 7 15 15
-117.668870449416417 -16.763717147708007 9.114414916218095 5 13 13
-117.700181452948428 -16.011263970529669 9.454225269191397 3 11 10
-117.699344081418730 -15.535063436173360 9.005487362517215 4 11 9
-117.680170485048180 -15.220839918880912 8.106209239855531 5 11 9
-117.712561889246615 -14.466774776512079 8.446519860036773 7 13 11
-117.712649208032019 -13.994863341902377 7.998268471898143 8 14 14
-117.684943114807027 -13.770124932198973 6.874111777313175 12 18 17
-117.690286961933168 -13.262102462329496 6.538862270208739 13 19 19
-117.677156998578795 -12.921113894127668 5.753058779671989 10 15 18
-117.645448343823276 -12.750557077750138 4.516686106808578 6 11 14
-117.613928915892870 -12.585645049623350 3.280462064050795 4 10 10
-117.639342293367918 -11.918388321281302 3.396610212939720 2 8 8
-117.684127428952138 -11.079470192915359 3.963694287163406 3 9 7
-117.700927430143366 -10.494477748269006 3.854850844119539 0 10 4
-117.694329375256089 -10.125342804335041 3.182741356339506 0 11 5
-117.692795124407979 -9.715500580213083 2.623494239490412 2 11 6
-117.658129971739129 -9.614157119698373 1.275560751080462 4 10 6
-117.671529563798728 -9.078548910626981 1.054740015788440 1 7 3
-117.742914674028185 -8.011414793694295 2.186494709491541 1 7 3
-117.737983090474160 -7.651734363409792 1.515279775943668 1 7 3
-117.704430970285571 -7.564213191004526 0.168021038212373 1 7 3
-117.748387985425751 -6.759768136290774 0.624204906198628 1 8 1
-117.821959771109562 -5.679390796679504 1.756869378799934 1 8 1
-117.881657898067061 -4.729799213387278 2.551666329350979 2 9 1
-117.990678845647551 -3.314812653486974 4.473857453139743 6 13 5
-118.017618912765357 -2.677106694567581 4.480181261114950 3 10 2
-118.079299266195108 -1.712134034573382 5.275768176866563 0 3 0
-117.669538007993566 -1.121694585893259 -13.439771676088782 74 78 64
-117.651500495987619 -1.026582877311288 -14.557968641806241 76 80 66
-117.608077259452571 -1.192992970984604 -16.239912500437839 85 89 76
-117.459537174011004 -2.172438349690074 -20.956964811506140 90 93 82
-116.768590670935637 -175.593090507261508 -16.176638810883588 49 27 14
-116.947418607899849 -176.493214331222191 -11.425749545447474 73 46 34
-116.960588495083456 -176.159983618301766 -10.646867033246906 101 73 62
-116.964502545610756 -175.754647209729313 -10.094872471565509 115 94 84
-116.912222757551120 -174.938705735038582 -10.904294032909235 68 57 47
-116.855670804439683 -174.093340635539676 -11.826921140441783 25 15 6
-116.799547962475245 -173.252836943127477 -12.749292921767136 64 50 41
-116.785894627565753 -172.715791646142208 -12.650493822497907 58 37 27
-116.800475420568716 -172.375955544396220 -11.871004330375058 99 72 59
-116.819857929608915 -172.065196447551614 -10.978059524619880 151 118 104
-116.792911159347042 -171.426915279894018 -11.219238685691892 166 130 116
-116.775536453013387 -170.854225770941525 -11.233445666456589 158 122 108
-116.735275965374100 -170.122957073189099 -11.814527886408058 146 110 96
-116.718457393552796 -169.552339151854767 -11.828447490436247 153 115 102
-116.683439139960868 -168.857138053540353 -12.295791696747926 163 123 111
-116.667151451217634 -168.288283009754224 -12.309439181947113 168 127 115
-116.646510406519653 -167.689070651798858 -12.436340665718433 163 125 112
-116.644481770991803 -167.212299360155441 -12.109642149654150 152 115 101
-116.656388750487679 -166.824514565560463 -11.442784245651325 135 100 86
-116.645568421566836 -166.284499765894623 -11.342660412610655 131 98 83
-116.607563361324893 -165.566848710856391 -11.922523470588800 115 83 68
-116.597215065815035 -165.027962995560415 -11.822162196149691 103 71 56
-116.605284979315741 -164.604832506071290 -11.268362647280782 100 71 56
-116.613504421930713 -164.179205242803619 -10.714517264742909 93 65 51
-116.617333397801573 -163.722623159746490 -10.273949784877061 72 49 35
-116.612259303509873 -163.207734779342445 -10.059959449109925 62 43 28
-116.620944187150542 -162.775700349893157 -9.505957353360941 46 28 14
-116.589108831634590 -162.092531421232195 -9.971655018976492 45 27 15
-116.607158819186168 -161.712651831138913 -9.190918063814649 40 24 10
-116.611806003098337 -161.247930158778587 -8.750042940908088 55 37 23
-116.625600153380731 -160.834829008766462 -8.082542814833829 67 48 34
-116.599084543446381 -160.179965627105275 -8.434545284262526 68 46 32
-116.590746352231662 -159.631962257388921 -8.333316235415936 85 59 46
-116.582587937170715 -159.083629280253945 -8.232004575088411 84 56 44
-116.592503741955326 -158.637734778949522 -7.677556279565721 98 70 59
-116.589141743516834 -158.113044462245000 -7.462847779265388 107 79 68
-116.577015175965357 -157.537175958340924 -7.474576791417803 115 87 77
-116.569526628751703 -156.986377886741508 -7.372970043063901 117 88 80
-116.566656409246150 -156.459820001820106 -7.158045501225615 114 85 77
-116.563939656152669 -155.932356063530648 -6.943056868044266 114 85 77
-116.539172890391697 -155.283774129000221 -7.294158038324099 115 86 78
-116.541218122733682 -154.779627791579571 -6.965792382933159 119 92 83
-116.534540022842506 -154.227030102321152 -6.863816443726819 120 93 84
-116.528016678326878 -153.674060310935715 -6.761770300313373 120 96 86
-116.508388100159564 -153.051887425738755 -6.999282652728567 122 98 88
-116.493354089607934 -152.453650099186717 -7.123491714095479 125 103 92
-116.469669238745695 -151.811340577214139 -7.474010734902777 123 103 92
-116.472594145826505 -151.303551705896240 -7.145261740563342 123 105 93
-116.462444023942169 -150.728740512515230 -7.156034344454952 121 106 94
-116.461233086097877 -150.197223166136496 -6.940367058185643 87 81 71
-116.451371076494340 -149.622167044863147 -6.951004351315476 34 35 27
-116.472351292246969 -149.194409453429472 -6.169358417345848 44 46 40
-116.471507016771568 -148.659219256373717 -5.953553527553169 50 51 46
-116.470785863283581 -148.123072785389184 -5.737699580031631 49 51 48
-116.457070602914811 -147.525368013609153 -5.861272273977590 51 53 50
-116.430398667935464 -146.868566999764425 -6.324228358713867 56 58 55
-116.399532575892621 -146.194434601475365 -6.900228199380081 56 58 55
-116.394994147498167 -145.639435244772073 -6.797253370233335 58 60 59
-116.368803519507836 -144.988489165685763 -7.259918931571121 56 58 57
-116.347123922250603 -144.358682977897729 -7.609349942827322 57 59 58
-116.282128760882458 -143.545063192247284 -9.089983906388426 59 61 60
-116.282498162440547 -143.012923527472708 -8.873566997001859 62 64 63
-116.261279102863000 -142.389749014701977 -9.222709425448272 62 64 63
-116.287883119572271 -141.963425819122477 -8.327499434500169 62 64 63
-116.223594091550879 -141.166103211117957 -9.807627831252120 62 64 63
-116.220096929940766 -140.616648664004060 -9.704097788134362 61 61 61
-116.169147412978575 -139.880662794742022 -10.844636583893362 69 69 69
-116.183176808202575 -139.399888875559924 -10.288579392174768 43 45 42
-116.158433213230367 -138.769144002994551 -10.750344756709779 68 70 67
-116.181262057150704 -138.317742384122141 -9.968057825213407 40 44 39
-116.178292035859840 -137.767661567365138 -9.864282046481890 55 60 54
-116.153890321400468 -137.139366270144336 -10.325858641841819 51 56 50
-116.112408674802126 -136.452227623749849 -11.239647462027250 72 77 71
-116.105470279228598 -135.889576398768185 -11.248758418397244 49 54 48
-116.064265703879812 -135.209148980951738 -12.162345606599388 34 39 33
-116.079007283207417 -134.721130492348635 -11.606022280439248 32 37 31
-116.050920941842321 -134.088596729002575 -12.180264102262527 28 33 27
-116.065816316606615 -133.597995117939860 -11.623893790269761 44 49 43
-116.046509987238466 -132.995612182003669 -11.971907156995115 58 63 57
-116.027311527899926 -132.394933790423124 -12.319851373336746 62 67 61
-116.021048469325564 -131.835242109473143 -12.328608786727727 57 62 56
-116.014871510343241 -131.275614153379365 -12.337324354417063 53 58 52
-116.017320199177277 -130.741146821646680 -12.119936680970170 40 45 41
-116.024108003793472 -130.217925550516924 -11.789498543134556 35 37 34
-116.039489796051839 -129.717134888884800 -11.233000411695969 76 78 75
-116.046400195659771 -129.190211712489656 -10.902541730407080 49 51 48
-116.044855322963329 -128.638790170900791 -10.798097966227175 48 48 46
-116.051895814927121 -128.109249527545671 -10.467603992103477 41 43 40
-116.063250595447755 -127.589039183213103 -10.024091150746898 38 40 37
-116.061907431596026 -127.034774945196844 -9.919580151049473 32 34 31
-116.052137641553614 -126.459276668222984 -10.041036762908561 29 31 28
-116.033955897465106 -125.864177609245687 -10.388437155286312 29 31 28
-116.024348175944809 -125.290406523162090 -10.509798455276467 27 29 26
-116.006336212392497 -124.698121148401086 -10.857088662562518 25 30 26
-116.005361000076803 -124.144629045423471 -10.752393688137602 24 29 25
-116.000214503681747 -123.581626363257683 -10.760651023808094 25 30 26
-115.995136035817382 -123.018663209092395 -10.768875407981085 26 31 27
-115.985894095395452 -122.447276158293718 -10.890037179474803 28 33 29
-115.980951020607733 -121.884660273227354 -10.898193217448750 30 32 31
-115.976072940636257 -121.322079847363213 -10.906317797126007 29 31 30
-115.950141962710518 -120.721307923568233 -11.479201559897632 30 32 31
-115.945402559220383 -120.160155917188362 -11.487245093782207 32 34 33
-115.957600524477698 -119.627437905382536 -11.043457623442407 34 36 35
-115.965625215893596 -119.085743959566443 -10.712617911721907 39 41 40
-115.935767819189849 -118.483440659317608 -11.398254707925929 41 43 42
-115.935481703772609 -117.928419473489598 -11.293245811524713 48 50 47
-115.939460144724151 -117.378892477029012 -11.075281326602777 47 49 46
-115.947696096697697 -116.834042017824316 -10.744373040133610 47 49 46
-115.926536196303033 -116.249311689792407 -11.203950326643991 48 50 45
-115.922264635574450 -115.687563072135958 -11.211776187374682 43 45 43
-115.939057605099620 -115.150452153764689 -10.654976816217101 47 49 48
-115.960085477737138 -114.615292161662921 -9.985272515141958 46 48 47
-115.939167393637604 -114.033099466590755 -10.444707996434744 47 49 48
-115.918319457346058 -113.453103300581134 -10.904087309279561 46 48 47
-115.897540786546529 -112.875302555715521 -11.363410887177736 44 46 45
-115.901981848289793 -112.321070619260453 -11.145273516365648 41 46 42
-115.885517872506711 -111.749315203538217 -11.491611846427219 41 43 42
-115.869117131720202 -111.179207882730481 -11.837902960414226 41 43 42
-115.856965245126901 -110.613493791685300 -12.071257330477749 36 38 37
-115.861609606404954 -110.058777890433902 -11.853027683557826 36 36 38
-115.857931981776090 -109.498582444690712 -11.860553419715501 37 39 38
-115.854304601677356 -108.938398827593005 -11.868054997303972 41 43 40
-115.846547905280048 -108.376568286954367 -11.988407863187433 40 42 39
-115.843021697846780 -107.816677719314995 -11.995858023614289 40 42 39
-115.810314094467316 -107.249000049598649 -12.793360814833193 39 41 38
-115.790201203329929 -106.687664475488745 -13.252196401749075 39 41 38
-115.778495005914706 -106.129652007424397 -13.485258278963187 41 43 40
-115.791868809413785 -105.574520009362558 -13.041139010059311 39 41 38
-115.788600726543521 -105.017115089341345 -13.048440098560377 36 38 35
-115.785380585140373 -104.459715064152732 -13.055718201642918 34 36 33
-115.782208247448168 -103.902319099883115 -13.062973393792902 33 35 32
-115.791577521880782 -103.342554823358128 -12.731676445157802 30 32 29
-115.788495979420361 -102.784348399763573 -12.738896543645097 31 33 30
-115.785462056395090 -102.226143553505679 -12.746093844921546 32 34 31
-115.761674699771618 -101.675972474969612 -13.317431246689949 34 36 33
-115.754584336043280 -101.121007081626814 -13.437394674898655 34 36 33
-115.747544278679484 -100.566584845586462 -13.557328445724096 34 36 33
-115.761334393526923 -100.000591476329674 -13.113121816448142 33 35 32
-115.762697328177921 -99.440503471287570 -13.007376175462355 36 38 35
-115.759952067421992 -98.882834763677963 -13.014429862954131 36 38 35
-115.748950796299866 -98.331639411448151 -13.247084333847994 32 34 31
-115.733852090866350 -97.785037969084286 -13.592510600770026 32 34 31
-115.731257392982201 -97.228714237253058 -13.599478414988710 31 35 30
-115.724562875377686 -96.676438664987941 -13.719224784089022 31 36 30
-115.730360165110469 -96.111718677132458 -13.500546557237271 27 32 26
-115.727909998217953 -95.555100039420452 -13.507448263939381 26 31 25
-115.742087213889221 -94.978987746489267 -13.063160606120931 24 29 23
-115.735587624980639 -94.426404398083193 -13.182816890095694 27 32 26
-115.720855598871424 -93.885184434270698 -13.528012344623647 34 39 35
-115.702039217894679 -93.351272129795703 -13.985945404032151 35 40 35
-115.703982543635135 -92.789726731329921 -13.879937107621203 33 38 32
-115.734948051886178 -92.184003218437795 -12.984487251658550 15 20 16
-115.774224551241758 -91.560904345354004 -11.863522529509339 15 19 18
-115.763888648549184 -91.013655273044250 -12.095818069385501 20 25 24
-115.753609409199981 -90.467477776455496 -12.328075471445260 13 18 21
-115.755792535720730 -89.900411328020809 -12.222009286103855 11 16 20
-115.778698494271183 -89.294821853379148 -11.552131481210040 9 14 17
-115.764448429902018 -88.756724030354860 -11.897064229130052 10 16 16
-115.733729017025837 -88.252783233655890 -12.692959801174538 8 13 16
-115.711340229686812 -87.735813800945380 -13.263286370971599 6 12 12
-115.697277263081759 -87.204181877082235 -13.608063055214302 8 13 16
-115.703925587099505 -86.629395119464505 -13.389081318796087 10 15 18
-115.706498972148836 -86.062719476090635 -13.282824412359503 12 17 20
-115.705000518285843 -85.504970355314754 -13.289282459440528 13 18 22
-115.687049837797787 -84.986271412513474 -13.746644771928345 12 17 20
-115.685672666995657 -84.429555219166218 -13.753034165167861 13 18 21
-115.659597098744030 -83.934692559683697 -14.435755807114390 13 18 22
-115.645967678204002 -83.411307671330263 -14.780240193526254 11 19 22
-115.620027874144057 -82.922099597541589 -15.462838680857686 11 21 23
-115.639529270554377 -82.313687878092352 -14.905477542525915 13 22 27
-115.638467933216901 -81.759533641472586 -14.911689470610952 10 19 24
-115.641594840694069 -81.193668117192885 -14.805159421979369 9 18 23
-115.620046874912717 -80.698906827314673 -15.374855146054756 12 21 26
-115.619183797744398 -80.145730179379058 -15.380962164342975 13 22 27
-115.614265688260147 -79.605005995451748 -15.499739801644495 9 18 23
-115.630027087453826 -79.000960889120591 -15.054981802339569 9 18 23
-115.641733630094478 -78.407730777337363 -14.722911193259336 9 19 21
-115.645266241930770 -77.839440988544567 -14.616212011225485 10 20 22
-115.657112704212665 -77.243395773049116 -14.284103442345213 12 22 24
-115.669031001641642 -76.645667932265198 -13.951977827884122 13 23 25
-115.689264253268178 -76.018001190132949 -13.394464774146854 16 26 28
-115.680727199015507 -75.488356360234462 -13.625718541784579 16 28 28
-115.701111627652267 -74.857042561018531 -13.068170706474490 15 27 27
-115.733935203624227 -74.178113448993216 -12.172585499290307 15 25 26
-115.799801817235092 -73.373025408680334 -10.375620154023579 15 25 26
-115.861629796564188 -72.574644245859560 -8.691376725215179 19 29 30
-115.869976088920509 -71.972939560703693 -8.471859766314452 24 32 34
-115.890770084093646 -71.321974079548625 -7.914318280411635 17 26 25
-115.928135399477597 -70.602982610286432 -6.906113817708643 22 31 30
-116.006801721943958 -69.713202568966025 -4.771320258149757 21 30 29
-116.031992187743313 -69.032087396386018 -4.101126976768427 15 24 23
-116.044914554063396 -68.399006082421792 -3.768884930250977 4 11 10
-116.057933537381317 -67.764212745747130 -3.436614285202836 0 4 3
-116.087539357083756 -67.057014539349467 -2.653718314498434 0 5 4
-116.076024528346167 -66.525370824509281 -2.997276099690112 0 4 2
-116.093467573021059 -65.867753379536694 -2.552265053945263 0 3 1
-116.086276069826226 -65.318816665296382 -2.783073695626001 3 8 5
-116.124549344995557 -64.564474570060682 -1.774798749825720 4 9 6
-116.105195422264714 -64.071655341151839 -2.343424860617091 2 8 6
-116.110693678438835 -63.465610163955446 -2.236173956249218 3 9 7
-116.095673301832065 -62.956844393097661 -2.692032174275653 2 8 4
-116.138530308776069 -62.172164813406859 -1.571017780953355 1 8 1
-116.173261214496165 -61.422180879300356 -0.675251516733994 0 5 0
-116.208120894826308 -60.667720538489036 0.220530274914466 2 9 2
-116.185304762975093 -60.198262465752620 -0.460370561657044 1 7 2
-116.170857321999620 -59.690074586085537 -0.915948740716999 1 7 3
-116.173047860798960 -59.099065425001527 -0.920984348656475 1 7 3
-116.187758409796459 -58.443447911438497 -0.588118818099247 3 9 7
-116.202601289749836 -57.786070807418966 -0.255208093214804 3 9 7
-116.234117086969633 -57.038750282828360 0.528188605010087 5 11 9
-116.257509021452250 -56.332110670538952 1.086399854373553 8 14 12
-116.268635636911725 -55.690382616462770 1.306834929674380 9 15 13
-116.259210888825464 -55.161759064095953 0.964308119951625 9 15 13
-116.278894105994794 -54.472661595544942 1.410066816842260 9 15 13
-116.315294396077448 -53.687576859630980 2.306270398632392 7 13 11
-116.322861546931392 -53.063782785332180 2.414328356809364 5 11 9
-116.351299785674442 -52.319482206084587 3.085424962502088 7 13 11
-116.338443529125129 -51.814105951417794 2.630636942086056 6 12 10
-116.342315545306107 -51.212726000629537 2.626298995414061 6 12 10
-116.325590891333306 -50.735112760875758 2.059087240669328 8 14 13
-116.371278413485967 -49.884190470386997 3.180773873265537 8 14 14
-116.383932850904330 -49.230283944009059 3.401814494221213 7 13 13
-116.405067476086643 -48.523891953313949 3.848089518525825 8 14 14
-116.426382262238931 -47.815128132490294 4.294426316781880 10 16 16
-116.456200933777467 -47.051671980608212 4.965986138860131 9 15 15
-116.457079323021318 -46.469761253696667 4.849557572904075 7 13 11
-116.449795743227014 -45.941625639831145 4.508060113349018 6 12 8
-116.446839592038515 -45.387963916442558 4.279229012657765 5 12 5
-116.431541739250292 -44.916976182865127 3.712768034372459 2 8 4
-116.424742517049580 -44.393472588725260 3.371549969535920 1 7 3
-116.409759773060074 -43.927028838718570 2.805286511725484 1 8 5
-116.457600212313395 -43.041883469120634 3.927650817137618 5 15 14
-116.509865706724739 -42.122655913439310 5.162640113627191 36 49 49
-116.549836596292252 -41.283046960631346 6.059990612816762 20 34 34
-116.564931998815098 -40.612257015583488 6.282025193601612 15 28 28
-116.559290704948069 -40.086056159422455 5.941333313437838 19 31 31
-116.528675455803182 -39.738036857761067 4.925374781401075 19 29 30
-116.460440829939799 -39.662372395864232 2.896492789391374 16 23 24
-116.509878197242671 -38.756033046129261 4.019402899424051 18 27 27
-116.559594140744764 -37.843917826538998 5.142386825425660 16 27 27
-116.584355238617462 -37.109410215636345 5.590107333631948 13 23 23
-116.605152778873389 -36.403266891654717 5.925364772394062 9 21 20
-116.605123752752007 -35.850783559118909 5.697946128070583 9 21 20
-116.622175517612533 -35.173547639995327 5.920850274242582 10 22 20
-116.588808181516200 -34.874981318808580 4.793225312692215 14 24 23
-116.606302442749495 -34.198277169555716 5.016346621386589 12 22 21
-116.615586974555299 -33.584619926566305 5.014471627300736 8 18 17
-116.654750445948963 -32.743138917360696 5.800557705466161 8 18 19
-116.673022317894791 -32.061367083238849 6.023998856233902 9 19 20
-116.700044567795800 -31.312052609193639 6.472648677339322 9 19 20
-116.676376790761012 -30.960217045688701 5.570833394366275 11 21 22
-116.661392180792006 -30.545267560073079 4.894240215288988 12 22 23
-116.659378510693841 -30.031642275495955 4.555413224577535 11 21 22
-116.700220558741421 -29.177650629539269 5.342173549791596 13 23 22
-116.728593678032610 -28.422755129415002 5.791412173877802 14 24 23
-116.782913670476688 -27.456919198158868 6.916045686839709 12 22 21
-116.803386272068252 -26.765179003073957 7.140437049779393 9 20 16
-116.858427757524026 -25.789683517964168 8.265316291884687 8 18 16
-116.836654750381186 -25.448339179453551 7.364515451782410 5 13 14
-116.806487051732688 -25.182747471012327 6.238760610073626 5 13 13
-116.780793279736898 -24.886219515605685 5.225686522129621 4 13 12
-116.802660225776691 -24.193918034763271 5.450739157077635 2 11 10
-116.824847503043017 -23.500084034330804 5.675929262392486 7 16 14
-116.804168001420479 -23.174298524311453 4.775811706420654 3 14 8
-116.865877833857169 -22.145019157062105 6.014186323267324 4 13 8
-116.945367979391122 -20.959059379672524 7.702889730464733 4 11 6
-116.938596506745625 -20.520230873947650 7.140838774301500 6 12 8
-116.871239475077232 -20.616870346612718 5.003291346382525 9 14 10
-116.873583835204244 -20.109933203157969 4.666618066789169 6 12 10
-116.954685972056012 -18.908648293104001 6.355934895818365 5 11 11
-117.014501918569422 -17.893058412123626 7.482685511969777 5 11 11
-117.092300936186859 -16.714522268870173 9.059797419643644 4 10 10
-117.118073309572722 -16.001428015979744 9.286504367199285 3 8 11
-117.082773692739025 -15.843442717711445 7.937684310417268 3 9 9
-117.056436583793868 -15.611594996190995 6.814109353501266 6 12 10
-117.061136818384625 -15.102523077666575 6.478541141863928 7 13 11
-117.092632996098018 -14.350903667337038 6.818448663911823 10 16 16
-117.089170825109449 -13.924217508978227 6.258105853599147 13 19 19
-117.068274596795533 -13.664520118267351 5.247706009612443 13 19 19
-117.060917432065906 -13.284948557346548 4.575125936944232 13 17 18
-117.049387349957399 -12.949941478570482 3.790149394587104 10 14 13
-117.051488095995566 -12.492212558973089 3.343007210896417 10 14 13
-117.134300048152454 -11.274440154040878 4.922113410718993 7 11 10
-117.155109182470710 -10.644506456387528 4.925584205247617 4 10 7
-117.135953093847149 -10.399917036071445 3.916172352052939 2 11 6
-117.094554276454886 -10.375671079055502 2.344093335013412 2 11 6
-117.120865671987303 -9.706904954695693 2.460655555691432 2 11 6
-117.093430587308475 -9.561815831530639 1.226589495864175 4 10 6
-117.097868919603243 -9.114140717832990 0.780669094300833 5 10 6
-117.120793031198346 -8.490809557392481 0.785219649941553 1 8 1
-117.116867132832922 -8.134390557354770 0.114519404280628 1 7 3
-117.131477972732810 -7.601149346434404 -0.105697509495400 1 7 3
-117.178468231925379 -6.752102958453764 0.462337233039790 1 8 2
-117.253500776723911 -5.626662987374333 1.706095560411796 1 8 1
-117.338425855455810 -4.402633159544065 3.175289377026814 2 9 1
-117.341257014810466 -3.999057012493344 2.618195157334497 12 19 11
-117.422904852859773 -2.809992956039746 3.975322188570061 15 22 14
-117.477557763378798 -1.892897184318848 4.657181135662995 0 7 0
-117.144430978272212 -1.166294733833633 -12.360215368417585 70 74 59
-117.012550680606324 -2.283044635911806 -16.181013270320221 74 78 64
-117.088222701793768 -1.225791715918840 -15.157964905905573 80 84 70
-116.855027525727721 -2.726290617109603 -23.568495658869097 89 92 83
-116.527279952745985 -178.198396685136572 -9.835447980651793 29 15 4
-116.386086331832104 -176.669546093094311 -12.911921644951065 49 27 13
-116.388714919514911 -176.271521665793841 -12.360466778391782 73 46 33
-116.431674821177353 -176.182252701304634 -10.788809410100413 102 69 59
-116.416814853911660 -175.639758145114854 -10.690643651576892 147 115 107
-116.393343308629980 -175.029080527836754 -10.819017254799121 58 36 28
-116.330290623732438 -174.115764497401756 -11.967171513044207 29 14 6
-116.289809657866044 -173.375685394589539 -12.548449898948974 55 39 31
-116.267346276108256 -172.771467882281797 -12.676274703091309 92 71 61
-116.262790216021230 -172.299753024027382 -12.350733249863879 70 41 30
-116.284827313749972 -172.022417547374459 -11.345315566945573 100 68 54
-116.263094888661328 -171.417048294254073 -11.472802539369695 164 131 116
-116.241638832926725 -170.812582679196652 -11.600147996041699 152 117 103
-116.198597430966743 -170.050113184674615 -12.293740646267509 142 106 92
-116.190812399749035 -169.543328711641465 -12.080963795843871 157 118 106
-116.174532188451153 -168.973309017901329 -12.094619692185830 165 123 111
-116.154148513470020 -168.372661578340541 -12.221412823182646 167 124 112
-116.151380822969813 -167.895553374375879 -11.895071336491668 160 121 109
-116.144472194821645 -167.386693958675977 -11.681896576270844 151 114 100
-116.150742260413352 -166.967362663511182 -11.128918961456435 138 102 88
-116.126946424227469 -166.336701368004668 -11.368512291295104 129 96 81
-116.094786743594895 -165.648319240128501 -11.834418775013177 116 84 69
-116.080120994893548 -165.079560471331490 -11.847289338649034 109 77 62
-116.087156239421091 -164.656099215184923 -11.293988176617688 95 66 50
-116.094339269517150 -164.230139028547541 -10.740642037223751 82 54 40
-116.088821299685236 -163.716322620693433 -10.526853015641677 64 42 28
-116.074936804465139 -163.145309517233670 -10.539373035289145 64 45 30
-116.069799014314071 -162.630346202699855 -10.325413942737441 45 27 13
-116.069103141688004 -162.142147563450266 -9.998195464898828 50 30 19
-116.094107739011690 -161.816609431930317 -8.991854314487540 51 33 19
-116.102199258536999 -161.378061168758393 -8.438203132260213 58 39 25
-116.118913075012884 -160.990574713114768 -7.658183698049413 77 54 42
-116.110311781100634 -160.440347615464731 -7.557103406580268 81 58 44
-116.101891105515719 -159.889793642607572 -7.455940072613174 81 54 42
-116.085197627235104 -159.286974754980946 -7.580990177963145 103 73 62
-116.077141874410998 -158.736304059441551 -7.479653467683335 111 81 71
-116.065044859696968 -158.159876696781225 -7.491374094473542 112 82 72
-116.048921063583663 -157.558514143896900 -7.616136675042299 118 88 79
-116.032986900398015 -156.957902616460331 -7.740800805186268 116 86 78
-116.021436220098408 -156.382627373044130 -7.752248208123149 117 87 77
-116.018441147076729 -155.856173650502853 -7.537382323583302 116 86 76
-116.007222443776783 -155.280726799391175 -7.548672676305642 117 88 78
-116.008713635708418 -154.776758621272791 -7.220570238064738 121 93 82
-116.010338433400136 -154.271320363005117 -6.892419015559682 121 93 82
-116.016265400112417 -153.787624446846905 -6.451126960371539 121 94 87
-116.001484868965051 -153.187196195989685 -6.575237310344846 123 96 89
-116.003513948265891 -152.678150903671707 -6.246929809917219 118 95 87
-115.984891009820259 -152.055660487180830 -6.483964336245720 116 96 87
-115.974741777841345 -151.478662663735889 -6.494759022491309 116 98 88
-115.952304902587159 -150.836289298773124 -6.844681673213415 115 100 91
-115.938326611977160 -150.238851626545340 -6.968377450535286 55 50 40
-115.936912876473770 -149.705995660419546 -6.752820961056500 40 40 32
-115.931491647737033 -149.151166195766763 -6.650266711783331 43 45 39
-115.930329750553199 -148.616676433796670 -6.434606561197000 51 52 47
-115.916918858412444 -148.019808483270822 -6.558025032604405 52 53 50
-115.883058441777223 -147.322625710470106 -7.246553501896727 54 56 53
-115.861727221306651 -146.688635783394602 -7.595860916222563 61 63 60
-115.824111148151218 -145.977808475312145 -8.397185413697400 58 60 59
-115.840063237379738 -145.522850586911062 -7.729083789463346 59 61 60
-115.835581921049013 -144.969207082449856 -7.626067681632890 60 62 61
-115.827119113082858 -144.396302846867854 -7.636013451055021 62 64 63
-115.765555672842154 -143.582268982222985 -9.115009953314825 64 66 65
-115.753296966109687 -142.994861883555075 -9.237779837871329 65 67 66
-115.737077529142795 -142.390099085086490 -9.473482058053094 64 66 65
-115.749566585850829 -141.910693121929881 -8.918147677942102 63 65 64
-115.700950799315024 -141.166702043754555 -10.057652426701338 63 65 64
-115.697346509214100 -140.617369523518448 -9.954172377402415 65 65 65
-115.665344939396078 -139.949167534275006 -10.641513266985129 76 76 76
-115.674172202317550 -139.450776403481512 -10.198984985258392 42 44 41
-115.638370277994071 -138.770213299415445 -10.999130075495032 77 79 76
-115.639268038693714 -138.238440932185739 -10.782456620128045 43 47 42
-115.619967605077164 -137.626539657057151 -11.130565143392971 39 44 38
-115.600787947061647 -137.016360300309742 -11.478598163453455 45 47 42
-115.569575336182183 -136.362064600029072 -12.165418473366060 50 52 47
-115.562782440048736 -135.801156690635253 -12.174441878479541 56 58 53
-115.547996391692109 -135.210859934998410 -12.409309464217358 59 61 56
-115.557560866401488 -134.708487771246752 -11.966469481670401 67 69 64
-115.534890820097473 -134.090509382250957 -12.427111455801338 55 60 54
-115.520404792673858 -133.502611931103388 -12.661810815306779 52 57 51
-115.485862627696903 -132.847666706789511 -13.461089543284515 52 57 51
-115.487704828343851 -132.316923563359722 -13.243953676766381 43 48 42
-115.493645410543863 -131.798249332206581 -12.913874042263927 44 49 43
-115.511719056193712 -131.316470768314986 -12.245033551396347 48 53 47
-115.501703869499735 -130.743626419962027 -12.366580241951965 51 56 52
-115.499808833186052 -130.195941847645230 -12.262265528344216 65 67 64
-115.514042909690787 -129.695790405395257 -11.706309880381923 65 67 64
-115.524316562070510 -129.181235524267947 -11.263256032498333 64 66 63
-115.522620978282859 -128.630172942886190 -11.158880673030126 65 65 63
-115.529007101247899 -128.100992761526072 -10.828696036376073 53 55 52
-115.547460394609146 -127.602973745901124 -10.159841094472910 45 47 44
-115.549955314767786 -127.059162631750951 -9.942527484365115 39 41 38
-115.528527741440442 -126.452086857663630 -10.402462837590605 38 40 37
-115.507192626866882 -125.847236271822482 -10.862331053884759 36 38 35
-115.497925452766353 -125.274085734181540 -10.983523049539741 33 35 32
-115.500702029717914 -124.730182099791477 -10.766075648145005 28 33 29
-115.483600003083410 -124.138826211616092 -11.112920977056206 26 31 27
-115.482519345614236 -123.585178038232684 -11.008278053742373 26 31 27
-115.465569861556645 -122.996079057146758 -11.355027175329212 26 31 27
-115.460639908268121 -122.434042463695405 -11.363170973083328 25 30 26
-115.447818337746909 -121.855658464513340 -11.596976135371733 27 29 28
-115.439044358641880 -121.286317219777672 -11.717892977265905 26 28 27
-115.434309959872195 -120.725200605873724 -11.725933752596859 26 28 27
-115.437578177575517 -120.178865405149665 -11.508276181285424 27 29 28
-115.444866095628726 -119.638574504251991 -11.177774497170049 26 28 27
-115.440300834472424 -119.076188781791757 -11.185747421218423 33 35 34
-115.419937239869711 -118.487598812827017 -11.644983486990469 33 35 34
-115.403610629221205 -117.907499496472795 -11.991341990003292 34 36 33
-115.399233375840495 -117.347100648068846 -11.999204519883477 37 39 36
-115.410743427248363 -116.809693279321749 -11.555794415077997 40 42 39
-115.406469118612051 -116.248254610536534 -11.563618399938889 43 45 40
-115.402249473994601 -115.686838780801381 -11.571415998626691 41 43 41
-115.394132127019930 -115.120519522476116 -11.691987603136255 42 44 43
-115.401870922851188 -114.573377752284259 -11.361340740076542 42 44 43
-115.401755148980683 -114.015861104542481 -11.256276039906396 39 41 40
-115.393796097372672 -113.449601257857822 -11.376771304901240 41 43 42
-115.389836405520455 -112.887740282593356 -11.384449125183778 43 45 44
-115.385927801269631 -112.325896215675684 -11.392102331286793 39 44 40
-115.374189547357958 -111.757482766710837 -11.625286606740303 40 42 41
-115.362508761217924 -111.190172625517903 -11.858432032907729 40 42 41
-115.346948391783911 -110.621216286893130 -12.204309268482490 39 41 40
-115.343251864787575 -110.061334985991749 -12.211840813817304 40 40 42
-115.323872449477605 -109.492648167630691 -12.670401178461532 37 39 37
-115.328142069496337 -108.937743627749796 -12.452352748227725 38 40 37
-115.328523193771744 -108.380101130231509 -12.347051629122802 39 41 38
-115.317165341152830 -107.817759232735270 -12.579991424372366 40 42 39
-115.290157378636138 -107.252049005160472 -13.263888390148509 39 41 38
-115.274989343505936 -106.692144003144520 -13.609484764382415 39 41 38
-115.279491339704805 -106.136739754249007 -13.391330309936507 39 41 38
-115.291875413585871 -105.580854363194931 -12.947692279341936 38 40 37
-115.284695257599438 -105.022657120685494 -13.067731930906177 33 35 32
-115.277564300018469 -104.465008659696039 -13.187742397238026 34 36 33
-115.274398757226280 -103.907392413853472 -13.194996606200050 32 34 31
-115.286938582467073 -103.346628273500130 -12.751334284106235 29 31 28
-115.276031704883806 -102.790049040996834 -12.983999016438929 30 32 29
-115.273000300602277 -102.231895840731454 -12.991194581138842 30 32 29
-115.254372673336363 -101.680158497709130 -13.449220823495352 31 33 30
-115.263165386720559 -101.117466692724463 -13.118229834210638 32 34 31
-115.260272338580180 -100.559585374433055 -13.125356411189131 32 34 31
-115.273049918529509 -99.992023261975092 -12.681650322999587 31 33 30
-115.254623378230107 -99.443817022865872 -13.139544018614146 35 37 34
-115.244060590055454 -98.891855991067743 -13.371996602293393 36 38 35
-115.225744667463815 -98.347450575263551 -13.829798254992056 34 36 33
-115.226989761818501 -97.787677267824080 -13.724105749059532 32 34 31
-115.220479232678045 -97.234913946971872 -13.843769119350611 33 36 32
-115.214017627030259 -96.682688172259930 -13.963403551577926 31 36 30
-115.219296545794492 -96.118027480055758 -13.744972701260821 28 33 27
-115.220721557612009 -95.556866444257025 -13.639208408015975 25 30 24
-115.222191392783230 -94.995152347677006 -13.533428364364795 22 27 21
-115.219812840283296 -94.438024295738728 -13.540301054643464 27 32 26
-115.205804814200022 -93.897121557874982 -13.885146884674668 33 38 34
-115.199634406308149 -93.346471374526246 -14.004625790540331 36 41 36
-115.201295249182380 -92.784440601369226 -13.898757629169864 35 40 34
-115.222448832798079 -92.190711496364472 -13.229596069695361 6 11 7
-115.247527475572525 -91.587203089815674 -12.447798553716353 38 42 41
-115.237657818466758 -91.040821201633449 -12.679862116940086 26 30 30
-115.247273489171363 -90.460289443896002 -12.348661063289825 16 21 24
-115.237508742633850 -89.914690367616146 -12.580666379781206 14 19 23
-115.243336448562957 -89.339807188157465 -12.362078216762114 16 21 24
-115.218146444891573 -88.826701908395222 -13.044563988103846 15 21 21
-115.200784957654975 -88.300576245495336 -13.501720879520605 14 19 22
-115.195128490434826 -87.751391660354898 -13.620938831791932 13 18 21
-115.185647026607867 -87.211406269451047 -13.852750842321853 15 20 23
-115.180103378008567 -86.663537056409467 -13.971901282765941 17 22 25
-115.170737530630333 -86.125409286932054 -14.203638861352601 19 24 28
-115.196335821724702 -85.502902872203123 -13.421788303440536 20 25 29
-115.190959733773511 -84.954685325259803 -13.540862169020699 19 24 27
-115.181765860349188 -84.417022434440440 -13.772512690627707 18 23 26
-115.141623319401347 -83.962900809395663 -14.904980095842518 18 23 27
-115.136433255234763 -83.418952283841861 -15.023921025100009 15 23 26
-115.123554329919372 -82.897226427836983 -15.368029299915491 14 24 26
-115.137860328461429 -82.299213595241014 -14.923905466069670 15 24 29
-115.121232768562862 -81.790182367244796 -15.380535287557649 12 22 24
-115.120165215981444 -81.236608764940911 -15.386744212233367 11 21 23
-115.103669846684198 -80.730774124302584 -15.843277890111267 14 24 26
-115.106604334420041 -80.166000129610666 -15.736828658761965 12 22 24
-115.097987508318241 -79.638108014339792 -15.968102547406744 9 19 21
-115.089438645733708 -79.111265170920888 -16.199333121855489 8 18 20
-115.096443241980452 -78.533337440906564 -15.980213277630867 8 18 20
-115.103514914049214 -77.954277043189720 -15.761073003680536 9 19 21
-115.133878168513320 -77.292614018841192 -14.866487077358215 10 20 22
-115.129475613506528 -76.751200155219678 -14.985025174384504 10 20 22
-115.132885847723884 -76.182037370239897 -14.878393523572356 12 22 24
-115.132499264504034 -75.626675585731434 -14.884295081497385 12 24 24
-115.143796465194299 -75.027258582611765 -14.552483984983667 12 24 24
-115.159038492046534 -74.411212841127792 -14.108097980192895 12 24 24
-115.178226733822328 -73.777718658020802 -13.551144840363634 14 24 25
-115.212971248886788 -73.079498819519785 -12.543980346719962 17 27 29
-115.232318218963769 -72.439346670161541 -11.987019805606792 21 31 33
-115.240139120747827 -71.844500500167214 -11.767683593612986 18 28 29
-115.255783181324034 -71.215893400296977 -11.323234557638841 17 27 28
-115.317949901241363 -70.386121924539310 -9.528293307833849 17 27 28
-115.387948400471714 -69.513856872903119 -7.508324999533073 24 34 35
-115.442562982189955 -68.700190148486215 -5.938548662301059 28 38 40
-115.470183542502753 -68.000576375585041 -5.156524362499709 29 39 42
-115.521125421989964 -67.191061421501956 -3.699321182088795 14 22 25
-115.533461904876702 -66.553780347758234 -3.367402650434826 1 6 8
-115.553641021401702 -65.878354610294537 -2.810407102075601 0 3 4
-115.519719059357143 -65.458928502849204 -3.828682580352762 6 10 11
-115.543973694716740 -64.762938230352944 -3.159090113922076 3 7 6
-115.541227914614723 -64.196812633764225 -3.277089985794419 3 9 7
-115.585066006225503 -63.399474839011027 -2.044877657376503 4 10 8
-115.570914704206018 -62.889718598740885 -2.500330308498548 4 10 6
-115.587864141963649 -62.223236125349807 -2.055646654801876 1 8 1
-115.612680729846346 -61.514219420476856 -1.385919439822743 0 5 0
-115.633743186711712 -60.822221197988299 -0.828671893386172 0 7 0
-115.627789956599827 -60.272089055664217 -1.058900454610324 2 8 3
-115.618072460496663 -59.743888755736116 -1.401562957230880 3 9 5
-115.623983628931384 -59.132344574492990 -1.294171121063982 4 10 6
-115.626137871030537 -58.541633060421361 -1.299221029390196 3 9 7
-115.643938592752519 -57.863743185402235 -0.854247546478490 1 7 5
-115.673519238728971 -57.117428101498007 -0.071766268469133 2 8 6
-115.722659471622762 -56.255595367940970 1.273177592280234 4 10 8
-115.725346630916732 -55.658107512379750 1.268312877426183 8 14 12
-115.712623990740155 -55.151931447648231 0.813580545778080 10 16 14
-115.731121885340940 -54.462739287743332 1.258771213709224 9 15 13
-115.757545138724396 -53.724403616186628 1.928965257104068 7 13 11
-115.780235905382753 -53.006322552306116 2.486723297574883 4 10 8
-115.775844202936142 -52.453049610403099 2.257209436005525 8 14 12
-115.783270374996704 -51.828034601225170 2.365187382714936 8 14 12
-115.771373417091212 -51.324841015523440 1.910880754790014 6 12 10
-115.782991365369185 -50.675014733968865 2.131467522903392 6 12 11
-115.810361891159872 -49.923721030724820 2.801981354641185 6 12 12
-115.826209048029725 -49.244953161717341 3.135152336270266 5 11 11
-115.826616841848221 -48.666777317193812 3.018537084096408 7 13 13
-115.823276722821049 -48.114854584425615 2.789540194811309 9 15 15
-115.870873113842052 -47.223894694700320 4.022586781529469 8 14 14
-115.879597920621023 -46.590965521833205 4.131104526174198 6 12 10
-115.884585352813687 -45.984001415696959 4.127242710182657 5 11 7
-115.874092086036924 -45.484747315272493 3.673648154383272 4 11 4
-115.871584896202449 -44.932998150575507 3.445051522192188 0 6 2
-115.873162571798076 -44.354625184585942 3.328993908380284 0 5 1
-115.847470588085258 -43.971199948001420 2.425885083496581 0 5 3
-115.872920310966464 -43.226990516173622 2.984694046750462 1 10 9
-115.894655945253561 -42.508166351528608 3.431128621138811 21 33 33
-115.924459592780252 -41.729669021717655 4.102526429380902 21 35 35
-115.915172126192502 -41.236658386429816 3.649572991381888 21 34 34
-115.933598261324761 -40.541383280117969 3.983807830085595 18 30 30
-115.916799898164982 -40.109296648092808 3.306170556441913 11 20 22
-115.915927911846893 -39.561365538376137 3.078395501166085 10 15 18
-115.954688685312959 -38.714246783596316 3.975089782796346 13 18 21
-115.993709459820678 -37.862461659459768 4.871860414749790 13 21 23
-116.025093475582906 -37.067115703484212 5.543840834365483 10 17 20
-116.048824903080089 -36.329858105381511 5.991040444793839 8 18 19
-116.056970170687805 -35.714558668870751 5.988603526697801 7 17 18
-116.017792010251696 -35.475618094008340 4.637094674620499 8 18 19
