ply
format ascii 1.0
element vertex 683
property double x
property double y
property double z
property uchar red
property uchar green
property uchar blue
end_header
135.563699037020740 -1.966170712317342 28.052992527799120 151 149 137
134.875846156985546 -1.309206470294546 27.266707675667249 152 148 137
133.289763940539274 -1.045706237881227 25.473017277945956 150 146 135
129.423408076458486 -1.788727912273910 21.122219410373532 147 143 132
126.524451910838607 -2.136523451266637 17.856576970756436 147 143 132
125.214857309040113 -1.801698737818509 16.373317206876152 145 141 130
124.181728163739962 -1.353357681136154 15.200064375186741 141 139 124
122.526719623144956 -1.193960815183114 13.329560798006099 141 138 125
119.973381809847751 -1.456749747084485 10.451995132210328 146 143 130
118.525765839157771 -1.231498292622379 8.814174440868754 149 145 133
116.801769289205993 -1.145642529837573 6.866572601491669 150 146 134
115.285141707331647 -0.976372860731475 5.151484192107802 149 145 133
113.284792510910464 -1.046901816854446 2.894262718334829 147 143 131
111.353587579907753 -1.100226547476694 0.714644658177093 149 146 131
109.076854575394137 -1.334182012445584 -1.852109057696794 147 144 129
107.353055146465493 -1.318893568975351 -3.799078814228011 147 144 129
105.560182941263605 -1.350708020288210 -5.823378422513741 147 144 127
104.182050281338519 -1.192972675765711 -7.382885829399044 147 144 129
102.251029670680111 -1.319525456701057 -9.561838294669201 147 144 129
100.389162257446529 -1.426682042010798 -11.663214182415032 146 144 129
98.596451899472370 -1.513624407982715 -13.687023758540249 146 144 129
97.287637401290823 -1.369473077366466 -15.168694024401304 148 146 131
95.909758774103480 -1.270773050906855 -16.727715279492003 149 147 132
94.739313993894129 -1.076120296241261 -18.054383210825762 150 147 132
93.430681656882015 -0.962192908069496 -19.535829511743088 150 147 132
91.845594270145270 -1.002814418595577 -21.326865354709639 147 144 129
89.914900643987451 -1.237615768446263 -23.504859991344802 147 144 129
88.053368385427774 -1.450823554842513 -25.605304577649406 147 144 129
86.122733283401274 -1.715447904344501 -27.783020228911198 145 142 125
84.745213543042311 -1.697624769361887 -29.341380667757420 145 142 125
83.229473524994802 -1.765405319231587 -31.054453607646053 145 142 125
81.506361267439729 -1.958152281177971 -32.999610691670995 145 142 125
80.128993849090577 -1.974284906197063 -34.557694477148942 146 143 126
78.613392805610928 -2.077647617746388 -36.270467636929340 145 142 125
77.443567950030854 -2.000029869539025 -37.596227437965979 147 144 127
76.412105980274120 -1.853803571292026 -38.767168021742862 148 142 126
74.896665627634889 -1.989180641991733 -40.479688515589203 147 140 124
73.035505057299105 -2.333153730150094 -42.578964883324176 146 139 123
71.727604497255172 -2.374487256034979 -44.059163085249992 147 139 124
70.488916878742060 -2.386022540190152 -45.461920364513048 141 137 118
69.457768644959401 -2.286563044026793 -46.632529644316975 138 135 116
68.080882705298691 -2.397329756903760 -48.189869651342747 140 137 118
66.980705111896626 -2.355815434710615 -49.437717948253294 140 137 118
66.088098673096809 -2.199742733737116 -50.453470126211727 142 139 120
64.849725508921452 -2.256895315516573 -51.855908277591510 141 138 119
63.542236596125207 -2.365156096775128 -53.335614494288649 142 139 122
63.479961633502342 -1.730592768474852 -53.423213129666465 145 142 125
63.071946491257535 -1.306775225061694 -53.897535960580257 144 141 124
62.110605226085838 -1.224940018200469 -54.990500354305539 144 141 124
59.834838010705738 -1.960833478398925 -57.552549400453557 144 141 124
58.873597711455403 -1.898902828250384 -58.645357208328051 143 140 121
57.289719209591468 -2.233121779176510 -60.433949231729315 142 139 120
56.328605883302160 -2.188345193139481 -61.526641207633844 141 138 119
55.575160852659693 -2.019653976045564 -62.387379845133836 141 138 119
55.237015318033471 -1.592492286708884 -62.784303594892890 141 138 119
54.206968549885218 -1.610715359832160 -63.954228446276545 139 137 118
53.661443176870563 -1.324781090251846 -64.583065322172445 138 137 117
53.116036686008300 -1.042863027430430 -65.211917730048810 140 139 119
52.086247861949730 -1.080848760958533 -66.381762554009384 141 140 120
51.125746006813486 -1.081298318659165 -67.474281520200378 142 141 121
49.819209131574567 -1.317459379452419 -68.953126646572798 144 143 123
48.928064261879271 -1.287957897042696 -69.968275173044418 147 144 125
47.898541320387736 -1.357677288087942 -71.137920543835236 146 143 124
46.592147711532192 -1.621293074924537 -72.616551603067194 143 140 121
45.493499661398729 -1.754623760984043 -73.863331860730057 145 142 123
45.018086832969317 -1.472797434435296 -74.414809167588118 146 143 124
45.373763655758268 -0.626304721014707 -74.039382690590486 146 143 124
44.552410486221419 -0.586070044001605 -74.977170924435455 143 140 121
43.661890696218592 -0.599912125805543 -75.992172329808966 140 137 118
41.801810086716088 -1.294919583086113 -78.088351973998925 139 136 117
41.119177194091350 -1.180765894274252 -78.871546628506565 140 137 118
40.090302410824606 -1.315325522026736 -80.040834642841020 140 137 118
39.615678501289580 -1.065657499326188 -80.592358344217502 140 137 118
36.993534212943999 -2.347295118005800 -83.537378591760898 141 138 119
36.588308342096724 -2.063469647427960 -84.011594791818737 142 139 120
35.559621786511713 -2.231079667423210 -85.180632649340566 143 140 121
36.263350357326573 -1.153379660970538 -84.419798443790370 144 141 122
35.165596602562928 -1.380085699045396 -85.666045369886746 144 141 122
33.721355045995566 -1.868621863939234 -87.298132994835839 141 138 119
197.933729552110265 -1.015244937050220 96.648285168624540 177 176 171
193.568600008303008 -1.326418332920789 91.755641494064037 183 180 174
187.331564985746894 -2.324022852751772 84.772386871721409 182 179 170
184.976901988933434 -2.002527098865321 82.126338173691238 180 176 168
181.928944646238733 -1.946489426760581 78.706102758502311 172 167 163
179.435623952289035 -1.714582259858642 75.905591837993597 172 165 159
174.446389268623705 -2.410893917652359 70.317752380410354 171 167 158
170.982411817008199 -2.585002360784217 66.433755259388306 174 170 159
167.379758014795101 -2.837804450604563 62.395192692546118 170 166 155
163.569091480831673 -3.196976167295952 58.124660964808697 169 167 155
161.422416886706685 -2.954169645505683 55.712497970414375 167 163 154
159.830434114856132 -2.515403806182318 53.919826281235345 166 162 153
157.961139984557320 -2.196577668074197 51.817618455309429 166 162 151
155.606519694026986 -2.082355534251850 49.173682898236450 164 160 149
153.529261559635984 -1.876919517729672 46.839554865749676 163 159 148
151.313351394021339 -1.743096586341104 44.350776869360573 166 162 150
148.612094683689378 -1.822268276922645 41.320367262535370 163 161 149
145.910848156516039 -1.922562613443170 38.290170210127798 161 159 147
143.556311151288270 -1.901504856293706 35.647153797382373 158 156 144
141.340474699243032 -1.841319661239162 33.159098526886851 154 152 140
138.569929368164651 -2.030739753975173 30.052112315992190 151 149 137
136.839529625736617 -1.802195461027293 28.106104977225897 152 150 138
135.733256629149622 -1.320952689747660 26.856646354478642 148 146 134
134.280316997050420 -0.997583404642602 25.220362508386359 147 145 133
130.955102885593732 -1.498814299919029 21.495066486646323 147 145 133
127.629882975409885 -2.026017581315640 17.770040585815167 147 145 133
127.425281418032412 -1.199331842940747 17.526835123191375 145 143 131
125.833800207313132 -0.992895228418508 15.736314970309422 142 140 125
123.063425544286275 -1.329360728161669 12.630760724647502 145 142 127
120.847863081326821 -1.435626489724098 10.144287742026734 149 146 131
119.256490637703209 -1.273428914431836 8.354170929993586 149 145 132
118.358692018995185 -0.803417719218673 7.337671146475543 152 146 134
116.073885873078964 -0.986190720778134 4.774252746968529 152 147 134
113.997168553987009 -1.089082074087366 2.443039758804446 149 146 131
112.267263597314866 -1.043976907257697 0.498683947305551 147 144 129
110.051897745828569 -1.244069689170734 -1.986917284914966 146 143 128
108.391428456689312 -1.194398248869350 -3.853678999782289 146 143 128
105.621238750616271 -1.696017093357995 -6.957621721873551 146 143 128
104.168923499744594 -1.574739906737460 -8.592124034312832 147 143 131
102.439209024393151 -1.601502100911366 -10.535831204572759 150 146 133
101.264453956954256 -1.365992733211345 -11.860857666912864 148 145 130
99.534835434745588 -1.417457993933165 -13.804356459753734 149 146 131
98.082729621294163 -1.342326480080070 -15.438483965745576 148 145 129
96.769416574335764 -1.207891535054955 -16.917902125653484 151 148 132
95.109309508175372 -1.261377470545288 -18.783775276061448 151 147 133
93.726737131464205 -1.184450098799555 -20.340326940596185 150 147 132
92.413596582284981 -1.082128083200840 -21.819497068335664 147 144 130
90.823012678411914 -1.135429078172426 -23.607772880041665 147 144 129
88.538696446805702 -1.567453788407524 -26.168859979824589 147 144 129
86.670667851088879 -1.795775750789925 -28.266041162894737 145 142 125
84.733287530122084 -2.075782544102156 -30.440371585314551 146 143 126
83.420384374949620 -2.033722893048618 -31.919034970741620 147 144 127
82.662625205386306 -1.699967748566435 -32.779408824895143 147 144 127
81.211081460082696 -1.752003444640167 -34.412496226387219 145 142 125
79.482029626743184 -1.968357934042338 -36.354568833576565 146 143 126
77.961186480814789 -2.082471698775705 -38.064723523522645 146 143 126
76.926146835201806 -1.936608247206134 -39.233948824469991 146 140 124
75.266615814566123 -2.150519745944853 -41.098446212169080 146 139 123
73.745916324543629 -2.298549184738635 -42.808320515537218 145 138 122
72.572264206711239 -2.260139799446601 -44.131845776055059 147 138 123
72.023308377783039 -1.871543037617387 -44.760098290206457 144 140 121
70.780403311360374 -1.888900566352926 -46.160778025557477 141 138 119
69.329333222297748 -2.037196804637037 -47.793101164453560 143 140 121
67.531252112054403 -2.400355905808912 -49.811498153487832 143 140 121
66.496738057270207 -2.326383378967434 -50.980234885882965 142 139 120
64.976383215507482 -2.549283138795668 -52.689503389971264 142 139 121
64.011416921390037 -2.451496854088735 -53.780897774731812 143 140 123
63.810172056646280 -1.900963880911365 -54.022866488466434 145 142 125
63.609070159131605 -1.351755171817283 -54.264889965917945 145 142 125
62.297266449447136 -1.481882820610081 -55.742306911921105 145 142 125
60.707788574732533 -1.792703060601231 -57.528461069229820 145 142 125
59.118334355614110 -2.115808356039190 -59.314500087047463 144 141 122
58.153837143536876 -2.062399651772886 -60.405662078319324 143 140 121
56.981096363048778 -2.146754232582282 -61.728359648324471 141 138 119
56.433407954845379 -1.846346114433296 -62.356310722194678 141 138 119
55.955284718575314 -1.505943994950319 -62.907094329294893 140 137 118
55.268935172198354 -1.301917290221654 -63.689436057488251 139 136 117
55.277233964152359 -0.657253294325483 -63.700042021474331 139 136 117
53.896553748951291 -0.909221902927770 -65.254113398040801 141 138 119
52.515906971928700 -1.171816734823925 -66.808091390262689 144 141 122
50.162776635759769 -2.080685187944980 -69.442208551027051 144 141 122
49.685236793603096 -1.774566481414145 -69.992918355479389 146 144 124
49.207825755465166 -1.471892313025360 -70.543654322971236 146 143 124
48.383158668931728 -1.403818932081452 -71.480143748048704 146 143 124
47.280656297436721 -1.527982277071681 -72.725174475630638 146 143 124
46.525637479205287 -1.426626044516099 -73.584467105720563 146 143 124
45.562247012450570 -1.472099353063056 -74.675140717929196 146 143 124
45.293869224365281 -1.051463452220633 -74.994515060349869 146 143 124
44.956152508926039 -0.680191382425022 -75.391068655807601 145 142 123
43.923556936564935 -0.790175150243736 -76.558829629065258 141 138 119
42.960530340409306 -0.859830460789253 -77.649428398226689 140 137 118
41.789035725861851 -1.082132182988200 -78.971302170521312 140 137 118
40.409028693518067 -1.459585537598310 -80.524403917930471 142 139 120
38.959507534584858 -1.896680249339522 -82.154495311923966 141 138 119
37.649036094863035 -2.246389511487394 -83.630289347456113 141 138 119
36.616706553631687 -2.407905288772412 -84.797647144233508 142 139 120
36.418879313645576 -1.979093538003241 -85.039997900247812 143 140 121
36.638486829995600 -1.250647223936782 -84.819978992407357 143 140 121
35.884662708862834 -1.225669274199709 -85.679056961459963 144 141 122
34.713609609775560 -1.510415257947110 -87.000499183083974 142 139 120
197.826319382998520 -1.432994334480437 94.819368886115257 176 175 170
194.419871474099523 -1.414157478898955 91.016722631085855 186 183 176
192.057000815881651 -1.059643097279523 88.374260572815672 187 184 175
187.119912184955950 -1.627286116622746 82.871009056330792 183 180 170
181.069595583309905 -2.628582624052741 76.131043639686538 174 169 165
177.941359187398064 -2.628505541005003 72.638930593917934 171 164 158
175.648020776055517 -2.350005620454454 70.074845887033803 172 168 159
170.432495510033561 -3.160770052889794 64.263864533534871 174 170 161
168.278302850795569 -2.877918660395463 61.854885953749914 170 166 155
165.776237336163945 -2.742139194713608 59.059548016199813 167 164 155
161.673882762291669 -3.231284546562316 54.486461191169838 167 163 154
160.911291555338011 -2.475966637847653 53.624059609833864 166 162 153
159.522530971230168 -1.968385088133807 52.066035422710371 166 162 151
156.185555794089424 -2.231421157060655 48.343913995473599 166 162 151
153.683548761260795 -2.191597703041540 45.549535803861573 164 160 149
152.016538340496851 -1.839150169148809 43.682786717509344 165 161 149
149.097072115115850 -2.002765838233125 40.425060364254364 162 160 148
145.899276628456676 -2.302007874879676 36.858446306214262 161 159 147
144.093167780134735 -2.056349588596165 34.837622896347312 158 156 144
142.008750713987183 -1.939802010262269 32.507834645622097 156 154 142
139.993946599738763 -1.810449733407784 30.255470877047571 153 151 139
137.979171752040315 -1.696779192117519 28.003254527437946 152 150 138
136.590719099060721 -1.332607889506631 26.446559220834786 150 148 136
134.576013371730028 -1.247847386199583 24.194607389822181 148 146 134
132.422158958257739 -1.238991589614721 21.788287368734586 149 147 135
130.198741230653070 -1.277274859396028 19.304872539855097 146 144 132
128.392901557651271 -1.148884953631446 17.285127459788896 145 143 131
126.169541978981343 -1.220114114105336 14.802023941261837 144 142 128
123.946208465276243 -1.308624430155600 12.319085836960596 147 144 129
122.070877582765718 -1.257041102364412 10.222516837098311 150 146 134
120.543566514008162 -1.061290168133585 8.512266786254486 151 147 135
118.737914208822332 -1.005449984491892 6.493178860802971 153 147 135
116.723505546033294 -1.060485050817098 4.242523901157426 152 147 134
114.917930310239143 -1.033475344180804 2.223695872556220 149 146 131
112.973192718636355 -1.086131025180617 0.050544903979585 147 144 129
111.167695896365316 -1.087665949810898 -1.968026813153131 146 143 128
109.153427203275683 -1.203319954936571 -4.218124752633685 146 143 128
106.651952042886876 -1.570118712163854 -7.008571823507964 146 143 128
104.568129943446721 -1.752832831988042 -9.335564253271315 146 142 130
103.110811063423668 -1.644001180988211 -10.967544738525362 148 145 131
101.792765971360666 -1.477512610829650 -12.445029048341212 150 147 132
99.917889782354152 -1.599063231794219 -14.540033417307654 150 147 132
98.460727119696429 -1.525104610600108 -16.171729670799294 146 143 126
97.490921203606362 -1.215462724517105 -17.262989533129058 148 145 128
95.964262450125176 -1.197654960330926 -18.971719990924981 152 146 132
94.159182777799415 -1.334921970912031 -20.989094112614993 149 146 131
92.493379552536609 -1.413967912680600 -22.851979138048307 148 144 132
91.245349017403811 -1.287696897404492 -24.251685307493346 146 142 130
89.161902368911115 -1.610678673003960 -26.577413506257699 143 141 128
87.356976521709598 -1.802157677420393 -28.594303186073603 142 140 125
85.412829703008683 -2.081956582556906 -30.765398679068454 145 143 128
84.095370346203609 -2.039708749772576 -32.241884330300962 145 143 128
83.404651929861657 -1.668054570764008 -33.023861479879912 145 143 128
82.365863731173988 -1.491625375967776 -34.191608114435240 145 143 128
80.630797394585343 -1.705868053011382 -36.130825141831650 143 141 126
78.895764273244268 -1.933510686947087 -38.069920126800753 145 142 125
77.787522299043516 -1.825189671975191 -39.314598126429161 144 141 124
76.540067756051357 -1.803534535125018 -40.713502984748771 143 140 123
75.501609384090159 -1.673359696475557 -41.880931287955462 146 140 124
73.906051756905526 -1.868213338189225 -43.665370614974847 145 139 123
73.146324658808112 -1.596439828423997 -44.524165010760129 142 139 122
72.108086150012682 -1.491138665416968 -45.691442458512824 142 139 121
70.930615050853532 -1.474671966325988 -47.012914864362187 143 140 122
68.778009063037103 -2.037449749212218 -49.413948016406806 144 141 123
67.252331932808218 -2.247856847300859 -51.120798949179175 142 139 120
65.796353914826597 -2.428730317030879 -52.750438817894718 144 141 124
64.619078542514274 -2.454589888057393 -54.071569173235474 144 141 124
64.974570580613374 -1.569266149968562 -53.696454003119641 145 142 125
64.215512828263229 -1.354490250912681 -54.554981906575904 146 143 126
62.829484337323777 -1.526793804659506 -56.107314718791429 146 143 126
61.304144446889964 -1.795035542009323 -57.813731664930202 146 143 126
60.336279465561333 -1.731618886062528 -58.903385543810174 142 139 120
58.741338754304877 -2.064334489894862 -60.686700918862982 141 138 119
58.331100433391754 -1.670276351755077 -61.159653860214007 140 137 118
57.711922705580093 -1.410399183397796 -61.863846368121727 140 137 118
57.162552137198759 -1.111075677210858 -62.490981537873012 139 136 117
55.846628975447771 -1.303072168575617 -63.965790905051080 141 137 118
55.367162730239485 -0.970242251358931 -64.515854076796785 141 136 117
53.911957462325304 -1.268788910168936 -66.144652357246713 144 139 120
51.829399510832488 -1.984659110394152 -68.466761507684765 145 140 121
50.583345247598871 -2.171841531291672 -69.864186585148190 146 141 122
49.755633002151058 -2.094472882076200 -70.799314897504814 148 143 124
49.555494551135070 -1.609708423282009 -71.041135927416519 146 143 124
48.379376358568152 -1.773425322921072 -72.361400838844048 146 143 124
47.551950235920089 -1.713562573643061 -73.296485834345049 146 143 124
46.236483199783819 -1.987402783402988 -74.770670951945533 145 142 123
45.339468534363974 -1.988935200226508 -75.782691940747583 145 142 123
44.233308345089540 -2.139238440507309 -77.025703709768010 144 141 122
44.103647705866919 -1.631285049822525 -77.190620893668523 147 144 125
44.043917689662422 -1.076062553109073 -77.278620327652618 141 138 119
43.356578911915605 -0.954478436294095 -78.059640187976385 141 138 119
42.181025108283194 -1.177131603601087 -79.379568440525532 140 137 118
40.447388213052875 -1.798601232451092 -81.315277516179833 143 140 121
39.760263031852944 -1.698326166239702 -82.096180215596888 143 140 121
38.794142181908526 -1.800266733128862 -83.184966375989745 140 137 118
37.828085668809322 -1.909493003711699 -84.273708319500599 141 138 119
36.652734660437005 -2.175551748811654 -85.593286793189691 144 141 122
37.291986184523694 -1.147215923521358 -84.911957744098913 144 141 122
36.186631712437659 -1.373509145700536 -86.154572762402722 143 140 121
35.709537548539046 -1.151993210377800 -86.704624918981210 140 137 118
198.408768636439731 -1.614473130044626 93.766583017704505 170 169 164
194.571518340579928 -1.740575387515945 89.506369769509092 183 180 174
193.387298827535801 -0.978879016582270 88.180454758347111 187 184 175
179.920475875456987 -2.293961570613577 73.240708713933742 171 163 159
173.848885957527045 -3.374104531762957 66.511731985038040 172 167 161
171.547540026414623 -3.124183374563840 63.951772223732291 174 170 161
169.525489525794910 -2.789064593864813 61.700757043567023 170 166 157
166.037196657216214 -3.016665589289181 57.828942960386939 168 165 156
163.526409284734370 -2.902927849601959 55.038004416294854 168 165 156
162.132805521974888 -2.383281033167550 53.482172995385838 166 162 153
159.063457769915942 -2.519122543652585 50.074145787534775 166 162 151
156.552708684665106 -2.461760330639013 47.283769228579274 165 161 150
153.692843731813582 -2.560917563911928 44.107725212701780 165 161 150
151.880381358794779 -2.267180871140146 42.089446412081230 164 160 148
150.067949392457280 -1.987518817052528 40.071297942335008 162 160 148
147.277954574352322 -2.116952588725580 36.972998830029383 160 158 146
144.697455180287875 -2.182582976867876 34.106397719435648 159 157 145
143.164418629670251 -1.836863975383427 32.397343022834633 157 155 143
141.212438455908085 -1.677210693918052 30.225471477932075 156 154 142
139.260489710660920 -1.532695207806954 28.053740718667854 152 150 138
137.168907604869105 -1.462457443492573 25.727856888528436 150 148 136
135.077354353073758 -1.408434043183517 23.402126157330201 148 146 134
133.055665149576214 -1.340506443830329 21.153688466915042 145 143 131
131.313350874968762 -1.166699393439075 19.213944437439011 143 141 129
129.152056052734849 -1.190324643602187 16.811518226130687 146 144 132
126.711437516593335 -1.354404891461808 14.100729756281993 149 147 134
124.410516348734475 -1.474993881552049 11.544380636766078 150 146 134
123.227062488576479 -1.109863904716315 10.222181397000185 151 147 135
120.786524009389410 -1.325231472140968 7.511882554323762 151 147 135
118.904745086850127 -1.303385439214361 5.418704375624031 152 146 134
116.953160012132926 -1.328376865884205 3.248544457430995 151 146 133
115.560371565479642 -1.108004063144385 1.695403569856808 149 146 131
113.608867354063676 -1.161002620639515 -0.474506741595178 147 144 129
111.238311285614500 -1.427685961200080 -3.106897825736752 146 143 128
109.845662696655793 -1.245506327224902 -4.659712479279932 146 143 128
107.335460837153008 -1.612351891650862 -7.445984245400695 146 143 128
105.733347297943880 -1.557724106508680 -9.229855284234674 146 142 130
103.921721366307281 -1.618011618373188 -11.244890086560531 147 143 129
102.878541254215904 -1.313236797139842 -12.411856770806025 150 147 132
100.857440529691360 -1.502686724486821 -14.657926671367051 149 146 131
99.045943892271225 -1.602736820951202 -16.672614031344636 145 142 125
98.002945362579084 -1.328742608096147 -17.839350743722491 146 142 126
96.680574952427875 -1.204919805444929 -19.314326656012526 151 145 131
94.799358652011421 -1.377802576476719 -21.405769549804859 149 146 131
92.708579857550049 -1.673465849482394 -23.728271278141136 146 142 130
91.595961365336080 -1.476190029375301 -24.971771223049785 145 141 129
89.784725771641348 -1.653779610178270 -26.985785312586046 142 140 127
88.113266269041219 -1.771511941719340 -28.845566175884954 142 139 124
86.232229336182755 -2.013649851034294 -30.936382000573019 144 141 126
84.840344817215637 -2.008119989035903 -32.487743837736986 147 144 129
83.937654971591812 -1.749196624331610 -33.499730841983364 147 144 129
82.615775834985129 -1.725119938384637 -34.973915040965778 146 144 129
81.433719055860252 -1.634631805062149 -36.293955613045597 144 141 126
79.832429603913454 -1.784438028966698 -38.076116550447239 142 139 122
78.650495862234578 -1.713653887511160 -39.396013160132838 142 139 122
77.818070769693449 -1.456452263932072 -40.330737973739730 143 140 123
76.286832002360271 -1.599168034184280 -42.035625019227780 145 142 125
74.126599525686501 -2.110357871895648 -44.433540705779620 144 141 124
73.084692204846817 -1.999677315244047 -45.599118379227207 143 140 123
72.532148000811873 -1.615643654870686 -46.225607256731848 144 141 124
71.979717171939697 -1.235700013627289 -46.852108271904228 144 141 124
69.679815507822227 -1.878080335748538 -49.403574058209415 145 142 125
68.078953578071776 -2.128194346807686 -51.184907002320841 144 141 124
66.548031511641028 -2.349323452103373 -52.889138408585893 143 140 124
65.366703785013655 -2.374439837670767 -54.208337781493981 143 140 126
64.744757581180750 -2.073953953320302 -54.911623865876493 143 140 125
64.053003992534059 -1.820178484063521 -55.691892407796416 146 143 127
62.801988095361992 -1.910550853282916 -57.087940371085892 146 143 126
61.760799894116985 -1.882518827332606 -58.253011326037040 143 140 123
60.859540080321736 -1.776531812775827 -59.264108201927797 141 138 119
59.958366768822543 -1.677334544302199 -60.275176569953146 143 140 121
59.057279918641498 -1.584923342889034 -61.286216448379463 140 137 118
58.645841446252575 -1.193054516963485 -61.758572705687754 141 138 119
57.325306208539970 -1.376420803249560 -63.231264506570938 140 137 118
56.004814513729102 -1.569867281826142 -64.703873377745992 140 137 118
55.593691503277185 -1.193917551977003 -65.176216687710678 143 140 121
53.993523050506397 -1.583341035323090 -66.956447406450764 142 139 120
52.113540533682325 -2.165557410067860 -69.044267061670041 144 141 122
51.282928509443238 -2.081223960331923 -69.978079821983130 143 139 120
51.291971732313485 -1.454946756187349 -69.988852654683598 145 142 123
50.671493806267478 -1.241843157224382 -70.691941688365944 145 142 123
48.651694233328243 -1.957936487505646 -72.933213050276066 145 142 123
47.611508413609087 -2.038506205114122 -74.097645648810015 144 141 122
46.011542768958080 -2.501231479656975 -75.877218858099070 144 141 122
44.901463843398304 -2.646802802053230 -77.118404625120803 144 141 122
43.721447689423087 -2.848130099436879 -78.436417622453831 146 143 124
44.221329633409496 -1.915552629698450 -77.909146724944407 145 142 123
44.441481741622638 -1.170190182770154 -77.689562474238045 144 141 122
43.891826955733308 -0.952598332531555 -78.315720370314580 143 140 121
41.382065453750528 -2.095681447022081 -81.094212598912407 141 138 119
40.412447927141883 -2.186183419600314 -82.181443704372185 142 139 120
40.353135924402636 -1.646816533133994 -82.269479904803802 141 138 119
40.504093990594356 -0.959604565035597 -82.127053774401332 139 136 117
38.414361091440455 -1.857006153549772 -84.443861860698775 138 135 116
37.164932497010781 -2.172430928003339 -85.838352606715716 142 139 120
36.545880091709819 -2.046202393921768 -86.541229355951089 143 140 121
36.487306823789211 -1.521166264762026 -86.629471450903651 142 139 120
36.639094404564830 -0.844042290348944 -86.487338316648021 138 135 116
200.389014589373346 -1.323759456169062 94.257413183615057 165 164 159
194.646765878929159 -2.090691166812134 87.921951133802509 181 178 172
194.299197982111195 -1.042934757411542 87.523146916605214 186 183 175
190.728809630608481 -1.121081600106658 83.578209739462324 186 181 172
186.107461325951419 -1.597228544704646 78.477261742699199 179 174 169
182.046585109912598 -1.909518694509923 73.993370238939065 170 164 160
176.514335456081568 -2.783110023735901 67.891119916055885 172 167 161
172.803719804720288 -3.036525180156953 63.793353353465932 174 170 161
170.003940000075772 -2.983650083713646 60.697858748417104 171 167 158
167.554494000640886 -2.822253231990701 57.987943007458313 169 166 157
165.245192576255363 -2.627206828643239 55.432353980273405 170 166 158
163.076041352369060 -2.396879595333694 53.031072184098832 168 164 155
159.715742123161505 -2.639921252567911 49.319903090898777 166 162 151
156.355435722415962 -2.908979364483114 45.609005228975462 165 161 150
154.116246053849039 -2.765662566792619 43.131266341868070 165 161 150
152.858070926345306 -2.252291770495713 41.732428698132310 164 160 148
150.618933192424322 -2.139836588265387 39.254982639779826 161 159 147
148.870326509653381 -1.847214943806955 37.317025858496606 159 157 145
145.790354465484199 -2.109309203169064 33.915380858542136 158 156 144
144.041800924281745 -1.848879422264887 31.977730021538093 157 155 143
142.012981648716959 -1.718068135824204 29.732056039778769 156 154 142
140.614880688806778 -1.339257625589924 28.179825761421398 152 150 138
138.235742893734653 -1.385202436933016 25.549267973309810 150 148 136
135.506233538778361 -1.598730554714719 22.533757333031019 148 146 134
133.687769093010047 -1.441903363880639 20.519759181721383 144 142 130
132.359907076303898 -1.086432565046088 19.045025965988884 146 144 132
130.191118476996621 -1.109041643266511 16.646174291977559 148 146 134
127.601861015282552 -1.333942746965419 13.785402464413266 149 147 135
125.573289878773139 -1.329263296016705 11.540908112126345 151 147 136
124.035347708739508 -1.119954661661182 9.835604387474405 151 147 135
122.076936979053130 -1.112927093770665 7.668380251626303 151 147 135
119.978386458242156 -1.185018802775854 5.347295156115393 152 146 134
118.090133069213138 -1.176442741549044 3.257350934476733 149 144 131
116.972910206384796 -0.824319542982519 2.014459782832432 149 146 131
114.594106545638724 -1.071626573584869 -0.614185131516962 149 146 131
112.215321769038439 -1.337276198127000 -3.242650270442937 147 144 129
110.327215600677491 -1.387683818807098 -5.332057773275892 146 143 128
108.439146743391788 -1.452625537313126 -7.421333518829158 145 142 127
106.901601510976292 -1.362536643650890 -9.125599948395148 145 141 129
105.574404766233926 -1.181705492178204 -10.598853774333037 146 143 129
104.036968178480890 -1.114417633590403 -12.302937476624891 149 146 131
101.938767430442553 -1.336755405751189 -14.622643344026102 150 147 132
99.770488724111388 -1.610243484404848 -17.019156525507185 145 142 125
98.583706840866256 -1.406618524827521 -18.338101198159904 144 141 124
96.976350840623667 -1.425329736456381 -20.118709346468961 149 143 127
95.298933683270732 -1.492191227452517 -21.976163727272393 149 146 129
92.920452754606245 -1.932810661585008 -24.602973173862011 145 142 127
91.733892073684402 -1.773620150755340 -25.921566282845077 145 142 128
90.126713032904306 -1.843285131026757 -27.701734595216863 145 143 130
88.729929093723001 -1.814557940931336 -29.250991348295599 146 143 128
87.263083630474796 -1.833694596491594 -30.877097106723966 144 141 126
86.497496826023124 -1.489556581872329 -31.733833123276014 147 144 129
84.610040933609781 -1.754757932520141 -33.821340736127638 147 144 129
82.722611076919364 -2.034453946554416 -35.908711603528161 146 143 128
81.536476934882032 -1.945958882177481 -37.226781063506849 145 142 126
80.560799428811933 -1.750874385260194 -38.314052780560985 142 139 122
79.655336019667786 -1.524368788719118 -39.324379229153237 142 139 122
78.399289516502961 -1.500143428875196 -40.719200179773424 144 141 124
76.932896885423418 -1.603570400568298 -42.344654928991332 145 142 125
74.765161687081942 -2.114544225657482 -44.738983562740998 144 141 124
73.298838815348560 -2.243117701353497 -46.364212838992756 144 141 124
72.744436920764315 -1.860544331285662 -46.989797972204599 145 142 125
71.769267628068377 -1.724786818628527 -48.076702134342554 145 142 125
69.531486453859145 -2.329505509618469 -50.547414935256967 145 142 125
68.275821821667606 -2.377417545445919 -51.941676025189480 143 140 123
67.441148030255562 -2.187227227709622 -52.874635287929806 143 140 124
65.834825863188271 -2.460351813353696 -54.653119213821270 143 140 125
65.140628186556597 -2.202050322573514 -55.432265101040059 143 140 124
63.815056302531971 -2.327796089327504 -56.903140504545348 144 141 124
63.050874196034087 -2.124649373317104 -57.759097229519057 144 141 124
61.725425783011190 -2.268384762552522 -59.229846524907003 141 138 121
60.821069153668518 -2.164674049770571 -60.239438463737145 140 137 118
59.846621680722834 -2.110951165652073 -61.325843518327247 142 139 120
59.714423622838723 -1.542891339317213 -61.490165515574688 140 137 118
59.301651678414800 -1.150551254725972 -61.961888695334352 141 138 119
57.976574192813487 -1.333438319255920 -63.432412433267416 141 138 119
55.739050056066787 -2.102293194732468 -65.901558663821021 141 138 119
54.835181249773058 -2.041476092806534 -66.910942450041233 144 141 122
53.931397476243873 -1.987429696219539 -67.920297221373175 143 140 121
52.887292466050553 -2.030404450203101 -69.083241876464825 142 139 120
52.404911741200351 -1.718023851532002 -69.631700276031211 145 142 123
52.063085685485518 -1.317728143374755 -70.026586732076652 146 143 124
51.791625107832317 -0.873807175078288 -70.344725963431642 145 142 123
48.992426555111393 -2.096047360088465 -73.427373235253469 145 142 123
47.808225018745503 -2.270263526200113 -74.743663028490744 144 141 122
46.834754359990740 -2.313086661506333 -75.829541590963117 145 142 123
45.510192501770973 -2.598538570683323 -77.299256251797914 145 142 123
44.536841766492046 -2.657356871954285 -78.385027538971457 145 142 125
44.617188710458336 -2.009169449168016 -78.319278475402342 145 142 125
44.346514190117418 -1.599431251142736 -78.637441893454820 145 142 125
44.427263552723915 -0.950535863752620 -78.571892633019047 144 141 124
42.611306146500752 -1.608875183079107 -80.578699225060177 141 138 121
41.778958074990442 -1.598910803224649 -81.510915948113251 140 137 120
41.298031162493444 -1.350050309111277 -82.059416002180228 140 137 118
41.238875677772043 -0.808807968639561 -82.147546385285295 140 137 118
39.563547299806302 -1.407746847070765 -84.000523091146164 139 136 117
37.607044364630354 -2.218971639455316 -86.160237226749700 139 136 117
37.126504009620746 -1.992538730598065 -86.708691350191913 140 137 118
37.138161850393161 -1.416573818077620 -86.720197117442183 139 136 117
201.599496825009851 -2.484031512887232 93.911983664263715 134 130 127
200.618014362386702 -1.623042340424702 92.820634527179777 161 160 156
197.738316888021245 -1.414186882787732 89.650907792254486 180 178 173
196.405341798248514 -0.696481380756649 88.174891989379859 187 182 176
191.064917754581586 -1.380644556835134 82.311499727737981 188 181 174
187.130586990395472 -1.612367063187468 77.987957760186106 182 178 169
180.594840154100240 -2.797823922172959 70.816962849372430 172 169 162
175.746425139534097 -3.428297311577616 65.493654693172175 167 164 155
170.971174782115952 -2.997717018172540 60.235281742115461 172 169 160
169.216362485619356 -2.575729637570120 58.298962078657610 172 170 158
167.180329639817842 -2.272541176113478 56.054964679316214 172 168 159
163.667758439774076 -2.543299362134761 52.195209505333025 170 166 157
160.084862919016814 -2.868015107098919 48.258793772667190 167 163 152
156.994152451572489 -3.030501149416490 44.861260680182397 167 163 152
155.239422121277585 -2.696309644254238 42.925805531425425 166 162 151
152.992513764508260 -2.569319697381949 40.451927298773995 165 161 149
150.956575584591974 -2.375840600806057 38.209013905203619 161 159 147
148.990981551704323 -2.169846058706397 36.043178169966666 159 157 145
146.884780256054057 -2.035959886495942 33.723632945108534 158 156 144
144.637966931828373 -1.975805224520416 31.250397218376605 157 155 143
142.602137753634565 -1.845890298203637 29.008085976692115 156 154 142
141.339872070961746 -1.409415615236087 27.611996770851789 153 151 139
138.600891603549712 -1.603522759103162 24.600817168466818 150 148 136
135.791598235269987 -1.848561618225327 21.512940397655029 148 146 134
134.037178371550453 -1.663612297672754 19.578872947531607 143 141 129
132.493775199856543 -1.401015470024584 17.875633225211942 147 145 133
131.091072904517489 -1.088975669472206 16.326291514409149 149 147 135
128.633507664549086 -1.251538186660840 13.623594666818633 150 147 138
126.738592510815252 -1.183458372173411 11.536224908555653 152 148 137
124.773384893940346 -1.161404270464911 9.372097704579488 152 148 137
122.386224401174118 -1.344869289586780 6.746793512128136 153 149 137
120.702410646874924 -1.226608149429951 4.890493681138054 152 146 134
118.526304858763638 -1.347224825482336 2.496151366608615 147 142 129
117.334920712175261 -1.028844233891071 1.178227163595466 147 144 129
115.510571724926365 -1.014979421376423 -0.831484259662233 148 145 130
113.475249278200991 -1.114393941130678 -3.071677316750652 146 143 128
110.806902851193726 -1.529726382823134 -6.003511933906992 146 143 128
108.701289591536138 -1.696467276121252 -8.320243967761058 146 143 128
107.650842617260921 -1.370724720176592 -9.483950041473150 147 143 131
106.459781194332194 -1.121348780183578 -10.801318334835031 146 143 129
105.057750863653652 -0.984419501497672 -12.349179010658560 147 144 129
102.811610813355472 -1.274907846658446 -14.819127484709270 150 147 132
100.917235016918781 -1.407647686500670 -16.904688132069282 146 143 126
98.671139839778220 -1.731250215847554 -19.374317212351798 143 140 123
97.339644741928410 -1.610048093833788 -20.844900929341293 146 140 124
95.726793960727719 -1.642257304827799 -22.622741451586251 147 144 127
93.762208912144089 -1.867227074191915 -24.784623749299897 144 141 126
92.360517176451182 -1.816382341685300 -26.331760296324944 146 143 128
90.607082310214082 -1.959382261512649 -28.262923219588885 143 141 126
88.994409288172136 -2.041988962693035 -30.040330014522141 141 138 123
87.874330760247588 -1.876687108926731 -31.279931979819821 142 139 124
87.387623061098736 -1.382852899318887 -31.828188162885226 145 142 127
86.267711402740360 -1.232096445531257 -33.067720234902424 147 144 129
84.233054622377082 -1.583751714320851 -35.305635303752041 147 144 129
82.268786567479637 -1.912724498753101 -37.466598694877860 144 141 126
81.360166954505956 -1.678641664697956 -38.475493222688840 143 140 123
80.029368920598301 -1.684280417968075 -39.945104775830231 143 140 123
78.980150695174601 -1.543695215690515 -41.107492761124718 143 140 123
77.297567265245092 -1.765271889356704 -42.960883053738513 141 138 121
75.544631438494719 -2.039328131294795 -44.890935687221827 144 141 124
73.650946038752423 -2.406589349455209 -46.974412571633508 145 142 125
73.165083973431621 -1.984748653283325 -47.522332237623374 145 142 125
71.834623986548465 -2.051885704475040 -48.991472478427966 145 142 125
70.293030975002864 -2.251308742352159 -50.690822372583170 144 141 124
69.173868270236980 -2.216473170371253 -51.929519509561715 144 141 124
68.477187059316719 -1.942445269043589 -52.707639162333720 143 140 123
67.006159133940457 -2.130621911908800 -54.330004031708569 143 140 123
65.535170786629621 -2.329992494446708 -55.952272610249821 143 140 123
64.205042504769182 -2.456360551537068 -57.420961843101480 142 139 122
63.719933877533833 -2.084353413566133 -57.968728989440081 142 139 122
62.460359662233927 -2.184965011713113 -59.360577285145553 139 136 119
61.341681392531697 -2.209273015961244 -60.598897379656762 140 137 118
60.293494218950926 -2.198822938899066 -61.760439070400651 142 139 120
59.667946452383148 -1.935425710436791 -62.461620407349130 139 136 117
59.183376593058924 -1.589113095264060 -63.009380811778726 141 138 119
57.994588220577825 -1.686503856551328 -64.324267080826473 142 139 120
55.960593699909737 -2.324459035440052 -66.559551943644863 142 139 120
54.419661478161515 -2.665990025252019 -68.257755168835985 145 142 123
54.146778418706845 -2.211949037038806 -68.575318060221889 144 141 122
53.239998367166564 -2.165847028149199 -69.583157646850225 143 140 121
52.262848621688903 -2.171912711438181 -70.667654509764105 144 141 122
51.990359374510206 -1.728495710651895 -70.985296441553345 146 143 124
52.211268359869734 -0.965160488274702 -70.766259281085951 145 142 123
50.882125867476248 -1.216852591697186 -72.234130088873258 145 142 123
49.200659011941255 -1.711171615632861 -74.085247072824757 146 143 124
48.223935935729429 -1.750459578263081 -75.169606079242271 145 142 123
47.740648953747311 -1.467590157644804 -75.717327155122291 145 142 123
45.918283670085160 -2.087654182110048 -77.721462227398803 144 141 124
45.787631875038471 -1.578774598889005 -77.885914779515502 145 142 125
44.881725368034296 -1.597409667093429 -78.893505895600072 145 142 125
44.962893386120456 -0.948287927834959 -78.828159248464260 144 141 124
43.634189217497507 -1.267231086424502 -80.295547499946110 141 138 121
43.010601175368777 -1.108892752186614 -80.996584938373559 141 138 120
41.823013524367511 -1.347167690177715 -82.310595436856630 140 137 118
41.834307448932719 -0.756398696229930 -82.322079493687852 139 136 117
40.646881111251133 -1.007840357225717 -83.636031632215804 138 135 116
38.542580013182373 -1.916343372483947 -85.945756069525601 137 134 115
37.496217711414772 -2.089078352009944 -87.106285156878045 139 136 117
37.578589894591062 -1.463019269841314 -87.041277182678755 140 137 118
38.013941602489240 -0.582339754811877 -86.593459914617199 140 137 118
153.090129092063961 -105.180369230379327 40.685443346433715 7 9 6
201.335016513280152 -1.756981443042684 91.924707433736046 156 155 151
199.715270849365709 -1.119677973096262 90.143273769388486 176 175 170
194.709132735700820 -1.653507696989847 84.672707231527852 186 181 175
192.736636505315175 -1.176269922143786 82.507381441059636 189 182 176
187.448229766226063 -1.874221964425507 76.730105099855393 183 179 170
182.089219780947303 -2.637818584072827 70.876421937311846 175 172 165
180.469467133256273 -2.105833627303395 69.096075710342632 168 165 156
171.518161920081809 -2.094857592511974 59.299158075078736 172 170 158
168.416798228093171 -2.180957258736788 55.905935165357420 172 168 159
164.821534090961052 -2.476961259816296 51.975140991965930 172 168 159
161.579044989856669 -2.666360881779342 48.428777542725072 167 163 152
159.112694656640201 -2.582357353767248 45.727745425464263 167 163 152
157.210833440452689 -2.298174174212943 43.641474179172434 166 162 151
154.462277896691461 -2.360569324566729 40.633519482776592 165 161 149
151.431486060781140 -2.555824130994153 37.318517712620860 162 160 148
149.741375108862883 -2.238451496457524 35.463180884750130 161 159 147
147.416233987046127 -2.190349725669263 32.916682089443896 160 158 146
145.655625653306288 -1.930114023998843 30.984800221624397 158 156 144
143.683359484385363 -1.770447362519343 28.822633289543973 155 153 141
141.781691309323833 -1.596622902286823 26.737405670776582 154 152 140
138.821552194529431 -1.880820076351842 23.500378294407710 150 148 136
135.720280237105982 -2.247406681008171 20.109998692146632 147 145 133
134.242098501523742 -1.945382704291191 18.486010299820180 146 144 132
132.975676964187130 -1.563548476416522 17.092471682259173 150 148 136
131.709312524296706 -1.191400430221874 15.699005454209612 151 149 137
129.384416379241998 -1.292721528725304 13.153927547517327 152 148 136
127.341838850498632 -1.287100557854249 10.916124113727733 152 148 136
125.369869213242183 -1.265662878578203 8.755238182269579 152 148 136
122.833323722731734 -1.513192785745876 5.980340942925238 153 149 137
121.002569746132366 -1.460111425188466 3.973289968988610 150 146 134
119.101277163356528 -1.453312721484966 1.889601948177614 147 143 130
118.117567918521175 -1.037931611511756 0.803904963712625 146 143 128
116.851605746220628 -0.761309726600838 -0.588770409006742 146 143 128
115.091624654404782 -0.725977463027392 -2.518637303142555 146 143 128
112.131746460484251 -1.271270820957044 -5.753101908979176 146 143 128
109.948309764656798 -1.469262455798765 -8.143140683064786 146 143 128
108.470776192134949 -1.344888124139025 -9.765610517337564 146 142 130
107.205066655201250 -1.129241325808453 -11.157779102753040 148 144 130
105.515876155232675 -1.129928311669982 -13.010282324229308 151 148 133
103.756138863874781 -1.178226705634861 -14.939404999298119 152 149 134
101.361093090664269 -1.554908372482972 -17.558948024594628 145 142 125
99.248442399742203 -1.808846937088571 -19.871415806018945 140 136 119
97.912393668163446 -1.688001533137362 -21.339817408362848 145 139 123
96.717607228210099 -1.505689116599414 -22.654713347811708 147 144 127
94.887473874259257 -1.657192444891890 -24.659955332519218 147 144 127
93.127979600731237 -1.786301275509040 -26.588362444064643 143 140 125
91.156706026859382 -2.038710149009949 -28.746762529723640 140 138 123
90.103360235130651 -1.826453982174285 -29.907913646688513 142 136 122
88.414602627608076 -1.956718976994813 -31.759290150886500 144 138 124
87.855679617951267 -1.500706955259970 -32.383468339078718 148 142 128
86.520108097499744 -1.463736769137078 -33.851234867837718 149 143 129
85.184597931555643 -1.436896011445624 -35.318926481087317 150 144 130
83.284197195811856 -1.726299942245684 -37.399992195945089 146 141 126
81.948789799572637 -1.721893280082043 -38.867502048454043 143 140 123
80.684065979277634 -1.688797082062386 -40.258263112296248 144 141 124
79.278154001860358 -1.743441424305667 -41.802294858106563 142 139 122
78.084182146337255 -1.690675933136679 -43.116247000373079 140 137 120
76.254596474586947 -2.003608373033404 -45.120089323427266 144 141 124
74.919469529247849 -2.051150136020270 -46.587198611448798 144 141 124
74.220130083792213 -1.747198518445118 -47.364354593774493 144 141 124
72.814501007750721 -1.852944803007655 -48.907995660669570 144 141 124
70.914424877278009 -2.254422929487033 -50.988063029578967 144 141 124
69.791455273096602 -2.219390317009934 -52.224940987162910 144 141 124
69.516336407533316 -1.697528140420058 -52.542132394132551 143 140 122
68.040288218661260 -1.883855290608863 -54.162114624416262 144 141 122
66.776243259118786 -1.955908217193127 -55.552118100153535 144 141 123
64.876336701713001 -2.416379628012891 -57.631659344725534 144 141 124
64.530968246027228 -1.959161870041382 -58.025437056021104 146 143 126
63.479098592105430 -1.930807205261266 -59.185401361708188 143 140 123
62.639306939168605 -1.781578426424042 -60.115490619340449 140 137 118
61.304912790778275 -1.940962146387164 -61.581799229462746 140 137 118
60.818660713115079 -1.588770709881344 -62.128815380066357 141 138 119
59.767113616604263 -1.590032549383771 -63.288629138556587 144 141 122
58.998368030849832 -1.423081720922308 -64.142030128242482 144 141 122
57.310810100525643 -1.837682024008447 -65.991053747734270 141 138 119
55.693944709877272 -2.220547525549332 -67.763364213227220 143 140 121
54.501248836000741 -2.346599628834059 -69.076086121409787 145 142 123
53.450001661721643 -2.391374916251961 -70.235595455888927 145 142 123
52.540226515808584 -2.353213755456112 -71.241920460497084 142 139 120
52.408301251401909 -1.819334722861731 -71.406021121128163 145 142 123
52.276554232498214 -1.286123844804668 -71.570200176146528 144 141 122
51.084268787803310 -1.447079630038641 -72.882759151110406 143 140 121
50.599223331325675 -1.151891133666244 -73.429765785254602 145 142 123
49.760698519155000 -1.094062867158216 -74.359520263777910 144 141 122
48.780810591102949 -1.136554717230335 -75.442332236700338 145 142 123
47.305865831455662 -1.517751479874026 -77.060836452927845 144 141 124
46.184615843471818 -1.672024728832712 -78.296588448675493 146 143 126
45.275646050876659 -1.691003577608105 -79.302710560727178 147 144 127
45.569469005286152 -0.897672213515301 -79.008005073560099 144 141 124
44.377734892450519 -1.119212501357347 -80.320204177075169 140 137 120
43.893620885033897 -0.862342140852116 -80.867261985435618 141 138 119
42.702015672482162 -1.099010054259039 -82.179367038155277 140 137 118
41.085832930349000 -1.640413016786701 -83.950372174629706 139 136 117
40.531233555901494 -1.450498229095842 -84.573879702580058 137 134 115
39.127405821382482 -1.862775849109898 -86.115227244061089 136 133 114
38.431430984656330 -1.784336530185304 -86.891671532292378 138 135 116
37.664773218654616 -1.761350866073336 -87.744589422032902 139 136 117
36.119438361927493 -2.301635840806560 -89.438640567128914 139 136 117
197.663359916705360 -2.185382274575729 86.258079819449307 174 173 168
195.471709147817421 -1.765453688918963 83.865610066514279 185 180 176
190.731437977821429 -2.240966708303293 78.710688950664718 187 181 176
187.619432323209367 -2.185267636102560 75.321097513736618 184 179 173
183.162281858546521 -2.627460561051212 70.473824982123489 171 168 161
180.191842544205088 -2.574226158375728 67.238251833181351 166 163 154
179.416144235118168 -1.753569458519633 66.381448079577837 171 168 159
172.625705913249647 -2.056583431509809 58.990636619764842 173 171 159
