ply
format ascii 1.0
element vertex 684
property double x
property double y
property double z
property uchar red
property uchar green
property uchar blue
end_header
56.324117578745032 -1.029084704807602 -25.396430384612557 144 142 127
55.293711751333248 -0.960938997956626 -26.788790270356486 145 143 128
54.384966939693427 -0.823489589895373 -28.018347976997461 146 144 129
52.381682152360298 -1.404136712474546 -30.712349711273731 147 145 130
51.473009656585972 -1.287502158027411 -31.941727755832147 145 143 128
49.652187863041775 -1.778744687356716 -34.391362792536114 145 142 127
48.317888523433012 -1.963959421090821 -36.190027522014816 146 143 127
47.226880787017677 -1.998776868692494 -37.663194695664856 145 142 125
46.683269055585697 -1.675886149919063 -38.404186347351839 143 140 123
46.078904132724787 -1.398757761506515 -39.226501710768815 145 142 125
45.231320536295954 -1.292261056236195 -40.374141236483979 145 142 125
43.593100834755248 -1.734280689345279 -42.579062509331720 146 143 124
42.259009045600607 -1.981272775425376 -44.377190624914277 146 143 124
41.594021116834242 -1.776137577743650 -45.280621972946335 146 143 124
40.989921347907497 -1.534305021784906 -46.102700867361989 145 142 123
39.777598011507848 -1.724807452977529 -47.737946299909993 145 142 123
38.869457588842479 -1.711015725007494 -48.966520273543210 145 142 123
38.448024149787415 -1.359061378738038 -49.544542998188348 146 143 126
38.270005094278758 -0.836523092134048 -49.797334696077399 147 144 127
37.422880418212273 -0.797190511242402 -50.944502413648308 144 141 124
36.271616099714137 -0.985597242045844 -52.498120958244073 145 142 125
35.363743938828449 -1.006679283415057 -53.726464294166249 142 139 122
34.334234080778344 -1.124899658650339 -55.117334448876477 141 138 119
33.913206083284109 -0.803128354370315 -55.695240446160739 142 139 120
32.701253784013105 -1.072084822795395 -57.329855814782093 141 138 119
31.428476935308382 -1.397101765387726 -59.045654753741076 140 137 118
30.764228167405037 -1.276100797507450 -59.948573677903568 143 140 121
30.404308690718295 -0.930824302506140 -60.445096847895286 143 140 121
29.618486698764400 -0.912349245203772 -61.510517977528934 144 141 122
28.467570768396357 -1.179887064567090 -63.063488653765347 144 141 122
27.255818797744610 -1.504299831237355 -64.697629019374830 144 141 122
25.861496224133703 -1.980589124906763 -66.575441547701161 141 138 119
25.136695461466473 -1.948132600911066 -67.559340057602128 139 136 117
24.290215413105159 -2.017165389890069 -68.705700703667446 140 137 118
24.600325842543441 -1.183142010268772 -68.308347067162600 139 136 117
24.119229953078246 -0.972423647132930 -68.967232552032499 141 138 119
23.759965954911920 -0.668770263513198 -69.463640853106455 142 139 120
21.757057678288604 -1.683990798488388 -72.153349426370966 142 139 120
20.849960837832469 -1.834695398475582 -73.380729402816485 142 139 120
20.551751397163329 -1.500324043643673 -73.795803305508144 139 136 117
20.618967118391964 -0.870861208809333 -73.723579568401192 138 135 116
19.955625777392129 -0.838532051194042 -74.626019858996017 133 130 111
19.657711498877859 -0.511096036352880 -75.041163577312318 132 129 110
17.181071035204866 -0.867317428010011 -78.397894784709024 136 133 114
169.818482745240232 -0.823751833315470 125.505936739262097 143 141 133
157.622228611096119 -0.704489002579318 109.167578295452188 157 154 145
153.657847250431303 -1.107089723517469 103.862441401271212 156 153 144
147.923956257242935 -2.257261107061202 96.196619307601907 157 154 145
144.569650541812621 -2.490101594663467 91.706465737747806 157 154 145
141.276332131121080 -2.727753434148129 87.298044460936211 154 152 140
139.020281160170214 -2.563444886272635 84.273861459861251 152 150 138
136.459128724849222 -2.547498267149133 80.842870692801512 150 148 136
134.508142424687833 -2.295265785635771 78.226135178279293 150 148 136
132.984280069898432 -1.877171118382029 76.179369923992880 153 151 139
130.972267346348588 -1.684348151994596 73.481581888302088 151 149 137
128.289037662999817 -1.803465276419441 69.888664967374694 151 149 136
126.154974271618187 -1.703521085500818 67.028503830873234 150 148 135
124.142948224985560 -1.568070321966671 64.331312729804836 149 147 134
122.191942637302901 -1.423020627858920 61.715689728641451 148 146 133
121.156255442044355 -0.878237921242373 60.320950167091951 146 144 131
117.130528497248477 -1.718588531827649 54.938807884684593 144 142 127
116.460985329556280 -1.035497092687379 54.032635903642671 145 143 128
110.730078724401892 -0.801087809292274 46.351133904609071 144 142 127
107.985798007728206 -1.159181987553604 42.679024614705327 141 139 124
106.400977654892188 -0.977317821712898 40.552994212040460 142 138 126
104.694122769834507 -0.869496787168439 38.264389104596688 143 139 127
97.805825899866264 -0.620952214607377 29.030114325926917 144 141 126
96.160076769565890 -0.557891004201817 26.823596055136022 143 140 125
92.746577499810229 -0.539311406658566 22.248313600613216 139 136 121
90.856766437214858 -0.649137485576354 19.716897797696134 140 137 122
89.089031288505723 -0.710902474845258 17.348304348918475 141 138 123
87.504407415853947 -0.690300510024195 15.223839903653300 141 138 121
79.947841261818084 -0.593573328533966 5.091377858393628 145 142 125
77.753006580186053 -0.998508235670877 2.154627588106678 145 142 125
75.252997896956842 -1.595721042880871 -1.188443697449912 145 142 123
74.095806607261835 -1.448527984739849 -2.742681296559510 144 141 122
72.572422745381431 -1.522222046438436 -4.784613231772852 145 142 123
72.025687905249981 -1.043232680063405 -5.525717600760089 146 144 123
70.624449710107541 -1.068188762524427 -7.404867518923766 146 143 124
69.223241265269067 -1.105505770891044 -9.283904432310976 146 143 124
67.455812000804443 -1.372353930493300 -11.650533190965547 145 142 123
66.115700007524097 -1.399537735771486 -13.448043858586459 145 142 123
65.325013633810187 -1.107890667468191 -14.513949781398878 146 143 124
64.107063950812488 -1.082227886196667 -16.148728686143869 145 142 124
62.644966849281872 -1.216395870148075 -18.108498624053425 143 140 123
61.182897170171714 -1.363440896503038 -20.068149130888600 141 138 121
59.965047061959282 -1.372073891429386 -21.702622648216419 142 139 122
59.296676419927905 -1.048576054064705 -22.605654083927931 138 135 118
58.017858548594532 -1.114529991948943 -24.321229684017823 144 141 124
57.410642889871880 -0.766736114019549 -25.142908660552877 144 142 126
55.765588463557137 -1.085607628516245 -27.345827849945323 145 143 128
54.425823331262308 -1.223074621386880 -29.142369254421311 146 144 129
52.780811043318607 -1.569551155913517 -31.345024450327344 147 145 130
51.868497890218862 -1.453862488900041 -32.572651080405876 146 144 129
50.528825654362151 -1.626074215134744 -34.368879281224650 145 143 128
49.006003456111486 -1.930832118678981 -36.408701458192610 147 144 129
48.032751327499085 -1.884158305234671 -37.717323571629805 146 143 128
47.364858063294932 -1.641940238581124 -38.619746729746254 143 140 123
47.124474928895623 -1.117938860808465 -38.953577611313051 143 140 121
45.907123495192195 -1.257500944631081 -40.586941973931545 143 140 121
44.445536052480648 -1.574205484092668 -42.545076790408785 145 142 123
42.922899238864787 -1.945630993226790 -44.584301411595334 144 141 122
42.621691000395970 -1.487087451342707 -44.999218866398763 146 143 124
42.442710489571610 -0.946140978171891 -45.251740092072197 146 143 124
41.103411989492443 -1.218094625180212 -47.047120393109310 146 143 124
39.703061296029304 -1.544759550252362 -48.923589248351817 144 141 123
38.852430103439545 -1.494383995445923 -50.069193131315359 143 140 123
38.368329228635162 -1.190191319560458 -50.727603219557835 146 143 126
37.762140205294642 -0.977685378249019 -51.548380748246245 147 144 127
36.789517215545160 -1.034799797204276 -52.856235495144119 143 140 123
35.755852531644649 -1.144702589998036 -54.245203612463541 144 141 124
35.210929363406947 -0.906614155687907 -54.984694964762923 143 140 121
34.482809341016690 -0.807817943968060 -55.967688419921870 143 140 121
33.510381340341155 -0.895938725424205 -57.275317284858858 143 140 121
32.293618736092483 -1.174256111659143 -58.907535063437734 140 137 118
31.993328363808516 -0.777445279037783 -59.322256176489560 144 141 122
31.326536991607270 -0.658970837640930 -60.223932720664948 146 143 124
29.259904711416667 -0.997512247951455 -63.000980232135561 145 142 123
28.043322996530236 -1.320666465884908 -64.632823019532566 144 141 122
26.093455736327115 -2.219480855866623 -67.238245575250488 141 138 119
25.426880970991235 -2.140888204195710 -68.139615220111295 140 137 118
25.188166708071378 -1.734496023081209 -68.473033873530483 140 139 119
25.255136374935063 -1.090347140518135 -68.400843595725604 141 140 120
24.405444570163738 -1.168060541621252 -69.545578394632003 140 139 119
23.616922013792191 -1.204609751835552 -70.609141191077640 142 141 121
22.094950590840398 -1.832773451361744 -72.646041397709212 142 141 121
21.306496760764176 -1.886121668154629 -73.709464151965136 141 138 119
20.762617560439566 -1.749047650263664 -74.448415142802247 140 137 118
20.707885474415619 -1.219962871688133 -74.538536520789989 141 138 119
19.736220077455826 -1.438637664147293 -75.845186354710677 136 133 114
19.192568194231129 -1.314858859935823 -76.584109238955818 133 130 111
19.138140492325249 -0.792411279312786 -76.674307913249550 133 130 111
18.655812555113314 -0.624761991726914 -77.332160659069814 135 132 113
174.787860801484413 -0.645284723796124 130.110876009134671 137 137 129
167.685227640449909 -0.840423165051593 120.651129374814673 145 142 133
164.930221831967913 -0.680242931960648 116.978816073194679 146 143 134
162.175186492497289 -0.544593561401800 113.306769407589684 150 147 138
153.969567178400666 -1.415379645231257 102.386182420207263 157 154 145
144.844863704796012 -2.804278792639105 90.247732068610503 156 153 144
141.844620819197758 -2.919466008583192 86.252138299884336 154 152 140
140.437171297192549 -2.401737092612616 84.370373729890787 154 152 140
137.681944671962469 -2.460626214902650 80.700421057172122 151 149 137
135.661856630794773 -2.233072628187306 78.006138726027672 152 150 138
134.254396249905540 -1.761683018074581 76.124856344641074 154 152 140
131.805455669160949 -1.752509061515136 72.861971295241091 151 149 137
129.785355487204470 -1.578028153645724 70.168241075953148 152 150 137
127.091342998257417 -1.718414193711384 66.580701543896851 152 150 137
124.948705812008797 -1.637329957129799 63.724836216455600 152 150 137
123.296191196026726 -1.354995102851527 61.519297437054661 151 149 136
121.950013197964964 -0.948321706819526 59.720222815204494 148 146 133
118.888390055907081 -1.339721184760814 55.645977457424124 145 143 128
117.358425747909337 -1.049599403949130 53.603448645845020 143 141 126
110.317881339436639 -1.427007824458670 44.226734046503452 143 141 126
108.726684666580326 -1.231437169606690 42.103612965703206 139 137 122
106.951695497987473 -1.139063705003047 39.736903190634962 142 138 126
105.054179843238373 -1.122347614172202 37.207870676072531 143 139 127
103.830649908225524 -0.789793534325832 35.572602358458994 144 140 128
102.484602791678057 -0.529098392749233 33.774967750847225 145 141 129
98.505866395659467 -0.695519828397085 28.474267144344793 143 140 125
96.424607808125373 -0.852093343778569 25.702343721217204 142 139 124
94.894819832670663 -0.742730300649644 23.661591193246380 140 137 122
93.365054532260572 -0.646884076397638 21.620966953018836 139 136 121
91.712763410744813 -0.628815337020015 19.418041478507860 140 137 122
89.937943055096127 -0.690141891386416 17.052833055413345 141 138 123
88.653348893528857 -0.505741154983498 15.337443786342135 141 138 121
82.350984955020166 -0.522769409546045 6.934183225398726 146 143 126
79.534543799476069 -1.250786540498095 3.189544159970183 145 142 124
77.576021331356444 -1.523475315678105 0.581817200560295 145 142 123
75.494951058762680 -1.882555524717845 -2.188111808660778 144 141 122
74.639533727134079 -1.563193797505381 -3.334194828913297 144 141 122
73.539029819355477 -1.391772300318364 -4.804941987797520 145 142 123
72.744984210800624 -1.053112606885481 -5.869724788744122 146 143 124
70.847861066825132 -1.363119676905001 -8.395581953488943 145 143 122
69.012039107566380 -1.653897700630326 -10.840104444192292 145 142 123
67.360094094381836 -1.852245627178175 -13.040967810281785 145 142 123
66.566199229588477 -1.554625407148443 -14.105400286611001 146 143 124
65.465911304751444 -1.447606563391629 -15.575587842129295 146 143 125
64.304374390105124 -1.387226975913706 -17.126852894492828 144 141 122
62.775131182319626 -1.560675553670730 -19.164954915363154 143 140 123
61.552373611982631 -1.559807374783095 -20.797178519987057 143 140 123
60.574825258473282 -1.418371058830308 -22.104720772202683 141 138 121
60.026383036734117 -1.018840860744321 -22.844190422545154 144 141 124
58.865049132602721 -1.007646316379497 -24.395046308085995 146 143 126
57.703754755126013 -1.006600863823964 -25.945816633342474 144 143 125
55.868221958248981 -1.443634054912819 -28.388971980428067 145 144 126
54.829590808504619 -1.387510492881519 -29.777273150186062 146 145 127
53.545801450604898 -1.498222222021021 -31.490009693713574 146 145 127
52.813763423831205 -1.262697399521564 -32.472536205282609 146 145 127
51.346142917835053 -1.513367557276406 -34.428464550027854 146 144 127
50.062461161388327 -1.656098229177493 -36.140922982658935 147 144 129
49.024036915197300 -1.647909226000374 -37.528829719873102 146 143 128
47.924348696110314 -1.689556342682332 -38.997773879152419 143 140 123
47.376485393428709 -1.371091673431965 -39.736686034175563 143 140 121
46.215581470887699 -1.470779343171392 -41.286606255103152 142 139 120
45.238652416394302 -1.455715315655537 -42.593143964396376 145 142 123
44.200455772330287 -1.491015789960714 -43.980711926649008 146 143 124
43.898093693072099 -1.029356076814045 -44.395109464290101 146 143 124
43.411863273715909 -0.697479705692355 -45.052785747900600 146 143 124
42.251193608940355 -0.839505887029796 -46.602382225371258 146 143 124
40.538667628240376 -1.378459734800172 -48.881616721323212 144 141 122
39.194082085573754 -1.672883419099623 -50.674236423927198 141 138 121
38.462770194075958 -1.543757940941169 -51.656015094221459 143 140 123
37.915500136318300 -1.289496272854657 -52.394550181838923 145 142 125
37.061657322693577 -1.260222760815121 -53.538400422380874 142 139 122
36.207867266878083 -1.238296938499942 -54.682200268616441 144 141 124
35.170129980867415 -1.357574380884561 -56.069123569068381 143 140 121
34.868457344401094 -0.947114173139860 -56.483323911548354 144 141 122
33.769487167434235 -1.126234956710107 -57.951196494202605 144 141 122
33.099930424476796 -0.996794250723118 -58.851662975757534 143 140 121
32.553123663348870 -0.781611050279318 -59.590017448595859 143 140 121
31.883702977618782 -0.662990152150013 -60.490437645744322 144 141 122
30.723572619315703 -0.920146511283809 -62.039107032826394 142 139 120
29.624818413470223 -1.140827339841153 -63.506655136903817 143 140 121
28.771502516121444 -1.183774255089615 -64.650014051247553 145 142 123
27.181982618563310 -1.799067701808735 -66.765590664062330 142 139 120
26.328734869264792 -1.859936815918516 -67.908797698003468 142 139 120
26.089133673026851 -1.451756372051845 -68.241810453050306 142 141 121
25.726910069005143 -1.141201570146278 -68.736873928593070 144 143 123
24.812491030756661 -1.267222561414945 -69.961005071497652 141 140 120
24.020850520493397 -1.304169590736313 -71.023072154537033 140 139 119
23.106520774483897 -1.445337928531550 -72.247090095295476 142 141 121
22.253605768199563 -1.545338954627216 -73.390053507925842 139 136 117
21.400736631957798 -1.652632736196433 -74.532963796631662 140 137 118
21.100334782230860 -1.321118739791818 -74.946959446119365 141 138 119
20.186200339025049 -1.490345833626054 -76.170781996198201 140 137 118
20.192903116560998 -0.915612214218362 -76.179904603862127 136 133 114
19.831402002135505 -0.642786732093747 -76.674925349109230 135 132 113
164.726279794623679 -1.190635838043785 114.753598392057057 147 144 135
163.067294213238711 -0.633196605974240 112.548323512763119 152 149 140
160.116689244454392 -0.594726202999068 108.638260344635739 157 154 145
154.828851098527423 -1.505059027928731 101.643450398373119 158 155 146
150.156016706416096 -2.216599615486787 95.460967345182411 158 155 146
144.683556754867425 -3.292126175267705 88.223603605236264 154 151 142
144.931152756223639 -2.082306803168677 88.536136787999283 154 152 140
142.349448287694770 -2.037177988208373 85.114677656178145 154 152 140
138.414567462873748 -2.578870465620927 79.907718433012519 152 150 138
135.586794861421879 -2.689021656844941 76.162140287958465 155 153 141
133.743136890928298 -2.405355190506590 73.715453472457966 156 154 142
132.145511791670344 -2.032235052396560 71.593580122789035 152 150 138
130.547890120453133 -1.673278474824007 69.471850925801022 152 150 137
128.704235819349805 -1.436434277886662 67.025644320017221 154 152 139
125.199819629668312 -1.951908163588818 62.388494604217811 153 151 138
123.971262988350077 -1.479702129480775 60.754193537950215 150 148 135
122.804231077421463 -0.990588400951427 59.201144097081539 148 146 133
120.653037314367836 -0.960959892110194 56.349901866309068 147 145 130
118.317311752926869 -1.035357084729023 53.255433149404837 146 144 129
117.027292587440598 -0.643961696934233 51.540508483681094 143 141 126
113.830402395723951 -1.159349987145286 47.310532928091249 143 141 126
111.925275266367947 -1.090696027697098 44.784607094317863 145 143 128
109.958644922963373 -1.068278044122043 42.177721232536015 142 140 125
108.976249973178568 -0.588093357822831 40.869010668217243 142 138 126
106.886619909872238 -0.655965852086769 38.100179086234135 143 139 127
104.673969115570642 -0.802727807441675 35.169294479292205 144 140 128
102.830420481133004 -0.785946951414827 32.725302545456003 144 140 128
101.417500988872519 -0.569971479219326 30.849260890267686 144 140 128
99.327919870675828 -0.707965727209152 28.081127691549199 141 138 123
97.238350318117256 -0.864355807266441 25.313178317409808 140 137 120
95.517901187786705 -0.849606459803384 23.032034683937724 139 136 119
94.043546688829394 -0.722560595097049 21.075439837575487 139 136 119
92.384659449041507 -0.704872172509663 18.875673838228039 140 137 120
90.356673904844300 -0.896170494252337 16.189481098569416 141 138 121
88.820868464760864 -0.843933803195290 14.152195335290514 141 138 121
87.346609998812923 -0.772250919900070 12.196124426045401 140 137 120
86.241512009635130 -0.514247101561367 10.726683824628452 139 136 119
84.398175745424211 -0.667725845331292 8.284342861195540 141 138 121
82.800953414467784 -0.702379096852269 6.166474244899007 144 141 124
81.203756532502936 -0.751048348805592 4.048737727625678 146 143 124
79.052857616727849 -1.122375070410355 1.201481676535423 145 142 123
77.148073948309474 -1.374321456759403 -1.321308367358228 145 142 123
76.043158146514941 -1.190117001006465 -2.790076472682074 144 141 122
74.815226211705223 -1.085791129757792 -4.420889621078572 144 141 122
73.587330800625693 -0.992209570514583 -6.051609645701461 145 142 123
71.436526697929395 -1.444081362543169 -8.898081964171354 145 143 122
69.654915073182238 -1.699301553811389 -11.258045622799273 145 142 123
67.996386136916811 -1.897748842721966 -13.455758239868004 145 142 123
67.199337299223629 -1.600273008698848 -14.518680380135095 146 143 124
65.971604219253607 -1.566843429630759 -16.148858888854676 146 143 126
64.620839040017088 -1.618134952211872 -17.941024955985256 141 138 121
62.839356046244546 -1.942134163295962 -20.300342174227922 141 138 119
62.042481951292046 -1.681016039953352 -21.362973662642702 142 139 120
61.307199424410612 -1.388991979401369 -22.344529591521422 145 142 123
60.756591274070558 -0.989070631890254 -23.082967095342980 145 142 123
59.159858531448847 -1.245956061137486 -25.198782381575427 145 142 123
57.809315847068461 -1.362272534130653 -26.990385555002291 147 141 126
56.089547268123823 -1.723762447829390 -29.267981942203136 146 143 128
55.169871890067441 -1.591048608070778 -30.492261757753766 145 142 127
54.004063963243212 -1.624072529721887 -32.040522123289861 144 141 126
53.269125337542476 -1.389228269228366 -33.021653992907972 144 142 127
52.226503274791810 -1.360641842913274 -34.407762469992093 144 142 127
51.368576337910625 -1.220320806254521 -35.550801947923787 145 142 125
50.141394600780572 -1.330581396805014 -37.179765142068476 145 142 125
48.852695804062677 -1.492305058412590 -38.889627935446441 145 142 125
47.994911400356060 -1.377717731110002 -40.032470710762311 145 142 124
46.890956473966384 -1.435903296092196 -41.499203453336577 144 141 123
46.279505429626667 -1.170712908383458 -42.318005956688836 142 139 120
45.175646051604261 -1.245845180063523 -43.784609968309127 146 143 124
44.749001248550883 -0.866752174648576 -44.360418946132427 144 141 122
43.706805509109671 -0.915563556151133 -45.745934680309290 147 144 125
42.664653743254561 -0.973379193635308 -47.131378765968833 147 144 125
41.314712076196443 -1.255093479181964 -48.921566941249154 144 141 122
40.149500383340779 -1.418776221406871 -50.468767606194604 142 139 122
39.230605625665547 -1.418445371068591 -51.692058183246246 142 139 122
38.558050966062751 -1.250823097387290 -52.591483493811126 142 139 122
37.885562298477765 -1.088913466053749 -53.490881571633594 140 137 120
36.535796501079886 -1.420500001463824 -55.280640522235103 143 140 123
35.801838357644954 -1.317625521146820 -56.260883019965092 144 141 122
35.006361109465644 -1.265888663713220 -57.322027488533990 145 142 123
34.826773646649855 -0.769292165714752 -57.573801833881220 145 142 123
34.031434131088687 -0.728392127018194 -58.634900644443348 145 142 123
33.482503792530153 -0.511421755397053 -59.372257601368574 144 141 122
31.399390865039550 -0.831400652941680 -62.141611900930684 142 139 120
30.173105210142040 -1.144442882072087 -63.768916444469284 142 139 120
29.254829288532477 -1.234045623630762 -64.991577338933354 143 140 121
27.782196084913949 -1.755272254638859 -66.942322652623062 141 138 119
26.863987022867320 -1.863072030418834 -68.164828221258233 142 139 120
26.623484752989796 -1.454751169436651 -68.497411351148401 146 142 123
26.321478305749253 -1.096141963511770 -68.910918271288750 146 141 122
25.157013076768962 -1.414471631565797 -70.456884183497976 144 140 121
24.115796072873195 -1.645934625213741 -71.840988016604825 141 138 119
23.567546623020746 -1.496455699670794 -72.577975984993913 141 138 119
23.820437001297009 -0.714344986420836 -72.263572993913840 139 136 117
22.409656229307060 -1.260387839453593 -74.132793968121888 140 137 118
21.800009492912821 -1.174341577761832 -74.950615625727295 140 137 118
21.806730581795520 -0.594946038698689 -74.959794980957724 138 135 116
166.858403265164100 -0.809250943969606 115.614273089400172 148 145 136
163.834318875465527 -0.769254277161771 111.628487628850877 153 150 141
160.501456387119902 -0.875973545406951 107.237636348512638 157 154 145
154.389804534465583 -2.104531666816155 99.199046204624494 158 155 146
150.008682253610118 -1.570986530158073 93.418487209080098 153 150 141
145.749432748950426 -2.173725455323929 87.813038807657932 153 151 139
144.392477177865544 -1.622020800196898 86.017627260192228 154 152 140
140.009670186599749 -2.338253012223173 80.250738810417630 154 152 140
135.750332570419232 -3.041232860303585 74.646364391421258 156 154 142
133.714066085937702 -2.839460922026493 71.960087155562007 156 154 142
132.418836204426839 -2.338327137885060 70.246525686082236 151 149 137
131.247122004400978 -1.795219561215566 68.695160450464925 151 149 136
128.963844792191992 -1.748202816890314 65.685209733340429 152 150 137
127.174601753585065 -1.503248602502341 63.323748370521287 152 150 137
124.767814405540960 -1.549323668628740 60.152124949952224 150 148 135
123.472623232020439 -1.116234183866582 58.439245376858594 150 148 135
121.498132491827320 -1.003312320052949 55.835188300052693 146 144 129
119.400135569318593 -0.964441531043588 53.069260632594847 145 143 128
116.622819051203834 -1.258716456430849 49.412298633233377 144 142 127
114.277799730640311 -1.375236218874424 46.322709607608829 144 142 127
112.550361976753706 -1.220863282369879 44.043472091948075 144 142 127
111.440521674334860 -0.787474647210432 42.574494872905063 144 142 127
109.960153716038789 -0.542001353490960 40.619557811858357 143 139 127
107.429896495854280 -0.818883313923509 37.287659996371616 143 139 127
105.887800969284399 -0.634258860136018 35.252020655159555 145 141 129
103.913402899646158 -0.676693354108401 32.649518406112861 145 141 129
102.062540712191591 -0.674905443978042 30.209179580895153 143 139 127
100.335218457496211 -0.627266416788511 27.930985476564331 139 136 120
98.607915771306210 -0.594775834971307 25.652937941285728 140 137 120
96.571818753732231 -0.735351580413717 22.970103589728069 137 134 117
95.029844290787807 -0.638929018621962 20.935314238475627 138 135 118
93.364366444108512 -0.620267205593102 18.738691143277578 140 137 120
91.451851993928614 -0.745776867872530 16.218298002162527 142 139 122
89.601120847540869 -0.855365321993766 13.779042940215561 142 139 122
88.368071802289180 -0.651778822519074 12.149656060403913 141 138 121
85.407934611582434 -0.544778369719537 8.243447660341104 139 136 119
83.866141026884463 -0.544436152416472 6.209560780807976 143 140 123
79.055615717495854 -0.727917190145769 -0.134204761583902 145 142 123
77.452160594861255 -0.817085912800529 -2.248530476575155 145 142 123
76.219368771765915 -0.709635010358500 -3.877050838590065 146 143 124
74.554198870620965 -0.860541526650333 -6.072075801878754 146 143 124
72.209533014630466 -1.418064492851435 -9.157294456226253 145 143 122
70.359075209048868 -1.708750213354193 -11.594816158339654 145 142 123
69.002848145852639 -1.726095083781031 -13.384718708849675 145 142 123
67.955542940065044 -1.572964534591359 -14.769868781579760 145 142 123
66.784724787852980 -1.502384896585840 -16.316798715949403 144 141 124
65.490387620308766 -1.515977275552987 -18.025488921757756 144 141 124
63.825401634600340 -1.764442817807536 -20.219597645497174 140 137 118
63.025385821857583 -1.501837948895173 -21.280741450708973 140 137 118
62.657906623357519 -0.981456342738972 -21.775450520572122 143 140 121
61.734440382720877 -0.806930140330449 -22.998347196111865 146 143 124
59.884241683340250 -1.215703728184247 -25.434777316002737 147 144 125
58.342990795554044 -1.447464405103389 -27.466534668189468 147 141 125
56.925341640339312 -1.614831162865757 -29.336367734684757 147 144 127
55.940248854209685 -1.520329395707522 -30.639817635306400 146 143 127
54.831623079963194 -1.513215696955124 -32.104988018401400 144 141 125
54.093793949949514 -1.277421409310492 -33.084746859770689 142 140 124
52.985263152030399 -1.287853216041663 -34.549782074513161 143 140 124
52.062161012395052 -1.187101215366376 -35.772093539804473 145 142 125
50.953720995650869 -1.215876689761651 -37.236983363363436 146 143 126
49.968920347312562 -1.172628358375128 -38.540045444341132 146 143 126
48.613369926567586 -1.384286706431402 -40.328271532040588 145 142 125
47.628657557947207 -1.359631213359116 -41.631184460307708 145 142 125
47.138418707348833 -1.010530901824113 -42.287120418822980 141 138 119
46.462841356164688 -0.791207168753741 -43.185631873190346 143 140 121
45.540104006354156 -0.746264568105957 -44.407543378492704 141 138 119
44.246568829201465 -0.963831309369554 -46.114517643176328 144 141 122
43.076684273977833 -1.107172949163120 -47.659692207967964 148 145 126
41.906836555670168 -1.260606047928867 -49.204780518957165 146 143 124
40.737024984965117 -1.424128189172094 -50.749782271253082 143 140 121
40.185408766653225 -1.162507822888704 -51.486313917336020 141 138 119
39.139323490389813 -1.255879237743680 -52.869510231621035 141 138 119
38.031460691846860 -1.402308564054278 -54.333465124186972 137 134 115
36.676346847071102 -1.735640117753640 -56.120647624904592 137 134 115
35.877671974745766 -1.679147492711637 -57.180311314547652 141 138 119
34.836956244550606 -1.180072302077952 -58.572174751796354 144 141 122
34.842281559593232 -0.550805574551454 -58.581199722801983 146 143 124
32.199931843606294 -0.650058336687444 -62.083019068930071 144 141 122
30.350410449046251 -1.427174852757537 -64.515981670325772 143 140 121
29.428512362103575 -1.518268256488300 -65.736894389175717 142 139 120
29.001430018031428 -1.240560054792040 -66.311450444159362 140 137 118
28.079645258922014 -1.345178294863195 -67.532278160721461 142 139 120
27.467164087391595 -1.219487915396118 -68.349151911093116 144 139 120
26.792901230689509 -1.146808341932105 -69.246782733112383 142 137 118
25.933133514044101 -1.224329582842830 -70.386699228316957 142 137 118
24.825974161329214 -1.502988768208409 -71.849629538589966 144 139 120
24.646788982532783 -1.060115759030446 -72.101043332374360 141 136 117
22.989507126665515 -1.213073848466204 -74.299820791612945 140 137 118
22.563114570772370 -0.977901557305137 -74.874268995401678 140 137 118
20.177725198859804 -0.628673419707842 -78.060198188865058 135 132 113
18.947195756654708 -1.075912752861706 -79.684091160895662 132 129 110
154.434863426437687 -2.509638131233467 97.407917990772660 158 155 146
152.080622385558968 -2.298729710110902 94.319370221758163 156 153 144
150.842288609706316 -1.661862214904218 92.688051560000758 154 151 142
148.612018183562896 -1.437305529336018 89.761773955231320 155 153 141
144.397851228798004 -2.043754956203297 84.245655295448046 156 154 142
140.741622267317126 -2.456494025967566 79.458357018395901 157 155 143
138.139320876254203 -2.461020050511155 76.047262505922191 157 155 143
133.925070193761371 -3.168766453813630 70.532226601862590 156 154 142
133.368673451463536 -2.353498942623786 69.792282973877349 151 149 137
132.006315631330494 -1.890417285311117 68.000368084875760 152 150 137
130.023978753978412 -1.709132289867473 65.399360877135848 152 150 137
127.979645239950131 -1.572495891738177 62.717613353396331 152 150 137
127.175309713097093 -0.903348575046564 61.654351338963778 150 148 135
124.014988852456710 -1.297429219349638 57.516491345117572 151 149 136
122.714676563084851 -0.877269829092072 55.806194792251745 147 145 130
121.228378457301815 -0.553532577739788 53.853289083203606 145 143 128
118.006051777907246 -1.043765440014076 49.635223318673098 144 142 127
115.155727547077504 -1.388932730084933 45.902852934580352 144 142 127
113.917466571408525 -1.001239233439204 44.274064318606065 144 142 127
112.555222513072835 -0.683235117429307 42.483588362363918 144 142 127
108.962744112513477 -0.502428211743909 37.770541253508895 142 138 126
100.909902454031112 -0.763851665336864 27.214029023369847 137 134 118
99.485795137297146 -0.575727831021634 25.343626275961242 137 134 116
96.079587766158454 -0.523448034503462 20.875367393977513 139 136 118
94.283504266163149 -0.567785366552108 18.520156307654474 140 137 120
92.301412741448118 -0.724968353177649 15.922515745025123 141 138 121
90.505369468620160 -0.801447493607777 13.567616265943457 142 139 122
88.647336597542733 -0.926518097104729 11.132013689600882 142 139 122
87.285418687021419 -0.802146557578211 9.343374862744696 142 139 122
85.675482821344644 -0.823534685475744 7.231451813298804 139 136 119
79.856167182477421 -0.703653830543812 -0.406576708399086 144 141 122
78.184358510225678 -0.827212527711141 -2.598707211186650 144 141 122
76.698628495884165 -0.860010670659979 -4.548214695311600 146 143 124
74.778799537648752 -1.153308328001176 -7.063381474722291 148 145 126
72.858988426421490 -1.463301619858721 -9.578384935527254 146 144 123
71.559399726354627 -1.430868581505977 -11.285036588919183 144 141 121
70.569955399476186 -1.228792480434738 -12.587512044022077 146 143 124
69.022355370756259 -1.363356186416435 -14.617232486198589 145 142 123
67.536807625294415 -1.474624620492601 -16.566019433004101 144 141 124
66.547488084083852 -1.302811200978753 -17.868243076158848 147 144 126
65.310113481597384 -1.288607362682612 -19.493611213346952 144 141 122
64.072778334211876 -1.285110207149088 -21.118888016455827 147 144 125
63.331707953719715 -0.989843235908375 -22.097708436915127 145 142 123
62.342578956429506 -0.853256023891554 -23.399660634578311 145 142 123
60.547101472285277 -1.223762445099935 -25.751804214519268 144 141 122
59.309927753729497 -1.262236658023153 -27.376726212246865 148 142 126
58.134826482309521 -1.272502843948902 -28.920774930389598 147 144 127
57.083836082531178 -1.214577043866473 -30.303182028636940 147 144 127
55.784749012324497 -1.323449967152365 -32.008619126785391 146 143 126
55.106071506368565 -1.046451886895008 -32.906241148765048 143 142 124
53.931147889521469 -1.095079831685463 -34.449979979391202 142 141 123
52.756265541424995 -1.153831733518284 -35.993634341870489 144 141 124
51.333256734266357 -1.384800926498005 -37.860248677430377 146 143 126
50.592753747645105 -1.179305014057414 -38.838416478567297 146 143 126
49.231863006999163 -1.390796527476767 -40.624089492843922 145 142 125
48.367375897908659 -1.283308829254036 -41.763652636830471 144 141 124
47.751138676332346 -1.016756739444335 -42.580179466082171 139 136 117
47.321122166206408 -0.629753049669549 -43.154456859447293 141 138 119
45.960408746697055 -0.878669452767700 -44.939829470357807 140 137 118
44.599723292024677 -1.139317132682073 -46.725094703624791 143 140 121
43.735509496969115 -1.070076264243557 -47.864394906276317 149 146 127
42.685179661033857 -1.137124904768467 -49.245831591303016 149 146 127
41.945191794868578 -0.996931915297969 -50.223573628508916 147 144 125
41.267329639634013 -0.819483142103375 -51.120561000451971 144 141 122
39.968900974856680 -1.085686996240517 -52.824693591193522 142 139 120
38.670499233432423 -1.363064013909578 -54.528724050989638 135 132 113
37.123852248730429 -1.828974613532795 -56.555489706126934 131 128 109
37.128960921565607 -1.192898101219665 -56.564481132778837 135 132 113
36.823826066234687 -0.780938559329158 -56.977040595021037 140 137 118
35.960117150109369 -0.777837448062728 -58.115901520275855 147 144 125
34.972309755926588 -0.872936875162402 -59.416101101369776 147 144 125
34.170785404853277 -0.839332121113890 -60.474166013792995 146 143 124
33.493483865874808 -0.720536376186719 -61.370817837546724 145 142 123
32.133325232479635 -1.116249397054449 -63.154944804901533 141 138 119
30.835266285864819 -1.477139529355564 -64.858279614117208 144 141 122
29.599313133930323 -1.802383718227405 -66.480833659309354 144 141 122
29.481037636990052 -1.290769087978865 -66.651235143230821 141 138 119
28.866120710439816 -1.158719615347320 -67.467009094090514 142 139 120
28.002887297026106 -1.222303437934942 -68.605411076688881 143 140 121
27.450207608776211 -1.053654404666674 -69.340476961763244 139 136 117
26.400780652937101 -1.275014375938110 -70.720757177486433 139 136 117
25.724024548130984 -1.214574807232753 -71.617069245641090 140 137 118
25.606321146871650 -0.721163425950137 -71.787557042989192 138 135 116
23.017677952913004 -1.029182035097132 -75.202061588506353 141 138 121
22.465504604187572 -0.897224300664000 -75.936992022702583 141 138 121
21.361400143876153 -0.646842726941078 -77.406829465330730 139 136 119
20.126011271510905 -1.085807703706088 -79.028482874736454 138 135 116
18.952761058444196 -1.484431207392447 -80.569419575884751 135 132 113
169.529062644557683 -0.656755379998916 115.221940162469167 151 148 139
156.276937112118134 -2.210827317524870 97.964765947794291 157 154 145
154.971479921304564 -1.579057293157727 96.254752483581967 156 153 144
151.363126512379893 -1.876768364091435 91.554225550234008 155 152 143
149.684209569786333 -1.428484416547516 89.359609356001783 155 153 141
145.640125773002069 -1.958317037634361 84.093911495927273 157 155 143
142.342910187982369 -2.215978877025435 79.798419471857528 157 155 143
139.356884442264175 -2.372970374051083 75.907313469531346 155 153 141
136.184116863313619 -2.634540207523826 71.774043942717384 154 152 140
134.131702970445815 -2.447973673987646 69.095648088550973 151 149 137
132.701720758736400 -2.012293508771827 67.225507649085557 154 150 139
131.022773794371176 -1.697049114677454 65.032275260123015 154 150 139
128.970370339413819 -1.559978806377607 62.354383902007100 153 149 138
127.540415413030942 -1.165656487434058 60.484656126423147 151 147 136
125.488025198964365 -1.061735637994000 57.807099657943354 152 148 137
123.684622655823787 -0.863495717968424 55.452893007257529 146 144 129
121.570001818218557 -0.822655547421191 52.694897891966377 148 146 131
119.019663961592670 -1.000470609612092 49.371586838772004 145 143 128
116.593821046682038 -1.142774474043814 46.210070067437073 144 142 127
114.977197200453503 -0.927374349329769 44.098909144526289 143 141 126
113.360591227528985 -0.726076231657700 41.987884830130810 144 142 127
101.856099209192678 -0.714171389431021 26.982578124795424 138 135 118
94.954578919646679 -0.643769080533309 17.978180862377371 140 137 118
93.151438180458442 -0.704143083672066 15.626511008605689 141 138 119
91.597340219385032 -0.649539839742897 13.597951964549281 141 138 121
89.669734831760948 -0.806010400634707 11.085096972263017 140 137 120
87.928918967659129 -0.879612402683975 8.814606159240242 139 136 119
86.623929315668093 -0.734018777823519 7.109373483971950 142 139 122
85.132200329880746 -0.700963791612072 5.162058027883745 145 142 125
83.266948073036644 -0.884917631542089 2.730515295678998 147 144 126
81.650756603207483 -0.947911243000458 0.622013171960248 145 142 123
80.096853839476722 -0.990354838119583 -1.405640301969328 144 141 122
78.605242486906761 -1.011431652101421 -3.352454827572700 145 142 123
76.615562430691952 -1.326188884212973 -5.944843071876562 146 143 124
74.999480034382913 -1.445986238185237 -8.052812666535999 147 144 125
73.507954264370056 -1.508495453698011 -9.999241650018462 147 145 124
72.763645270120108 -1.153001383258713 -10.977132676544613 145 142 123
71.894859256091067 -0.876259467114904 -12.116381457835018 145 142 123
70.341183312067017 -1.007944255312454 -14.143224837103560 140 137 118
68.662999857693180 -1.226500502293704 -16.331327808471940 147 144 127
67.669807864978551 -1.052647761044406 -17.631719875863865 147 144 126
66.178498692099097 -1.185445454028311 -19.577528964064015 150 147 128
64.749492650548717 -1.293583228374966 -21.442538608744883 147 144 125
63.943251646523407 -1.035989873350325 -22.500652717755258 146 143 124
62.763421619023575 -1.013760149579517 -24.042773711921257 147 144 125
61.583634523242267 -1.001681073316170 -25.584810758760227 148 145 126
60.341613370986195 -1.038368478695429 -27.207432153328853 149 143 127
59.161910737503135 -1.046849835465699 -28.749297967775817 146 142 125
57.795411814486044 -1.182958519789808 -30.533064000158333 146 143 126
57.051757904978615 -0.936486415174766 -31.510146199117685 146 143 126
56.059036397573692 -0.855166922196960 -32.809810853859915 144 143 125
55.004082128382535 -0.822321883392101 -34.190063481691851 144 142 125
53.139464459643250 -1.321758598523863 -36.618662374951327 143 140 123
51.399428751220171 -1.756253136497739 -38.885811563607547 146 143 126
50.531446881541342 -1.634650564455041 -40.023848117594639 145 142 125
49.476650957392053 -1.643638700573955 -41.403745887267178 145 142 125
48.733361859365289 -1.454960407466100 -42.380407710053447 141 138 121
48.301605115377839 -1.064528425018115 -42.953887870642973 139 136 117
47.932225697825714 -0.635782011172693 -43.446744635156932 139 136 117
46.939960253460498 -0.631600009542584 -44.745833453945124 140 137 118
45.823147289608471 -0.720733427701806 -46.206096393671430 144 141 122
44.270270285785614 -1.118314553385888 -48.230584978617031 148 145 126
43.278134858385144 -1.142504551451642 -49.529443949829783 146 143 124
42.286048823410226 -1.175146036278649 -50.828239554810665 145 142 123
41.418625725997671 -1.129198431664248 -51.965764668949049 143 140 121
40.551259625073783 -1.090603342965756 -53.103241366872396 141 138 119
39.497016959652896 -1.191552010812703 -54.482457217674096 134 131 112
38.442817962856779 -1.301485894513704 -55.861601470055632 131 128 109
38.074133086645304 -0.929671299277714 -56.354204472957321 134 131 112
37.767858546704630 -0.515931056996266 -56.766237043632344 139 136 117
35.659864020331014 -0.786059387986915 -59.524201208500102 142 139 120
34.356629223282468 -1.117410316959090 -61.225363970468749 145 142 123
33.302724927082451 -1.275997325509093 -62.604148395550055 145 142 123
32.435850159323010 -1.304783724585740 -63.741166554071839 143 140 121
30.821038013385873 -1.899256787160396 -65.844857756629949 145 142 123
30.016574523600326 -1.899169008305311 -66.901171588104575 144 141 122
29.773211160941344 -1.482123322122834 -67.232475790023841 143 140 121
29.716977887213972 -0.924821508206666 -67.322169457079724 143 140 121
29.473839745016576 -0.510562236614005 -67.653552721730676 143 140 121
28.669693289954836 -0.529251850830708 -68.709824936390646 141 138 119
27.429158822584313 -0.891961165205497 -70.329801648623999 138 135 116
26.438050065999477 -1.071445682448838 -71.627553251136590 140 137 118
25.883469090905294 -0.918192931515785 -72.361551085433206 139 136 117
25.516046022660092 -0.622440489768335 -72.853974786984622 142 139 120
24.400380555726983 -0.920991700544928 -74.312631042761723 144 141 122
23.721295138853833 -0.882100549836620 -75.207606967316337 140 137 120
22.730435326032648 -1.098033340746926 -76.505102483281291 141 138 121
22.113841904999049 -1.021654378470795 -77.319501360397140 142 139 124
21.123070272920870 -1.252705465629423 -78.616883441509231 142 139 122
20.257088920640285 -1.390801986267957 -79.753203822939810 139 136 117
180.422070761072405 -0.736458949640094 127.416427779031778 140 139 134
177.612028091048529 -0.519249758804834 123.769856895611952 146 145 139
170.554741158356876 -0.697819512562398 114.620822886024143 152 149 141
166.369967687908911 -1.082328843454665 109.199216828115567 153 150 141
163.247381728851252 -1.095379771897931 105.150241341338784 158 155 146
158.437692737159807 -1.790795788129447 98.922204196255478 154 151 142
156.814680102894101 -1.276728809060000 96.811025319673547 154 151 142
152.504803979611722 -1.843544118299994 91.229426739241717 154 151 142
149.257145566752968 -2.021529525474494 87.020265469255662 155 153 141
147.634098522481594 -1.568727714776240 84.909733687457390 158 156 144
142.699280612466907 -2.487922806134925 78.522143488590160 159 157 145
139.701509105374868 -2.647407969225849 74.636682286801715 157 155 143
136.516262306862870 -2.911457913049867 70.509408304872522 154 152 140
135.955473547396878 -2.093082834179255 69.771533815090550 153 151 139
133.207629511705846 -2.214238881111083 66.209549166497851 153 149 138
131.272126147883966 -2.008642648720694 63.696745603562675 153 149 138
128.711740348350986 -2.092335982800360 60.377272609583400 153 149 138
127.526113890108292 -1.592972155759600 58.833013226999697 152 148 137
126.465484842960606 -1.048382415229235 57.450207748197300 152 148 137
124.405035815045608 -0.961941489684477 54.776686518277245 147 145 131
121.344745718600834 -1.346635434598478 50.812593297545277 147 145 130
119.221814818002159 -1.328940212960759 48.058811930491856 146 144 129
117.348858775116298 -1.214215888413825 45.627880218733026 145 143 128
115.725884487272509 -0.999209314906879 43.519761376343808 144 142 127
113.852958573116240 -0.915938927510752 41.089139022280335 145 143 128
112.042541151503329 -0.819248892244145 38.739333569388663 142 140 125
110.294634666154266 -0.708321891694435 36.470335435542808 142 140 125
106.861374881106727 -0.501470641907441 32.013427254026709 144 142 127
101.305418856611212 -0.506288739625632 24.804986409099968 142 139 122
99.307646802723639 -0.613657283709179 22.214334592796689 143 140 123
97.559884128269445 -0.610948119056382 19.946381600860519 142 139 122
95.437153419858333 -0.816057894254438 17.194797906310754 141 138 121
94.251927319241659 -0.553756716481633 15.652787198950165 140 137 120
92.191738299109872 -0.758889905107316 12.982142901029192 140 137 120
90.819074469453710 -0.619649240084948 11.198491829674822 140 137 120
88.758928047447810 -0.857442519885805 8.528163339681953 141 138 121
87.511328278363877 -0.677961656685985 6.905985607699762 141 138 121
85.201214150791515 -1.082810238882597 3.913524855699336 144 141 124
83.641157136306873 -1.099512693843440 1.888550587748568 147 144 126
82.143634981702249 -1.095401762271346 -0.055695500540139 145 142 123
80.771156080582728 -1.035109511492379 -1.838622385384440 144 141 123
78.898660865132484 -1.265225098243416 -4.266224944969110 146 143 124
77.088694394726318 -1.476409514165394 -6.613077024983369 146 143 124
75.903834603931543 -1.349574660141431 -8.153868550784438 146 143 124
74.781526143217718 -1.197299809223358 -9.613987400235715 145 143 122
74.034324238266734 -0.839240801026089 -10.590520870391430 144 141 122
73.037133917462924 -0.632278404578711 -11.889340965644408 142 139 120
71.164818788676939 -0.944131980133661 -14.316188307891565 142 139 120
69.355036833423725 -1.235405381446891 -16.662304263162667 145 142 125
67.795334660858401 -1.394314014155582 -18.685984486645509 147 144 125
66.485725350356049 -1.417601191264662 -20.387268758183779 148 145 126
65.238671665347098 -1.414604411790063 -22.007891095583830 146 143 124
64.054177158643455 -1.384505962407015 -23.547861615632797 145 142 123
63.369881785471932 -1.059967896765069 -24.443285422144584 146 143 124
61.997922148238942 -1.163040682405773 -26.224779122664927 147 144 125
60.688520368673579 -1.239270855092370 -27.925617707442228 149 144 125
59.504203538439853 -1.248951992494996 -29.465263756035085 145 142 123
58.194880466920765 -1.347091641279362 -31.165914469228142 146 143 124
57.135699801779268 -1.298725435808062 -32.544304970890011 146 143 124
56.514261700873220 -0.981479563725399 -33.358865533864787 144 143 123
55.330130746763587 -1.029245528464443 -34.898208478698336 143 141 123
53.645796937690434 -1.409110529225047 -37.081708709423054 140 137 120
52.086545065859895 -1.722407938055406 -39.104015154003065 142 139 122
51.340256514338080 -1.518803745470627 -40.079395688300025 144 141 124
50.031212324714915 -1.691071773720414 -41.779416776987404 144 141 124
49.159963295867243 -1.585192061652306 -42.915728489930785 141 138 121
48.538928236513811 -1.320266736351681 -43.729943304931197 139 136 117
47.855424723573222 -1.102422504369763 -44.624647681434965 140 137 118
47.297075745154743 -0.806014012425912 -45.358316489814342 141 138 119
45.925725617767355 -1.065776024096951 -47.138488896838140 144 141 122
45.179867687033493 -0.910290182003914 -48.113580132289826 147 144 125
43.808592276612742 -1.190781705982523 -49.893574904370524 141 138 119
42.937746270236616 -1.137050947980740 -51.029542626501211 132 129 110
42.254615662883879 -0.960126224434600 -51.924004194703457 142 139 120
41.446446556034502 -0.876493690736512 -52.979405239807420 143 140 121
40.200442745049912 -1.108103420900194 -54.598114910682199 134 131 112
38.954470320458370 -1.350338119047535 -56.216730228566831 132 129 110
38.083895289779363 -1.335536218517571 -57.352426870256124 133 130 111
37.839012104939300 -0.879234737354569 -57.683408074071622 139 136 117
37.031140094540191 -0.831209342157234 -58.738584726934988 139 136 117
36.348466368175238 -0.699102428588072 -59.632803533203088 141 138 119
35.353010352130482 -0.801205755205320 -60.929271945159343 145 142 123
33.606721307437297 -1.463490033984994 -63.191084804944722 145 142 123
32.673902148824638 -1.539469813285435 -64.406928492670659 145 142 123
31.866289522227390 -1.530259360504512 -65.461829692154566 145 142 123
31.371642643615004 -1.293795382140693 -66.114497442816372 145 142 123
30.501578948866907 -1.343818798435163 -67.249771426310730 144 141 122
30.507784027116230 -0.738193446430302 -67.258973920464229 141 138 119
28.085981532203874 -0.797908077105700 -70.423273747349270 137 134 115
26.778042273370232 -1.218959419991753 -72.121262579503394 138 135 116
25.532712823602139 -1.602437630666006 -73.738731603910537 139 136 117
