ply
format ascii 1.0
element vertex 671
property double x
property double y
property double z
property uchar red
property uchar green
property uchar blue
end_header
113.881956197595187 -3.243173460392996 -98.804690717364252 139 136 117
106.931670329972377 -5.813964400027161 -103.435075053557568 139 136 117
104.644533735383362 -6.252642993789944 -104.997014445306917 140 137 118
109.598639655644320 -2.674253469712215 -101.860931651282016 141 138 119
109.646757199429373 -2.015570805577777 -101.890731070851388 142 139 120
103.177586214161309 -4.468770522816231 -106.198195118561898 142 139 120
102.933667722970483 -3.968137400797241 -106.419235271441693 143 140 121
104.539518950300632 -2.574216541592815 -105.428075163121008 146 143 124
100.208399154444479 -4.058186561524108 -108.329456871143236 146 143 124
99.576099308957183 -3.757197275394628 -108.806077220774085 144 141 122
98.944166618532265 -3.459309175828676 -109.282841294057079 146 143 124
96.948709860296304 -3.839965150208289 -110.652339920930842 143 141 120
100.507324010406620 -1.464973213980603 -108.388295860391224 142 139 120
92.664468207181713 -4.782221524068451 -113.581724102448362 141 138 119
92.910367261671325 -4.067854711950726 -113.484996933868047 143 140 122
91.746369324862968 -3.477818827104490 -114.375383350487397 140 137 120
92.384609127309872 -2.561311004941124 -114.024995850179721 142 139 122
214.938489392448048 -3.577272093848349 -30.079368283885344 123 121 109
215.262694731374950 -2.552870051415164 -29.912435036821790 123 121 108
212.492588662861806 -2.517835128649342 -31.802494083527847 124 122 109
208.464945012747307 -2.904950456170621 -34.527771561043750 124 122 107
208.790015276981308 -1.895332466197816 -34.361099911603617 130 128 113
205.632774795313594 -2.029283942327096 -36.507651259828776 131 127 115
202.572075703076564 -2.149042863980560 -38.589674884013931 131 127 115
200.769167597339788 -1.865085136437838 -39.836411559107916 131 128 113
198.966342412910763 -1.591188630623521 -41.083084338261756 131 128 111
193.388728513446267 -2.612521504709272 -44.834075200259264 132 129 112
193.618474685862338 -1.671797838968109 -44.731950553068629 132 129 114
189.492112680452749 -2.237539960320227 -47.519021697386790 133 130 115
187.011304088676525 -2.252307798396979 -49.214390365737472 131 128 111
184.627228040549767 -2.247012286198512 -50.845383188621497 131 128 109
184.180091444283391 -1.567923424408240 -51.192759201025439 130 127 108
174.531291530276235 -4.182272449620311 -57.635784079677165 130 127 108
175.633791231773614 -2.975510377027424 -56.956190231934073 130 127 108
174.314864367068594 -2.642124746821664 -57.880676235418974 130 127 108
170.767351432553056 -3.132349129019015 -60.280290823627382 131 128 109
168.382387672038021 -3.213527767502176 -61.909968846073923 131 128 109
166.869655026934566 -2.983644704020425 -62.962391194453318 130 127 109
162.254864546978865 -3.925189554791814 -66.066225929062568 132 129 112
163.165814727729980 -2.805432863277834 -65.515817626916970 129 126 109
159.132068969064903 -3.562446913920850 -68.234368323240375 133 130 113
157.522301303011290 -3.412685332697412 -69.350403604459387 133 130 113
157.698431280387041 -1.818129543377367 -69.340218260767983 134 131 112
153.469597707582778 -2.712716481585765 -72.185741278510704 135 132 113
151.277927867252629 -2.826544053461470 -73.685836608103784 135 132 113
148.447379430890322 -2.468775330730471 -75.661161179260972 136 133 114
148.779884846210365 -1.596023485754444 -75.496637648628678 137 130 111
134.433702379992525 -5.292262040582495 -85.113399744262949 139 132 114
132.434655833306124 -5.423202499257561 -86.483751475896213 140 133 115
138.986568179763083 -1.989342906145755 -82.225965036508370 136 132 115
136.016882143915296 -2.526748112430943 -84.236371066967820 135 132 115
128.186449715703702 -5.141961917509647 -89.442969002879494 138 135 118
129.103878383620156 -4.067793591680712 -88.895190722837782 140 137 120
125.938104363409423 -4.742908442343952 -91.032089189003273 140 137 120
119.367686056833548 -6.909232162029591 -95.404928708924359 140 137 120
117.464700219859438 -7.080209898105980 -96.709964546085700 140 137 120
117.258936164019204 -5.865103103754695 -96.956612086484796 139 136 119
118.568218306544765 -4.630453731408114 -96.154511537883451 139 136 119
115.639932456002896 -4.634063897900391 -98.190217895585420 140 137 118
115.198441176354535 -4.184775212940874 -98.537929159447003 139 136 117
111.737600615270580 -5.114414778740235 -100.863625507868534 139 136 117
111.101492341451902 -4.767614304282080 -101.338895476014898 139 136 117
114.071525919463681 -2.758793062626456 -99.454660617883945 139 136 117
110.610145351951857 -3.721082286814318 -101.779762549745811 139 136 117
109.975285648335714 -3.381369226290596 -102.255556875285237 142 139 120
111.973768178329664 -1.805776354711873 -101.010664737937077 142 139 120
110.267304258179649 -1.972361713743789 -102.188043429588873 142 139 120
102.804593816102567 -4.890944887105427 -107.124000030232480 140 137 118
106.513744053529791 -1.870785365983488 -104.827754067005969 145 142 123
105.783437754743758 -1.597979962055742 -105.368057239379311 145 142 123
96.362288229349176 -5.571530352294246 -111.573421686407329 144 141 122
100.221386108372570 -3.078090972514295 -109.121770596085639 146 143 124
103.301454576375335 -0.946384006096982 -107.180582091735317 144 142 121
97.783858430903308 -3.068962906853121 -110.838090678027726 144 141 122
92.074343370627133 -4.144186091969013 -114.747143526609534 140 137 120
90.953218683691020 -4.126216978750302 -115.541292903428058 140 137 120
213.234912416037560 -6.195640010770843 -32.119761729352064 123 119 108
214.562714049966019 -3.950600778146471 -31.336921292366412 122 120 108
211.785117742504156 -3.912163276589254 -33.223432058886630 122 120 107
212.886623545768060 -2.649586854519027 -32.543937258773241 124 122 109
210.012228594265309 -2.662553538362546 -34.494469641599181 125 123 108
202.481595112673574 -4.206438035711535 -39.522941441941668 130 128 113
207.852482397994265 -1.559227552883005 -36.022365906096297 131 128 113
207.403653391786804 -0.807571456575823 -36.369679246385004 131 128 113
204.626379464929329 -0.835667629259040 -38.255659374148678 129 126 111
199.713931474945923 -1.598397392334173 -41.551513064533310 130 127 112
196.741996439627172 -1.729967973581755 -43.565020641024091 133 130 115
190.566529623038718 -2.975374319965425 -47.692847525445444 132 129 114
190.797501027501141 -2.043573115389325 -47.591217181691007 132 129 114
188.504585861757107 -1.988973808427699 -49.155469682040746 132 129 112
185.531862564382607 -2.185887293997390 -51.167927549326322 130 127 108
181.976182308281068 -2.605877801935337 -53.564357871433486 131 128 109
177.448778367375098 -3.392660190480114 -56.600732189637426 129 126 107
175.640765042538703 -3.227116333962941 -57.843807651952972 132 129 110
174.610057863487270 -2.789888973822806 -58.574669205450533 130 127 108
170.081429972591252 -3.636351307618001 -61.609843674517521 130 127 108
168.953554578662079 -3.256212015027329 -62.404491535844983 129 126 107
164.326752411967561 -4.180762070432602 -65.502754856657248 128 125 107
165.726334498112209 -2.877826506561434 -64.633697510713858 130 127 110
164.307294380644521 -2.628779475580893 -65.620280422587228 130 127 110
162.985626394707509 -2.350619299781282 -66.542886619725493 130 127 110
159.759149200662819 -2.040986749589835 -68.771740280214004 132 129 112
157.367738357808150 -2.201837753956277 -70.397513932881964 134 131 112
156.046444956454280 -1.957481851837537 -71.319951365630033 135 132 113
149.413776471609992 -3.074658150399475 -75.784668900015760 133 130 111
149.260440305610643 -2.396651944953871 -75.940010232108705 133 130 111
148.912901118833702 -1.797425490126070 -76.223352355026179 136 129 111
142.515487607659793 -2.212768472801607 -80.586121615479556 139 132 114
134.666981023370852 -4.743246845798282 -85.784945161446700 139 132 114
135.294003665074342 -3.782935841949950 -85.429642298042523 134 130 113
135.185761558052008 -2.426612956561899 -85.613538727724261 137 134 117
135.717488783031627 -1.498916163107362 -85.323170034073655 137 134 117
128.351278166274511 -3.953975626175803 -90.199204217860569 141 138 121
124.006461637108529 -5.147178112584857 -93.097026471907441 142 139 122
126.534320936757155 -2.701119739823750 -91.560052080696039 141 138 121
118.968002861186491 -5.354816856780158 -96.560028634779968 141 138 121
117.255873504937284 -5.457256591251920 -97.735357284358912 140 137 120
117.593877610126128 -4.654619746571742 -97.572742579191186 139 136 118
117.151444048321864 -4.200096008287669 -97.920056945532963 138 135 116
116.904790818106861 -3.659278418668334 -98.140202447549456 137 134 115
109.038882988666032 -6.585210049373862 -103.326630698442159 137 134 115
110.792807944477659 -4.517882021564981 -102.302381387629481 134 131 112
109.276351844055029 -4.585545114883226 -103.349959655680806 139 136 117
110.595326008440097 -3.338879012626555 -102.552619431353151 142 139 120
110.302473255176352 -2.205576426965549 -102.867620870525485 141 138 119
109.863428434342083 -1.778643824514717 -103.216272389510010 140 137 118
101.987206250326921 -4.910273883600511 -108.395648931271637 140 137 118
99.345578732700048 -4.964221522936013 -110.235396849200896 144 141 122
101.844261575543186 -3.142129639309226 -108.678041740535718 146 143 124
216.577596292031160 -4.494946518413773 -30.964924207326021 122 121 109
212.820537431276762 -4.749683674858028 -33.488434500839304 121 121 109
211.688527013371413 -4.196196175345282 -34.282888541046788 121 122 108
209.681538780313360 -3.927875738148485 -35.653550790114394 121 122 108
206.410249350260017 -4.077421848522549 -37.856239873875069 123 124 108
203.333255750445289 -4.182327306619936 -39.930621155650044 130 128 113
199.185977043283003 -4.654891459560049 -42.708644949183594 132 129 114
196.497602806973703 -4.669134318410666 -44.526438098381021 132 129 114
197.603904388186663 -3.434654158073778 -43.848948373063564 129 126 111
197.932461762440255 -2.454868277296321 -43.683637868217602 129 126 111
198.845571498094898 -1.274941323813716 -43.134882052468924 131 128 113
190.122931520107784 -3.381199171666009 -48.917619858429020 132 129 114
191.815144612563159 -1.949470551582781 -47.857305259715844 132 129 114
184.685892202280456 -2.737860172926688 -52.642137537358252 128 125 106
181.802390239902365 -2.921750820961317 -54.586553751169362 130 127 108
179.016057711032261 -3.087274951551899 -56.466785659771887 130 127 108
178.080379830545780 -2.604542674847029 -57.132718424015223 132 129 110
174.124731979498279 -3.218934344472573 -59.779240090540327 129 126 107
171.630145775756660 -3.323170777034895 -61.467096651364272 129 126 107
170.499765002528960 -2.940292403160857 -62.260574142562660 129 126 107
165.080995894017349 -4.151137402383268 -65.863887294729949 128 125 108
162.975616436044618 -4.156649607810594 -67.295519707023487 127 124 107
165.550007090791553 -2.414709642923131 -65.662699027183578 131 128 111
162.957617258412654 -2.614839237633736 -67.413638475740100 130 127 110
157.284467125253968 -3.246592972709850 -71.233794149715152 132 129 112
156.057096265545511 -2.963035598181122 -72.090708439975032 133 130 111
158.732744093432245 -1.163012847489437 -70.396067835056698 135 132 113
151.065644759303694 -3.413409406668101 -75.462841240658264 134 131 112
149.838402657179159 -3.157304438008892 -76.319534546700453 133 130 111
149.782749991915978 -2.440611177033247 -76.411146671091359 133 130 111
148.360776689578643 -2.272846393622304 -77.395489678370296 136 129 113
149.868430702156274 -0.927508045649120 -76.467711159830515 137 130 112
145.853808559105858 -1.094813466111867 -79.201480695488215 138 131 113
141.990030357799185 -1.962522707986811 -81.778486077599041 138 131 112
138.125488754539560 -2.852473041826481 -84.354897312099666 136 132 115
130.448455223311896 -5.361937505167332 -89.414251515778545 133 130 113
131.469325278668691 -4.245507506583033 -88.805535376628484 136 132 116
133.122831061899177 -2.159969406533187 -87.844292208203115 140 135 118
129.549568495591643 -3.004081136079347 -90.227945520580562 142 139 122
127.834279830609333 -3.063095871443144 -91.402209763021489 140 137 120
122.107223942162051 -4.882272273350059 -95.184354370420351 142 139 122
123.131294262444456 -3.768705823491972 -94.577139751095530 141 138 121
118.381130110465136 -5.201961529118857 -97.722009643108009 141 138 121
117.545893270160548 -4.920002798394753 -98.323067508802069 139 136 117
115.531708436556059 -3.877864339647552 -99.809111111385221 136 133 114
114.403742918170877 -3.745994466551896 -100.601160295627153 134 131 112
116.314235370089065 -2.223902959889587 -99.424482175026924 133 130 111
109.991600245643795 -4.497907282213831 -103.582175254651133 139 136 117
109.353891804022865 -4.162610207680431 -104.056561297731577 142 139 120
103.616627454660033 -6.218713774986841 -107.831383402084668 142 139 120
95.618358570139165 -8.189954308456981 -113.186035462823213 138 135 116
106.124691178524827 -1.931682379999454 -106.525606705255996 140 137 118
102.346883606129097 -3.143139378489534 -109.029342888291779 143 140 121
96.858573480686687 -3.417969720898481 -112.830740495242907 144 141 122
89.196014001491719 -6.076753445742313 -117.895482017631096 142 139 122
90.134882236622929 -5.023908763796904 -117.357740858077648 142 139 122
219.706894333116622 -3.778051238210989 -29.919594673930845 123 122 109
217.597629826976458 -3.508443063014540 -31.352200444784273 124 123 110
215.098392043840136 -3.373496260242998 -33.040293739166685 123 122 109
212.794128734618056 -3.190517911985157 -34.600438796538867 121 120 106
206.429908555566385 -3.431450297912319 -38.870024044270451 128 126 111
201.784248677394942 -4.056595170726209 -41.962347828503653 129 127 112
196.747768283087993 -4.836649557043228 -45.309545395677759 130 127 112
194.247428183924228 -4.802558928024356 -46.996073182588901 129 126 111
192.234903762043672 -4.619004231348746 -48.363214401550408 129 126 111
193.052638288732908 -3.490281607649083 -47.879163225782662 130 127 112
192.347426643600812 -2.022386210992383 -48.443773256103583 132 129 114
191.409690048240208 -1.493785908204080 -49.109193280842447 132 129 112
181.038905655983285 -3.443496164624777 -55.989676915031538 126 123 104
180.296255540027062 -2.885092762185887 -56.527014651252529 128 125 106
178.479419858979554 -2.715063276937426 -57.765915701427019 130 127 108
174.317891405956146 -3.400888811304684 -60.534927258852321 127 124 105
173.868762772073183 -2.760482836109666 -60.880952104904168 128 125 106
173.126878986943865 -2.229633196210974 -61.418372826446330 130 127 108
174.828807979114799 -0.800285385533409 -60.362681773986480 129 126 109
169.102549941042810 -2.125224764822150 -64.150295500227259 125 122 105
165.623822604935583 -2.639788623503937 -66.471707459557877 132 129 112
162.926875120456231 -2.878550268167319 -68.283088111566457 130 127 110
160.131875095781282 -3.169772286075304 -70.157879648386256 131 128 111
156.162831974772075 -3.927025760228000 -72.796522515355122 132 129 111
151.117011760548564 -5.122810538430904 -76.134972622926711 133 130 111
148.711923044158908 -5.319142662555571 -77.753837602789474 134 131 112
153.841758552106796 -2.573978629223288 -74.471528662769686 134 131 112
153.688592158285132 -1.886074651955622 -74.627053096028135 133 130 111
147.270934494453741 -3.691395635872008 -78.854970996489016 134 130 111
147.117793427463397 -3.022561870720215 -79.010311246743413 138 131 115
144.453147622952372 -1.198698956249459 -80.969235427409131 137 130 111
140.382651717868868 -2.164718911466154 -83.668053576883523 137 131 115
130.217560398238561 -2.965195939860383 -90.547910821981162 141 138 121
126.830243311950341 -3.744988311058993 -92.799464116257894 140 137 120
122.755354040730268 -4.843265955554908 -95.494819099595503 142 139 122
119.660890988882954 -5.535084232146732 -97.554801666917911 141 138 121
119.753778873067176 -4.182274050274050 -97.613164067114099 139 136 117
116.953293942658505 -4.777099118880201 -99.482206505113652 138 135 116
117.786573146628385 -3.753411423276309 -99.004510672394389 137 134 115
115.378750709456455 -4.191620107041155 -100.619578092668604 135 132 113
115.820277805097106 -3.345341105274486 -100.396078777012264 132 129 110
110.463626697991955 -5.154313010386670 -103.912093262493755 133 130 111
111.593748593605795 -4.001230111154637 -103.245161231037429 139 136 117
102.054865127209055 -7.186301399797570 -109.513177260659319 142 139 120
104.270214794312636 -4.305290259084032 -108.274612059455677 139 136 117
97.382057069473959 -6.390604837379663 -112.828856653348652 141 138 119
98.910600623758995 -5.052796998625556 -111.910994104643947 141 138 119
101.721406316866336 -3.080438894954151 -110.171927608606381 143 140 121
96.506377431635244 -4.431930644218115 -113.649543867734025 146 143 126
96.954491568921014 -3.613245880494904 -113.428911728867860 144 141 124
90.992869572539703 -5.991603131048622 -117.314802554713850 143 140 123
95.190002177759936 -3.302764968759250 -114.694300801785545 144 141 124
88.491176161126361 -5.517985944348599 -119.116066074261411 142 139 122
222.325622010683844 -4.155589486446107 -29.173038899215243 122 120 108
222.361454521182878 -3.211088192577126 -29.199903275708948 124 122 109
214.356237038786986 -2.948456611479052 -34.574225518918098 123 121 108
202.792117962818736 -4.858538725340324 -42.214536462253164 127 125 111
202.730989175114644 -3.998998414717821 -42.304999224881186 128 126 111
201.887744183817830 -3.396535669261845 -42.905525127421242 127 125 110
197.364525393902056 -3.153366373619958 -45.954503417602041 129 127 112
194.173162684854191 -3.364066728638757 -48.083940794444061 128 126 111
196.599541387458032 -0.819717968644670 -46.610289070705903 130 127 110
186.184011179832567 -1.051998453168948 -53.597903712523760 126 123 104
180.837036357090881 -2.125639328138146 -57.126116430969006 127 124 105
175.489126604088312 -3.229778925795740 -60.653567943308332 128 125 106
175.235302403205367 -2.516612055007172 -60.872056955269215 129 126 107
174.393986115721589 -2.019348490805468 -61.472422675082242 130 127 108
173.202428138926393 -0.856039198952618 -62.355525454205889 125 122 103
168.636651275835391 -1.764110550987602 -65.372293809736334 130 127 108
158.718095754146475 -3.956400880200787 -71.912330762340957 128 125 106
152.874605173053794 -5.432897856206537 -75.753159668281626 133 128 109
154.975945386043549 -3.879788784364703 -74.446383971946005 135 128 109
156.293600545532570 -2.618710190969178 -73.648561095208834 137 130 112
153.686987904560738 -2.885000010708767 -75.392015380453927 137 130 112
150.000473881505542 -3.591437490354706 -77.833765619253143 135 128 111
146.018822105961647 -4.435798264209897 -80.465479909916723 136 129 113
145.767294908458837 -3.811345055003506 -80.684154626136575 139 132 114
136.611495266792758 -4.676257901301749 -86.826742546041260 137 130 112
137.232998778482454 -0.909657809739949 -86.719403662935861 140 137 120
127.739583316622074 -4.274265394474941 -92.896464487869196 139 136 117
124.342674762281291 -5.063262831306157 -95.143334504341595 139 136 117
126.157261170394449 -2.262891389864359 -94.155651008485819 142 139 120
125.319811868282699 -1.960497826523621 -94.755860786032741 141 138 119
114.730286948988791 -4.727335003309163 -101.745006373827465 136 133 114
109.457705602180056 -6.481625803379428 -105.190943519630906 131 128 109
109.506122807591979 -5.832446844516210 -105.220788469882763 136 133 114
112.217166099747871 -3.957114552437137 -103.543856132687068 139 136 117
111.383871592896114 -2.439087651124715 -104.269425559594850 142 139 120
103.987465182986142 -4.680702504304381 -109.133211272034913 139 136 117
100.879991989664759 -5.550922254384234 -111.185133456283324 140 137 118
96.092819367724559 -7.245995094004908 -114.309603607835101 141 138 119
96.934440731602322 -6.247072881753382 -113.835643712259952 141 138 119
100.840179508493080 -3.752427862409017 -111.406317877860147 142 139 121
95.215236814277162 -5.307230942243961 -115.129175529857889 145 142 125
98.927979333057834 -2.877596085365438 -112.828569534694367 144 141 122
99.379395058190468 -2.050166729893356 -112.609606876613043 144 141 122
94.489150114890421 -3.895771896123417 -115.794076962990289 145 142 123
98.800755746577053 -1.132456365036199 -113.118246461593628 144 141 122
222.932686834023173 -4.221299026287321 -29.795356903314882 122 120 108
221.008770760487494 -3.880744375966166 -31.095645246873005 124 122 109
221.633630687237883 -2.758755009081517 -30.740971984659382 125 123 110
218.533714957568350 -2.801082461851246 -32.805031544927630 123 121 108
213.766777677783011 -3.388194653447246 -35.950587010347107 123 121 108
210.175980656621903 -3.626548805494255 -38.332087266677348 125 123 110
205.113778905430763 -4.358897465372107 -41.667470883891070 126 124 109
203.091487750614135 -4.131949536236886 -43.030386399634097 126 124 109
201.363516618528706 -3.819746495067937 -44.202404524342398 126 124 109
202.971314465576086 -2.414357585517118 -43.212293718625261 127 125 110
199.772160039342964 -2.602289190671909 -45.338237934853993 129 127 112
195.297011961703674 -3.237135051679153 -48.290316353010439 127 125 110
195.335934894315528 -2.366474630488705 -48.317899095652848 128 125 110
192.626985691163952 -2.434860740127476 -50.125291927558408 132 129 112
193.001442113962923 -0.603601074817516 -49.990704017615712 127 124 107
186.070260428362246 -2.180413042689166 -54.529600368972808 126 123 104
185.325030138079569 -1.611044033421360 -55.065816633139860 126 123 104
179.472462061207438 -2.864350650319558 -58.904600306702150 126 123 104
179.316646701437975 -2.105826918113121 -59.059584408344932 127 124 105
177.982314323969916 -1.774270946247749 -59.976681633737314 128 125 106
174.682818226112829 -2.166558628010832 -62.163378083367832 130 127 108
172.955427746809789 -1.999618332029752 -63.334178727966957 127 124 105
166.102031947491838 -2.184375403480457 -67.924616701051178 128 125 106
163.784535477439931 -2.283883299645558 -69.475523286819140 127 124 105
161.073461459087923 -2.546516148519545 -71.279900135147898 131 126 107
156.001147185733686 -3.732311998053463 -74.605778396706171 134 127 108
158.798915407780129 -1.897813430121827 -72.859055761745708 135 128 110
155.245765632449775 -1.776413556144780 -75.262269460352229 137 130 114
145.151124842861122 -5.024107269889464 -81.818062912057769 135 128 112
140.501626501814286 -4.032561173993999 -85.036050686025675 139 132 114
136.104753261240205 -3.733627077773830 -88.035187384121002 132 129 112
138.122463567624266 -2.191064453544695 -86.799153752161686 133 130 113
137.282176247806092 -1.841852631844493 -87.398487755618476 139 136 119
129.191031974166606 -3.897057412477150 -92.707844262376824 139 136 117
127.508565333564690 -1.917098897665163 -94.029657509653589 144 141 122
128.644307424570002 -0.739532810922521 -93.365666178156488 143 140 121
113.088110959119007 -5.707842257971993 -103.499056508616036 140 137 118
110.864765345782118 -4.820107516017989 -105.105166725936584 137 134 115
110.322102479054692 -4.440247827066758 -105.514622066713116 139 136 117
107.603677014715132 -5.074684742728932 -107.311654842442380 140 137 118
114.778785326475358 -1.095987805015712 -102.803317076606987 142 139 120
104.936017465937994 -5.085983278882267 -109.139388134543765 141 138 119
97.068935063088531 -8.196869441401024 -114.212491758714293 139 136 117
99.001054916202818 -6.683421127705106 -113.046071143986552 141 138 119
97.468459982029088 -6.819396839812549 -114.085225473188189 141 138 119
106.591121016172607 -1.202718705825969 -108.419132003904309 141 138 119
95.501179164187448 -5.403614472992684 -115.597553900587144 145 142 123
100.811923456249119 -2.189353719133882 -112.295760866061840 143 140 121
101.860855799219962 -1.061297831315458 -111.700589300235094 143 140 121
97.114393268713954 -2.226175902457377 -114.849992581085388 146 143 124
219.720214297497989 -2.682840887887233 -33.041289227329457 124 122 109
210.516487400078461 -4.665412301531952 -39.038585406344964 121 119 106
202.429867407598181 -5.469738538029795 -44.362982234944184 126 124 109
209.352226467802780 -2.351691114265131 -39.946588765557266 124 122 107
203.882826410628013 -3.245606815232021 -43.528942557910938 124 122 107
197.625584887538992 -4.429973709328558 -47.618277012788582 126 124 109
195.007721404537307 -4.439042778137710 -49.358996636177267 129 127 112
189.082675734971531 -4.733979141995621 -53.283831149206208 129 126 111
189.712428532574847 -3.680976242695273 -52.930788507270620 130 127 110
187.684973790035826 -3.537961071768023 -54.290369818302139 129 126 109
191.212132772001496 -0.635153954944400 -52.127569664867337 126 123 104
180.716256505154291 -3.488514654600891 -58.938908047064302 126 123 104
179.320807833677463 -2.356139194679743 -59.945869569100125 126 123 104
178.968467541057265 -1.670809797177567 -60.227801160282382 128 125 106
177.631206172856650 -1.345436158121627 -61.143433528690707 130 127 108
176.688342331635511 -0.882779457786175 -61.805721905957313 127 124 105
175.351503156293518 -0.570711881404049 -62.721419283994550 131 128 109
161.086091835740348 -3.553855785209674 -72.051585605564014 126 123 104
158.805300892803047 -2.902865639353675 -73.627777243051924 134 127 108
160.625132423729895 -1.442612871920708 -72.517949596321557 136 129 111
158.400300718469055 -1.546302441992279 -74.002284758946587 136 129 111
152.030071841793529 -3.287977660960892 -78.142688681521605 138 131 115
148.071883364934621 -3.385158444611453 -80.793318832840782 136 129 111
146.384956232146351 -2.609554923724137 -81.989742280055907 141 134 116
145.146827690882901 -2.388857862870073 -82.840863079547148 138 131 113
140.351998768550800 -3.630530788213238 -85.966337556321207 139 132 114
144.746309667916705 -1.112160783859293 -83.216692739215148 135 132 115
142.224173562630568 -1.438534863720483 -84.889082947177371 134 131 114
137.230265351323055 -2.811783591238659 -88.139681968503510 132 129 112
127.726868864151712 -2.743371357743652 -94.569023472571189 142 139 120
128.123802631726790 -1.218926832201761 -94.442030444959158 143 140 121
114.555940935706104 -5.923982443476145 -103.201306534322100 142 139 120
121.144979929551013 -2.324561311902317 -99.073844448791931 143 140 121
115.400233044310966 -3.623673816026169 -102.852879022922366 139 136 117
110.395122265755290 -5.274336693479401 -106.095263211269952 139 136 117
109.553758615410658 -5.034239028320873 -106.692959135064740 142 139 120
112.283883790761280 -3.142042258829627 -105.025329099920214 142 139 120
107.475001961771724 -4.752179343144880 -108.140287927629913 142 139 120
102.392212707155508 -2.872636668565225 -111.825284718141660 144 141 122
95.289903888707144 -5.742813387200048 -116.379860067529336 143 140 121
99.224040464911923 -3.214983061559550 -113.964461236010379 142 139 120
92.728968403848398 -4.668101989392743 -118.269828631804643 146 143 124
214.442239148396226 -3.676634312113695 -37.490204142419259 122 120 107
207.973303167951286 -4.825882133749052 -41.700343962621787 126 124 111
205.053307148101965 -4.873902667970499 -43.628700123766578 125 123 108
196.686766751086878 -4.985800353989325 -49.158888160000913 125 123 108
196.232532790799951 -4.279491144308905 -49.503149010500209 127 125 110
193.311901034816231 -4.400724083309135 -51.430447425596270 126 124 109
189.206815168817343 -4.937827399955075 -54.117132910763274 129 126 111
189.879110644977089 -3.033562198820046 -53.793205010935196 130 127 110
189.566609552203516 -1.464027166091256 -54.103297111556884 127 124 105
177.305278038636686 -4.131091085817713 -62.067425330109103 126 123 104
180.945438570889166 -1.210895931399371 -59.848004829880097 127 124 105
178.364011029503445 -0.523420430692856 -61.613325166013851 128 125 106
173.564703156953271 -1.483144769940582 -64.739559166791651 132 129 110
173.311946866251674 -0.781421329377941 -64.958441270346782 129 126 107
168.017179002355391 -1.967428628832741 -68.399614089977518 126 123 104
160.589306412479118 -3.227626376748722 -73.258448709064766 132 126 107
158.798411459256471 -2.397661920915730 -74.516552756688469 135 128 110
158.744535975977612 -1.662985409959554 -74.609200189475075 138 131 113
154.732387912931301 -2.476792705089970 -77.226639663035257 136 129 113
147.345343746170897 -3.194548093925140 -82.110590091494714 138 131 113
148.679086602702910 -1.932892201391064 -81.320469456308956 139 132 114
147.089556465342127 -1.123808509693456 -82.452973035584307 139 132 114
143.173735047814091 -2.008698144205046 -85.004904275031919 136 133 116
129.140512777083671 -5.754560148924289 -94.105721346828375 137 134 117
130.474659691140971 -3.156281657907310 -93.440411424165859 139 136 117
124.420288730354471 -4.423052398520767 -97.404232466637666 140 137 118
116.774351407483366 -5.172093714473425 -102.496583909622132 144 141 122
111.161035982658845 -7.045441530518087 -106.110866181528394 144 141 122
111.810196631637751 -4.864867183651717 -105.889573733439846 139 136 117
113.951032400154361 -3.249752992298094 -104.602330825332643 141 138 119
108.831344950663109 -4.981466607656406 -107.899926515999425 142 139 120
103.815316430912290 -5.475736726363065 -111.259849910890267 140 137 118
106.358707529344244 -3.659707992863884 -109.723820667401611 141 138 119
106.427037177142495 -1.772535433419407 -109.886793836802781 145 143 122
98.067157197553371 -4.619472351738559 -115.281156176199403 144 142 121
100.118818861001728 -3.014858905443390 -114.062003477367313 143 141 120
101.174689135765107 -1.890309193296823 -113.470114903501354 144 142 121
91.353870878844930 -6.169812103697113 -119.702847646170909 146 144 123
219.518284101370966 -6.000882835976139 -35.016851054537284 119 118 106
220.346389625776652 -4.830688138280646 -34.538188221419716 122 120 107
219.495059594501868 -4.173676174381828 -35.135407771056123 123 121 108
218.149841573931496 -3.674948115988939 -36.049018128367834 123 121 108
217.002553868378413 -3.121368806624001 -36.836164511575703 123 121 108
211.406463412166090 -3.983817593597482 -40.469092840962077 125 123 110
205.216261586822895 -5.067413996571587 -44.480677253815912 125 123 108
200.349633565612805 -4.893794601830486 -47.697230487546392 123 121 106
197.857029774306056 -3.988213504023125 -49.396429986812905 126 124 109
197.204727857456731 -3.347295857464270 -49.866980467444762 127 124 109
192.437306898333702 -3.250979053032425 -53.019339420308341 130 127 110
183.525174899990645 -0.536489259832781 -59.093623925220925 127 124 107
180.497645060948344 -0.811297928734886 -61.079060716580528 129 126 109
177.667989464418866 -1.030722364245807 -62.938012195198070 130 127 108
173.351319295990038 -1.812482419962232 -65.742675870453581 133 130 111
169.727812994221438 -2.361558922245863 -68.105329697814739 129 126 107
162.379955127981191 -3.558193848608906 -72.892238485554998 128 125 106
163.217812678305449 -2.477571970039241 -72.417318970184937 133 128 109
163.461377034545507 -1.618766665633021 -72.320961667925474 133 128 109
156.959138515381625 -3.352662708003258 -76.509151589918332 133 128 109
156.210647726462867 -2.893909756581346 -77.042669416061756 137 132 113
149.844048760687599 -2.442946292796242 -81.318238691938376 136 131 112
150.137883895798183 -0.863269858078792 -81.253351046655581 138 133 114
142.334192332722580 -1.889689539720457 -86.378237091922045 139 136 118
128.659446798990871 -5.520986914491367 -95.208291937549745 139 136 119
132.388353968572346 -3.265643653171971 -92.913624984971818 137 134 115
128.060353467770597 -4.430932531256643 -95.708920413220255 138 135 116
125.323459134272198 -4.936212709989883 -97.498447220425845 140 137 118
128.912741926967158 -0.691321646184389 -95.490040514293213 145 142 123
119.501566527360808 -4.197376453180190 -101.483270945956860 144 141 122
113.430915817256405 -4.363291119436354 -105.561494361673766 139 136 118
110.890850843148627 -4.894526234139146 -107.223198722701767 139 136 118
101.470725751852967 -7.414553869037820 -113.333156210478592 141 138 119
105.971968759389512 -4.081697678310810 -110.643051262867829 140 137 118
104.229679295925706 -4.295870816310101 -111.802801292482997 140 137 118
103.343190686090225 -3.501232372893157 -112.495476642061249 144 141 122
101.201154490665601 -3.930452369982974 -113.905211159654471 144 141 122
92.228369151479512 -5.967381203656202 -119.790711690455296 145 143 122
91.285397259811901 -5.858857657594583 -120.449303106300562 144 142 121
221.400080536912895 -5.675451519114582 -34.811856997864567 116 118 105
222.330169499759791 -4.471584646944296 -34.271470411814164 121 119 106
215.173221558864469 -4.847502082491266 -38.936440141040009 122 120 107
214.320242988850282 -4.211226337184960 -39.532657587079228 123 121 108
209.640767999061325 -3.900626121771722 -42.618436432094200 125 123 108
206.349609043981104 -3.190956884383402 -44.820464338396363 123 121 106
206.588824779147615 -2.232611575350124 -44.723051285993364 123 121 106
202.265365050023121 -2.779036650659160 -47.526889279860171 126 124 109
194.013592616841436 -3.811252634402993 -52.880790848193072 129 126 111
193.955819655907590 -2.984353924281223 -52.972523030453459 130 127 112
185.885716935825769 -2.419519800255103 -58.318915120949583 126 123 108
177.728507517381331 -3.668753674444348 -63.604962552310639 126 123 108
179.361215477884485 -2.281178855614885 -62.626585290101161 127 124 109
180.100785126119661 -1.206611641631639 -62.215441740490775 129 126 111
176.369331620983360 -1.754617658301479 -64.637323899739528 130 127 108
172.140359597719453 -2.505810770826544 -67.373397823019161 131 128 109
165.072079378919511 -3.561372093231824 -71.962931085696283 128 125 106
164.023085424400051 -3.186195441114364 -72.684405589382493 128 125 106
153.217000172209225 -5.032876173103117 -79.690279973679708 131 128 109
158.232325379738171 -0.855493412815759 -76.700508900050806 132 129 110
147.223792234914185 -3.009870217090583 -83.828083406041259 135 132 113
139.794285644947934 -2.480402708488539 -88.815417133542837 139 136 117
136.104894447074571 -2.626908111230666 -91.261554603924480 137 134 115
128.873321121215611 -4.996044655380520 -95.870306599185966 137 134 115
126.678041429200491 -4.592854580768496 -97.373996910469145 138 135 116
119.242232147347593 -7.137713157000266 -102.104952099135005 141 138 119
117.394899414567107 -7.294828541820152 -103.325895997804537 143 140 121
124.487338354524780 -2.887893866326107 -99.004135323869832 145 142 123
117.998417191599700 -4.458411392467695 -103.200377960581136 141 138 119
115.859045635597397 -3.496569781734888 -104.736565013399542 139 136 119
99.312036650476230 -9.244243072451697 -115.274802726472075 140 137 118
100.766006495546378 -7.972815020112721 -114.431439975328857 141 138 119
101.720790838217440 -6.926793150421374 -113.901242796432541 141 138 119
102.075868686276394 -6.157918900113875 -113.746448575985227 141 138 119
104.535653976082855 -4.386998115691776 -112.280817166367228 139 136 117
98.134942194550263 -6.242643506569319 -116.405465019512121 143 140 121
103.004199353071172 -3.295282572517075 -113.444013144270286 143 140 121
97.145876697595980 -5.537782082960570 -117.159002702852320 143 140 121
89.852073453876599 -6.803932935399146 -121.971055474373927 143 141 120
221.539711061472900 -4.957860689488430 -35.772913364460521 121 119 106
216.511056524056585 -5.582660654417380 -39.014594021578290 120 118 105
218.239905907936588 -4.142126752846022 -37.971896736289693 121 119 106
213.191879722452541 -3.017171722595131 -41.333180055459650 125 123 108
212.578594759660859 -1.422037367115315 -41.832218345115962 123 121 106
206.155843101507571 -2.623858393249702 -45.953052539471315 123 121 106
202.716185374035462 -2.878908402843300 -48.184967687150362 128 126 111
200.470027300596769 -2.756540809168643 -49.661427308287614 128 125 110
196.532306337337218 -3.213087087937672 -52.207291033464486 130 127 112
191.698432018129409 -3.994119390645706 -55.318827931544405 130 127 112
191.342598769142626 -3.276937770446939 -55.599416375303150 129 126 111
194.272187725393707 -1.433368833797146 -53.804990808683897 129 126 111
183.307896911651426 -3.567103946004114 -60.843084284599229 124 121 106
175.981830148817608 -5.328385093763965 -65.523746789384262 124 121 106
181.104493138576004 -2.716239521864871 -62.347496200322155 124 121 106
180.451464826591518 -2.139292028789701 -62.817040699085595 126 123 108
180.297006786357002 -1.386120172721610 -62.972619048191689 129 126 111
176.555733604054979 -1.935639835100030 -65.389787926827807 130 127 108
171.916893795935550 -2.834270150854363 -68.371700401224672 130 127 108
167.866701452349275 -1.992098466701329 -71.098844329826051 130 127 108
163.425305619797825 -2.891721628601193 -73.953485335648281 130 127 110
153.342627702444588 -5.224378139718358 -80.413561837107295 131 128 109
155.284415761080140 -3.740382760653509 -79.251463284909107 131 128 109
150.787139812177088 -4.017253835692032 -82.196640619604040 133 130 111
150.135625876885513 -3.544899393827055 -82.665832962167372 136 133 114
143.338229808642524 -0.546552991927575 -87.426685182672372 136 133 114
136.389188752566469 -2.750665836668502 -91.839721664435871 137 134 115
132.939162391015373 -3.515950358099047 -94.061424392962010 137 134 115
131.989770689968424 -3.237134545859115 -94.718697497848751 137 134 115
126.236898451072506 -5.019516596712224 -98.378011509502812 138 135 116
124.886609291273132 -4.937129045827573 -99.284910249194525 142 139 120
122.034570466810237 -5.513425032719962 -101.129480210136791 144 141 122
119.285903430270139 -4.768774471362123 -103.037100046500200 142 139 120
119.146529587485446 -2.891023818615687 -103.322329363376639 142 139 124
110.785908514392077 -4.789059962295887 -108.726104678541219 137 134 116
108.733696056911384 -5.113129092123741 -110.069034050256306 140 137 118
105.904278829953682 -3.360904957882896 -112.170112503100569 143 140 121
102.444715748885045 -4.406495901452487 -114.384367562881778 145 142 123
100.190613969723188 -4.889973709951070 -115.850790671354588 145 142 123
103.568457795514917 -2.652674665524704 -113.831426019944956 142 139 120
97.693073744915921 -4.912854532006664 -117.538071472794798 139 136 117
90.926310082465491 -6.498338706628404 -121.933817805627598 142 140 119
220.841644961265246 -5.413508477095170 -37.208012882043420 121 119 106
208.564482573448345 -7.377352493848132 -45.060947375426309 122 120 107
212.332064270077524 -4.429770399679157 -42.791907746080341 123 121 108
211.018760036924732 -3.065874539507467 -43.729691156707986 122 120 105
211.459628893308150 -2.034581524964064 -43.507781383823783 122 120 105
206.116658146697432 -2.884686747951017 -46.929351718405400 126 124 109
202.169283972285029 -3.305859521982717 -49.470961497709595 128 126 111
198.720213599634235 -3.583719452118774 -51.698138874228079 126 123 108
196.966935268107761 -3.313958083697798 -52.857613248011120 128 125 110
193.217974623027402 -3.726157216898457 -55.272517979995172 127 124 109
187.572273607727766 -4.803454925665249 -58.879501240082078 128 125 110
196.798328348479515 -0.817930763551173 -53.135221793461227 127 124 109
190.054538280888551 -2.295459002064261 -57.432210975090214 125 122 107
188.301702346027298 -2.072922445063274 -58.591410881213847 123 120 105
180.657071547169494 -3.927590406265899 -63.451288820488287 124 121 106
181.844924500650990 -1.889721308834838 -62.821082678046821 124 121 106
178.293826945135606 -2.354868706320040 -65.108381640936727 127 124 109
175.941313069306261 -2.405557292510919 -66.643038541492587 130 127 108
172.029274560880026 -0.684357628000739 -69.334464182949944 130 127 108
169.576909030315022 -0.821654815466848 -70.931319773222185 130 127 110
162.818921382371570 -1.083883914354066 -75.344885450554330 131 128 109
160.565953411622559 -1.196099783121574 -76.815672554737120 132 130 109
155.810382713003037 -2.297397459405706 -79.850514099205952 133 130 111
150.453010671744096 -3.661730806714566 -83.259901695381672 135 132 113
137.624583122353300 -3.169055966111185 -91.761270087058023 137 134 115
136.773346745361977 -2.831746129840777 -92.355243585978457 138 135 116
130.705958854412444 -4.696851062615643 -96.195819534340870 138 135 116
128.750529673678955 -4.851620848889898 -97.475933492177916 137 134 115
119.573412431421417 -5.523066086758792 -103.499455719393154 145 142 123
118.722214477455466 -5.253155612750051 -104.092753824262871 143 140 121
116.116031530425971 -5.130595021534763 -105.840416306238779 143 140 122
117.477575969689070 -3.881238714455516 -105.063469247123834 142 139 124
101.665343713905941 -6.812180175956184 -115.317062355107765 142 139 120
105.550786996907362 -4.376418986587522 -112.988279990076194 144 141 122
108.128937195209119 -2.539599194753522 -111.469093393629038 143 140 121
102.845988145304176 -4.448549840343492 -114.797619789403882 144 141 122
103.632062544620140 -2.252424486090527 -114.531127599586256 140 137 118
212.963764617974562 -5.366690079142125 -43.306184612138907 122 120 107
214.188498488273012 -2.299989962215785 -42.704212448409521 123 121 106
211.731655698222681 -2.195767523283773 -44.301412215934306 124 122 107
204.974461784931066 -3.502458826990574 -48.593747554115708 127 125 110
196.658033893036247 -4.509914831180321 -53.916973039528472 126 123 108
199.402283223927839 -2.747181541037737 -52.254767319351402 128 125 110
196.244213660804348 -2.952796135944485 -54.289325488447531 127 124 109
190.483823038847333 -4.057744807471428 -57.952015893502676 129 126 111
193.230151365572738 -2.287715737643742 -56.290879856931667 129 126 111
191.318065574644436 -1.272438390340970 -57.603773026809932 124 121 106
181.640910461732574 -2.209298807661819 -63.828782338597222 124 121 106
175.776201860301569 -3.503138773280197 -67.550481911783692 128 125 110
181.633736748406648 -0.594337947008682 -63.952832947077383 130 127 108
169.342073765182988 -1.158092953232197 -71.924101109771698 130 127 110
162.517898612034514 -2.204450949904329 -76.297931478828048 131 128 109
158.854107313557051 -2.852460584980472 -78.640294733413526 131 128 109
160.408231376900858 -1.503751061830773 -77.734782029073898 133 131 110
153.833107163498312 -3.311154885607566 -81.887347032253132 133 130 111
152.075148014386627 -3.266040006765332 -83.042269719777977 135 132 113
142.937950948101104 -1.205630459361851 -89.223868860934630 138 135 116
120.672492954331858 -4.628235534982791 -103.591027474932588 143 140 121
120.122525578805593 -4.224188367574025 -103.997237337604076 143 140 121
115.339070478761144 -5.710623379598760 -107.014774667937758 142 139 122
112.671490423704597 -6.274328540025079 -108.726000905753267 141 138 123
102.971093816531791 -6.428279051775000 -115.169668221150431 142 139 120
110.000973181420008 -2.511335391286590 -110.923794422191435 144 141 122
105.836443930956435 -2.642875327825900 -113.697075948514794 139 136 117
221.611697559255788 -3.837388947485907 -38.812074929620707 122 120 108
220.050448983139404 -3.408443014091923 -39.843336477022802 122 120 108
205.442741472282023 -5.334139523559949 -49.131493196610194 123 121 106
194.682240709816313 -5.402925199312486 -56.066616926572493 126 123 108
202.695963421321011 -1.034248268179400 -51.187471480583383 127 124 109
200.533842942532999 -0.901786811257959 -52.593379415229379 130 127 112
190.442710092690447 -3.484046700010868 -58.935982928090169 132 129 113
193.800360584646455 -1.500151464693225 -56.904349442284143 127 124 107
192.842560715712182 -0.992417918377106 -57.559956473709576 123 120 104
183.952452041279571 -3.260181011150528 -63.150056489785158 124 121 105
183.094495640266871 -2.749515459846300 -63.742599589709215 124 121 105
181.031548813029417 -2.670921069396302 -65.084538493622006 124 121 105
178.667180045886994 -2.711340976982926 -66.613629755476325 127 124 107
180.723692640556976 -1.171232408837599 -65.396133744397787 131 128 108
173.281881627870689 -2.284907387163656 -70.138949617343314 129 126 107
172.324588368288516 -1.853200261593283 -70.794016430805129 130 128 107
170.362150725126014 -1.800054716021999 -72.072917741197500 131 128 109
170.612082109465689 -0.929209959907807 -71.979730331481136 131 128 109
167.543564168328885 -1.308416209017205 -73.944483938556232 130 127 108
164.776405257871716 -1.589952998021969 -75.721835378992552 132 129 110
156.423206191842951 -3.285588959187856 -81.020385878731645 133 130 110
160.801018709230789 -0.845179593518927 -78.372904689141393 135 128 110
151.237282075036603 -3.108360299777879 -84.416802761520074 138 133 114
154.208645069897443 -1.202730877262216 -82.643000571539801 141 134 116
143.184034931443080 -2.053743386613585 -89.776300082326486 136 133 114
126.397664542115820 -6.974802690039203 -100.319395758035967 142 139 120
127.059659534761565 -4.711045860163660 -100.105099455050038 142 141 121
123.900765892250760 -2.789072835334606 -102.382881485411133 143 140 121
111.274380987737445 -7.129697273054776 -110.266001498816962 142 139 120
102.475329650013663 -5.689760549695756 -116.270404904212938 142 139 120
96.510738093900812 -7.346886474229558 -120.051440214295937 139 136 117
98.295246268402735 -5.902962577923904 -119.035404798577218 140 137 118
218.531218688278557 -4.123279779149678 -41.769796975612479 121 120 108
209.470981749075065 -5.171602719554418 -47.512778292895860 120 121 107
200.840286231055018 -3.615675234699666 -53.155480956857559 129 125 113
200.080215295542615 -3.011941191453639 -53.684951243774407 126 123 109
204.552382230939230 -0.661857743774325 -50.970820229369508 128 125 110
199.265633696828047 -1.578306715776813 -54.307745283239910 131 128 113
194.883705601902250 -2.216148545895138 -57.082671212739086 131 128 111
188.085270417491188 -3.706602137866641 -61.353385310632831 127 124 107
188.278399740031318 -1.995290886869273 -61.352534218019116 125 122 105
182.484669730626763 -3.207131480200164 -64.998174882148248 124 121 104
181.020752192779696 -2.918186858319484 -65.963699275885034 125 122 105
177.844434528330964 -3.248054438668055 -67.988248617457884 127 124 107
174.768456250905473 -3.559239095894700 -69.950133405640770 132 130 109
176.730699062880547 -2.061590735127061 -68.797960874326492 129 127 106
170.631091050469820 -3.496498935785449 -72.627551058099186 129 127 106
169.671183314417135 -3.073996754838829 -73.281272363860069 130 128 107
169.820660576623141 -2.245235788896036 -73.250453741769945 131 129 108
164.473542330343093 -2.708982232453392 -76.674016911732821 132 129 110
161.849425504607950 -2.191196133911867 -78.417168142299289 133 130 111
154.532585304415250 -2.786530429921132 -83.114246279692310 138 131 113
152.261403831488167 -2.945641370982088 -84.575837392326605 139 132 114
147.364122814570123 -4.156879648632156 -87.652612417344898 141 134 116
143.482272536428866 -2.172742773458795 -90.361186549491634 136 133 114
132.534965637151629 -1.930776573431107 -97.542718243848327 144 141 122
130.363446905598749 -2.192664039369172 -98.940070855019258 143 140 121
129.812553170950139 -1.760857176308353 -99.346123295154513 145 142 123
127.235517913740580 -2.219550906133499 -100.990887904386312 146 143 124
123.847127281325001 -3.050210562083183 -103.130545130439572 143 140 121
111.185918287933518 -7.396237498345611 -110.996949808461636 143 140 121
105.368525024246750 -8.184496387154443 -114.746489077047300 142 139 120
117.058484965313937 -1.587857250354876 -107.768915482592718 142 139 125
99.520049548667387 -7.314114959071460 -118.719949709856522 146 143 124
100.596717334787044 -6.212194023310822 -118.137777664772472 143 140 121
99.030245947090904 -6.367032088691972 -119.160531455049835 146 143 124
100.782119891317237 -4.339279501993006 -118.245752462349131 142 139 120
218.210077103530693 -4.464476014839961 -42.942958457039765 120 119 107
218.253538730752496 -3.550720106773107 -42.973156099121979 119 119 107
204.866242616461051 -3.401312388314683 -51.536206918821591 128 124 112
194.859896455290141 -3.307107977141747 -57.946922284497759 130 127 112
186.529900210859950 -5.294941283638666 -63.142706315573747 131 128 111
190.007320488313070 -3.290026006616645 -61.057727769541430 128 125 108
188.539871248480608 -2.970615514864999 -62.021876209657336 125 122 105
