ply
format ascii 1.0
element vertex 684
property double x
property double y
property double z
property uchar red
property uchar green
property uchar blue
end_header
22.907698373804280 -1.347275316474204 -70.600959159158180 141 138 119
22.548485863508105 -1.050366878031592 -71.097322662743636 142 139 120
22.006718561053077 -0.903388414514098 -71.837385929716902 142 139 120
21.160600791682867 -1.007401862656058 -72.983559815312248 142 139 120
20.192751439622356 -1.217840637556439 -74.292120009498603 139 136 117
18.616023110863949 -1.935121553921890 -76.412766256722136 136 133 114
18.500722289561153 -1.463408071926449 -76.584180092708664 133 130 111
18.446436947066829 -0.941935645084798 -76.674436833509162 133 130 111
17.661470111306699 -1.028648215876475 -77.739184317836987 137 134 115
15.902087697710201 -1.937334471819925 -80.103055900407128 138 135 116
177.319692247112528 -0.531902511572134 135.550022519097666 135 134 129
152.681594364508271 -1.495705626639735 102.559735495569043 157 154 149
146.583197373116718 -1.670702173325121 94.393100548013763 158 155 148
143.717010438448455 -1.723707901137606 90.554452576414405 154 152 140
139.447402598155463 -2.385841141320542 84.843712057854873 151 149 137
137.069306154086433 -2.291070646804116 81.656913213058033 150 148 136
133.531852151342321 -2.709882339082769 76.923714796347298 151 149 136
131.702890598669029 -2.427041042945356 74.470005758827995 155 153 140
129.812907184125777 -2.186993257511508 71.935070981044760 153 151 138
128.533115149192014 -1.696562453044803 70.214234269825454 152 150 137
127.009251382984843 -1.325571709693161 68.167954555108224 150 148 135
124.509069561595496 -1.404468075905009 64.819630806747000 149 147 134
122.130921977954529 -1.450558305839005 61.634306377145066 147 145 132
119.203580116758488 -1.768103393103049 57.716778864374618 147 145 132
116.886442269334708 -1.830904116599055 54.613298480515624 145 142 127
115.850765139043347 -1.318991890123957 53.218892456285118 144 141 124
114.082837076646967 -1.159776257891876 50.848116632205972 145 142 127
112.803101587234423 -0.785179829226633 49.128445211223436 144 142 127
110.180867543793852 -1.063538094346287 45.618846219217090 144 142 128
108.107845943379019 -1.100318643155893 42.841749160501877 143 141 128
106.339953172125149 -1.007020013089988 40.471634970078270 143 139 128
104.938222809318887 -0.749605980320446 38.589813925791333 144 140 128
103.414460966669168 -0.565147433526804 36.545405520798511 145 141 129
96.099048922796570 -0.589216176367676 26.742255128657490 144 141 126
93.598919625850002 -0.983370022111486 23.397151356391447 143 140 124
92.075257556528172 -0.889839073026939 21.353631183621872 141 138 122
80.983038778191698 -0.849498690950906 6.483378326889863 146 143 124
79.581632762748683 -0.797755493198621 4.603519189161091 145 142 123
77.875077674275602 -0.929906334254007 2.317240811125913 145 142 123
77.145125243676844 -0.524002637365164 1.331962762150567 145 142 123
75.438625169575715 -0.681999691013658 -0.954075886521309 146 143 124
73.915260323002997 -0.749739259166502 -2.996078211186017 146 143 124
72.147765824499388 -0.972465599945669 -5.363129930145988 145 142 123
70.685489581838013 -1.032534506837948 -7.323576906576960 145 142 125
68.551792370230885 -1.500680805371356 -10.178065581435362 146 143 126
67.272686687897419 -1.480941284688747 -11.894385579546935 145 142 125
65.993614488848067 -1.472470941473719 -13.610605596642102 146 143 126
65.141882310697710 -1.218103047198096 -14.757782567514425 146 143 126
63.496615783860946 -1.452311469904362 -16.961471768479015 146 143 125
62.156599753739584 -1.514630276077788 -18.758666682331750 145 142 123
61.182897170171714 -1.363440896503038 -20.068149130888600 142 139 120
60.270287630733421 -1.182967254077215 -21.296300835055717 141 138 119
58.991430061913945 -1.239038139436561 -23.011959175228753 139 136 117
57.529454869064168 -1.421438480581371 -24.971290953950927 144 141 122
56.800126095647329 -1.153083736262509 -25.955451497916840 146 143 122
55.948747255665069 -0.968889558623626 -27.102075171240074 149 146 126
54.792148617917334 -0.988010538581254 -28.654884339066655 149 146 127
53.696644012924523 -0.977820106636327 -30.126363514917358 147 144 127
52.479066709876264 -1.056660542069468 -31.760244860846285 147 144 129
51.139408325286510 -1.226156972031749 -33.556507637972345 147 144 129
49.799779391864433 -1.407408847758524 -35.352663499727328 146 143 128
49.009729622992538 -1.235598138328128 -36.417640436271597 145 142 125
48.036547060267182 -1.193065734024257 -37.726253200185965 145 142 125
46.758089933386046 -1.364410579887898 -39.440916537625526 145 142 125
45.662860560570692 -1.422903159763967 -40.911820394862502 146 143 124
44.201266692472629 -1.740695797053796 -42.869940937119281 145 142 123
43.655727066850233 -1.442894634513237 -43.609752031427604 145 142 123
42.316337643605223 -1.697922012022454 -45.405263065728917 147 144 125
41.526624522606696 -1.582729404455700 -46.469818254896865 146 143 124
40.248373669596290 -1.816057709951179 -48.183942246161337 144 141 122
40.252745078355446 -1.157901955678718 -48.192808240935562 146 143 124
39.524286220820514 -1.018559010407266 -49.176056966420106 146 143 124
38.368329228635162 -1.190191319560458 -50.727603219557835 148 145 126
37.090241871724459 -1.459512273363445 -52.441434936385747 146 143 124
36.423015297662104 -1.299252443605658 -53.343333399476165 145 142 123
35.389338420467880 -1.410793971227323 -54.732278815244854 146 143 124
34.416788430136492 -1.486697767953912 -56.039975076309787 144 141 122
33.016651970118374 -1.885302825578157 -57.915805904173965 145 142 123
32.105263844414452 -1.934819487348248 -59.142174522746728 144 141 122
31.743770138352886 -1.583237680613456 -59.638009490542743 140 137 118
31.076879933293199 -1.463188441963891 -60.539654963596632 145 142 123
30.348954815211528 -1.394813652422638 -61.522428517327825 145 142 124
29.315582739340144 -1.563988247614049 -62.910926502887776 144 141 124
28.832178888423215 -1.323282276194512 -63.569016544426745 143 140 123
28.043322996530236 -1.320666465884908 -64.632823019532566 144 141 124
27.315629817434512 -1.277728252960298 -65.615445700618267 141 138 121
26.587995541321092 -1.241002330890220 -66.598032614458248 141 138 121
25.921533961715468 -1.162847510982296 -67.499451900162171 141 138 119
25.071786458577904 -1.234084699594358 -68.644226716069568 145 140 121
23.977608791343613 -1.505375492892936 -70.113443266740148 145 140 121
23.433555374100976 -1.349999868717076 -70.852499300428263 145 140 121
22.645076386648526 -1.394121633103587 -71.916004991991230 144 139 120
21.856648971634016 -1.444986569018593 -72.979465944779690 141 138 119
20.701486541302543 -1.798338787886724 -74.529521779265849 142 139 120
19.974276557147164 -1.814772581929467 -75.511764473261110 140 137 118
19.919631666175064 -1.289105571462452 -75.601892384258690 137 134 115
19.375989332587110 -1.164496435893730 -76.340828384035092 135 132 113
19.260427746321184 -0.691615654200419 -76.512129486559303 135 132 113
17.983196217209624 -1.182187541145763 -78.224093181471062 136 133 114
16.522508795038789 -1.836777827715536 -80.179180536955755 136 133 114
167.746486767934925 -0.817222570874270 120.732443287754137 142 142 132
155.746125294497290 -0.711127770127210 104.743941551355704 158 155 150
147.417841884413519 -1.761572288704012 93.662168191716717 157 154 146
143.866259233350661 -2.091258338587128 88.934811456922688 155 152 143
140.927268567159814 -2.198792837870424 85.020694948050590 153 151 139
137.253106810959196 -2.640098062157847 80.131410819382381 151 149 137
133.946494056264612 -2.958541803908164 75.730181142808931 151 149 137
133.274182621240300 -2.180568890483997 74.824356828690696 155 153 140
132.663148311534883 -1.382193702519755 73.999866621919722 153 151 138
128.927657041095443 -1.952133416894697 69.030387537149778 153 151 138
126.907549210405833 -1.799391664800984 66.336884749040763 153 151 138
124.458585617128605 -1.855435202250263 63.074682025185780 151 149 136
121.948351065921145 -1.960738734013390 59.731439290532478 149 147 134
120.173301959899405 -1.754650141905793 57.363587662391836 148 146 133
118.336992835881190 -1.592396535027321 54.914634947482227 147 144 127
116.868291187602949 -1.276364467623975 52.953390466808571 145 142 125
114.419326149855692 -1.431234344435460 49.692205703140246 144 142 127
112.521770129981604 -1.347818292110233 47.162505922904444 143 141 126
110.808027479345228 -1.193749177297898 44.876719844181025 145 143 129
109.216834842305857 -0.996014184838843 42.753574554045485 143 141 128
107.319311227982595 -0.960873271145009 40.224356191358538 143 139 128
105.850687465929468 -0.732751525039688 38.263979355281293 144 140 128
104.198272061643308 -0.608356849916035 36.060018870951382 145 141 129
96.976061808993450 -0.570200031984783 26.433358312242973 143 140 125
94.588453424145101 -0.900690227191443 23.255487369222635 141 138 123
93.119958880403829 -0.774334052886997 21.296096239701001 139 136 121
91.712763410744813 -0.628815337020015 19.418041478507860 142 139 124
83.574190006692220 -0.690220609455267 8.567907479205246 145 142 127
81.676917748768531 -0.894088454360943 6.041029105698243 147 144 129
80.269899233775149 -0.842464086590823 4.163856191693043 147 144 127
78.740349381433759 -0.871823102207241 2.124417682279670 147 144 125
77.517232309551204 -0.741807559536256 0.491036683269442 146 143 126
76.049022007292905 -0.761901880788690 -1.466982937882136 146 143 126
74.764689252113754 -0.689583028910704 -3.181343547730847 146 143 127
72.990119683355346 -0.911591902457756 -5.545017962582847 147 144 129
71.215569802363959 -1.149214163850567 -7.908541079550616 145 142 125
69.134610578790358 -1.582054312499355 -10.677763966130073 145 142 125
67.605240925700699 -1.707475610743267 -12.716299864915186 145 142 125
66.566199229588477 -1.554625407148443 -14.105400286611001 146 143 126
65.833643698968416 -1.227201134144887 -15.088625193324134 146 143 126
64.610823319906132 -1.202201140156225 -16.721067151364650 145 142 124
62.836422050270158 -1.523399412978862 -19.083801073624812 146 143 124
61.613665590967571 -1.522260213396679 -20.716027999515887 142 139 120
60.636118378185117 -1.380552826991716 -22.023573587715674 145 142 123
59.658617292030783 -1.247376988935331 -23.331053423223267 142 139 120
58.313389696881018 -1.352891110345958 -25.125310511150872 146 143 124
57.642458028530839 -1.045232632300027 -26.026953718167533 149 144 124
56.848989840823904 -0.821185016037002 -27.090832995582076 153 148 129
54.894415188762750 -0.630413496347991 -29.705219206299915 149 143 127
53.120273381579807 -1.064110665639079 -32.066919246852223 149 143 128
51.652659886196687 -1.313422983879287 -34.022864922374993 148 143 129
50.246375655940795 -1.535316555439652 -35.897573658128579 147 144 129
49.085343220975133 -1.607376946437034 -37.447716780611501 146 143 126
48.353503416165708 -1.403927763294011 -38.430007950219448 145 142 125
47.192557294412921 -1.494319585596333 -39.980003670016288 145 142 125
46.276892424936193 -1.429431396511486 -41.205503935629508 145 142 123
44.870776930437955 -1.705435398930072 -43.079736408143617 144 141 122
44.323084268107451 -1.407231438508921 -43.818521643271708 145 142 123
43.223618183027014 -1.493164868423544 -45.287116209428689 147 144 125
42.308144593963476 -1.461342050946952 -46.512367624455379 147 144 125
40.902164707106266 -1.779109679814930 -48.386235077212802 146 143 124
40.599988957759365 -1.335477896585177 -48.800536183905649 145 142 123
39.745990949636834 -1.283592691409214 -49.944544933448384 144 141 122
39.076021484928518 -1.108484658567404 -50.845284047069043 146 143 124
37.915500136318300 -1.289496272854657 -52.394550181838923 146 143 124
37.061657322693577 -1.260222760815121 -53.538400422380874 145 142 123
36.146536098096803 -1.282643408313726 -54.763262052126066 146 143 124
35.170129980867415 -1.357574380884561 -56.069123569068381 147 144 125
34.009761309012021 -1.575619162020856 -57.618081542884198 147 144 125
33.156110813889569 -1.577902877006895 -58.761698953547636 145 142 123
32.670551198708111 -1.314877847347050 -59.418987426130400 144 141 122
32.001043917152060 -1.193040496985760 -60.319399304691217 143 140 121
31.147568377142022 -1.214850997021945 -61.462899414272812 144 141 123
29.680674328857393 -1.706610378099376 -63.416693641408671 144 141 124
29.624818413470223 -1.140827339841153 -63.506655136903817 144 141 124
28.587446712293797 -1.324208511622593 -64.893093479997731 143 140 123
27.795527662520669 -1.328206806641508 -65.955366468564506 139 136 119
27.126377555513216 -1.244244675715779 -66.855559349544563 141 138 121
26.395932730057510 -1.213576589583138 -67.836739349864445 143 140 121
25.481459867654863 -1.332846218531683 -69.060914238642056 145 140 121
24.567029641271063 -1.459968783109254 -70.285028690133572 142 137 118
23.775377706967490 -1.498018155939138 -71.347078960975693 146 139 121
23.045149655233942 -1.494075853156947 -72.328087563187324 147 140 122
21.639864809523331 -2.035478058315915 -74.199985538208779 140 137 118
20.971096693021167 -1.997663461233298 -75.099886142388812 141 138 119
20.241011492835298 -2.015049870975067 -76.080743537138545 141 138 119
19.756516544246338 -1.839247764259600 -76.737643513206905 139 136 117
19.579036837037606 -1.416812010069642 -76.989662827820581 136 133 114
19.463062470209053 -0.945169059922287 -77.160753715916513 136 133 114
18.733278779932419 -0.980895843820963 -78.141566565288741 134 131 112
17.205394381287107 -1.685164582062238 -80.174854637221131 132 129 110
165.894861501958587 -0.744750033904664 116.296281995744067 148 147 137
162.513752170796920 -0.846844714971465 111.817605351513123 153 150 141
156.674013649179983 -0.776641068728893 104.078999534463264 159 156 151
152.308719540982764 -1.357296590968028 98.302337422481827 158 154 151
147.635853160344254 -2.100650819904289 92.120197146285477 155 152 145
144.869646197865450 -2.107400067322257 88.454960727344258 153 150 141
141.549857996319133 -2.366911269130388 84.059427517144229 156 153 144
138.660596810871141 -2.476330836810382 80.232398884019659 154 151 140
136.017348995063571 -2.507681819653273 76.730310238642119 154 152 140
134.911791458224116 -1.908002623327846 75.257572446942788 154 152 140
132.637580133508322 -1.820657550278268 72.242869520569940 151 149 136
129.563746813125874 -2.100764916037136 68.173319884628029 152 150 137
126.797445114895410 -2.273080764384789 64.509833047142649 152 150 137
124.830760794830255 -2.115463784127616 61.901581336419213 152 150 137
122.741058149292670 -2.030300627503995 59.131209204693619 151 149 136
121.758549406558245 -1.463197952915064 57.821658388014640 149 147 134
120.160948194093905 -1.185529349472317 55.700756141582616 146 145 129
118.317311752926869 -1.035357084729023 53.255433149404837 145 144 126
114.751345775400694 -1.702619662110445 48.538432193470385 143 141 126
114.076452633796549 -1.043818167617423 47.635069650212245 145 143 128
111.494683887627531 -1.294770671715287 44.216688982349382 147 145 132
109.835617802354207 -1.127126195800800 42.015464969080796 144 142 129
108.053538793296624 -1.033512688442142 39.652134185005963 143 139 128
106.271473812709459 -0.955617457892141 37.288958485878339 144 140 128
104.243363037371367 -1.014377657711215 34.601461374897838 145 141 129
102.953451905433823 -0.724934510488578 32.887534471923402 146 142 130
96.071564033448880 -0.565311632631580 23.761967851181083 140 137 122
92.507698213886812 -0.640613425107238 19.037868837140735 140 137 122
91.033394488465277 -0.539771455421212 17.081519430748131 142 139 124
89.313034401321275 -0.582570123170812 14.800925569951119 142 139 124
82.062669089727223 -1.107412353191892 5.193529526961072 147 144 129
81.019183081920147 -0.853118516762642 3.805511038472645 146 143 127
79.606585274311399 -0.813728824418693 1.931133176590720 148 145 126
78.255544281407381 -0.752157082127648 0.137937299490261 147 144 127
76.289266095033241 -1.050775513484544 -2.465812443914103 145 142 125
75.184393422365943 -0.875154633570201 -3.934512827006500 145 142 125
73.710388348984409 -0.921455926239353 -5.889490487993413 146 143 128
72.051823747552064 -1.087605438058297 -8.087518500213150 145 142 125
69.901037718866661 -1.555627970118686 -10.933833217547345 145 142 125
68.611702578803772 -1.535856493739428 -12.645259807080890 145 142 125
67.691598530438370 -1.308592114662182 -13.870307804424357 146 143 126
66.894609587273592 -1.015877995865303 -14.933209583301675 145 142 125
65.051582337141156 -1.359121030205034 -17.373745038838251 143 140 123
63.147035301958610 -1.755769192837129 -19.895158799185623 142 139 122
61.857871026031674 -1.793648181494233 -21.606073704338428 141 138 121
60.630280002977301 -1.804958637447736 -23.235859640943517 146 143 126
59.895040875165151 -1.522278935485393 -24.217340145611075 146 143 126
58.975236939314314 -1.361028620795563 -25.441852199825519 147 144 127
58.178566523488058 -1.130499788495729 -26.504266256696638 146 143 124
57.197322365354836 -1.023560227432968 -27.809685356220598 150 147 128
56.400759411117519 -0.807618208488533 -28.872000672949866 148 145 126
55.358069921436410 -0.756326888244448 -30.258310606100792 147 144 125
53.823049323988158 -1.031797611991616 -32.292598578359502 147 144 125
52.288051804235010 -1.320655718640790 -34.326759787850960 147 144 127
51.060826409989815 -1.421609842006741 -35.955797892723325 146 143 126
49.648982770938503 -1.654817950379173 -37.827730560153924 146 143 126
48.914248813651227 -1.451503644857954 -38.808635788773671 146 143 126
47.994911400356060 -1.377717731110002 -40.032470710762311 145 142 125
47.506518346915513 -1.022449675737348 -40.689353179996743 144 141 123
45.910158416133186 -1.420417744609344 -42.803894583651811 143 140 121
45.175646051604261 -1.245845180063523 -43.784609968309127 144 141 122
43.887143683279703 -1.457019945898539 -45.494057707299248 147 144 125
43.152738266779181 -1.297473073480314 -46.474669588529451 147 144 125
41.741181113342378 -1.613982749934965 -48.345881844808616 147 144 125
40.945311872494784 -1.512970635469831 -49.407346000403038 144 141 122
40.087931779792001 -1.462028482731665 -50.549727064962923 143 140 121
39.415317280316444 -1.287870031267978 -51.449191028499200 145 142 123
38.742768602226477 -1.119428840543238 -52.348627630123872 143 140 121
37.577689369307294 -1.309269376887221 -53.895622408133420 142 139 120
36.843679869417301 -1.198777967563433 -54.875918741988016 143 140 121
35.924995976990743 -1.228389994403995 -56.099001979175000 145 142 123
34.760037130899491 -1.445453687382896 -57.645774128203442 147 144 125
33.718275517969985 -1.582260157916795 -59.030591769359063 146 143 124
33.107651411100150 -1.409972103299332 -59.848833586377850 144 141 122
32.065983211779383 -1.562811324667803 -61.233530883125212 145 142 123
31.209123462317606 -1.586661676868871 -62.375391001282139 145 142 124
30.783464044170941 -1.294009667512994 -62.950781603270514 144 141 124
30.665866632724317 -0.772160508424845 -63.121612830114628 144 141 124
30.055599755776740 -0.625517476193438 -63.939761567605302 142 139 122
29.137403437625125 -0.719411311790884 -65.162416373704218 138 135 118
27.972840961147696 -1.010601143673097 -66.708615127011768 142 139 122
27.177936198636047 -1.026039964663719 -67.769341997757579 144 141 122
26.567912281428647 -0.904502576298795 -68.587348541350821 146 141 122
25.773126383373267 -0.932618592006086 -69.648001783711408 147 141 123
24.670324118496211 -1.209786033811487 -71.113031865137089 147 140 122
23.136226330063337 -1.837613325169130 -73.144134322906496 144 137 119
22.218311702115784 -1.988679244065251 -74.366335387659319 142 137 118
21.670176803023054 -1.851857242458291 -75.103247872662791 140 137 118
21.183745185341664 -1.669997491110347 -75.759283707255008 140 137 118
20.204359930195039 -1.890845436334966 -77.062218018127453 140 137 118
20.149499891051818 -1.368299770224670 -77.152210873411974 138 135 116
19.971497859784606 -0.946626646640525 -77.403972459846500 137 134 115
19.362136839244499 -0.880848446458521 -78.221722173598238 137 134 115
18.382988345996040 -1.125834615063531 -79.524521283691939 135 132 113
163.896068318606297 -0.745519553800527 111.709561478401383 151 151 141
158.154963460416610 -1.788190154937969 104.156942798385018 156 156 146
153.772302667467784 -2.347298148208948 98.388367049320664 158 157 152
152.971132332134403 -1.521239432503989 97.321975650258878 155 154 150
148.835414381177117 -2.042537265336402 91.878309632741264 153 153 144
145.502427457994656 -2.274082755180052 87.488802780608552 154 151 142
142.725181038076670 -2.306745233051918 83.829114338164914 156 153 144
140.318430684475715 -2.210098121088415 80.656004108504590 154 151 142
137.726412420648728 -2.212376285176645 77.239967044851909 156 154 142
135.443147191205753 -2.106629961107548 74.229406062145614 155 153 141
133.159875852095752 -2.021007799482406 71.219055150396684 151 149 137
129.950293928571170 -2.356213573568309 66.993296566645682 152 150 137
127.914024430837884 -2.206942759183903 64.307561192758357 152 150 137
125.816001268375942 -2.102867071171924 61.540974891622568 151 149 136
124.212019367408871 -1.797058109799567 59.422835481858527 151 149 136
123.102090534357941 -1.283014358891880 57.953070391942362 149 147 134
121.436376587668477 -1.031379646595294 55.754162139092188 144 145 127
118.720815516757327 -1.276158896526141 52.178005946536985 143 144 126
116.375791679547319 -1.373150633949767 49.088218069888967 143 141 126
114.648343699823101 -1.201961414947902 46.808812347790393 145 143 128
112.982666750404945 -1.016815295335861 44.610570796057914 145 143 129
110.514146674955498 -1.228778862908259 41.359328789437711 145 143 130
108.477941215190143 -1.254581542148017 38.675364899425119 143 139 128
106.379986898287584 -1.328227016692012 35.910575036015473 143 139 127
104.343802581268065 -1.390057403839373 33.226971882682108 145 141 129
103.604600414398803 -0.829205779494249 32.244523918976654 146 142 130
96.633581649267441 -0.703766932458414 23.051090200481838 138 135 120
94.782790146295241 -0.766349795189076 20.611380160752134 139 136 121
93.426130638368534 -0.588141459710296 18.819671562933024 140 137 122
91.760676346596341 -0.583795343214353 16.623184557804109 144 141 126
90.033479806285825 -0.626697210422799 14.345862295052370 142 139 124
83.804372482107667 -0.578185426392094 6.128599154215095 146 143 128
81.830220629350748 -0.829727104411852 3.528131561148172 148 145 127
80.350246738032126 -0.824202485921524 1.575475892064219 147 144 125
78.623218679826778 -0.969846039117792 -0.700869400162247 146 143 126
76.957985619323182 -1.095741709242372 -2.896121597434160 146 143 126
75.601641144546193 -1.060662130973289 -4.686507609832660 146 143 127
74.245330478872560 -1.037408920986540 -6.476788061640491 147 144 129
72.827279209216087 -1.061621720596384 -8.347902313570842 145 142 125
71.162157835963640 -1.241853790726486 -10.542648629779421 145 142 125
69.805943694593793 -1.255677371990227 -12.332593608445137 145 142 125
68.943984573083668 -0.989654377760031 -13.474998016468078 145 142 125
67.340732651432347 -1.171834401581495 -15.588463530065439 145 142 125
65.675726809292428 -1.404980802851943 -17.782720442169932 142 139 122
64.010744146135650 -1.652633232742375 -19.976839125180646 140 137 120
62.469348049357890 -1.839706478269815 -22.008987000063968 141 138 121
61.298677478270776 -1.813322210660602 -23.555532611588575 146 143 126
60.189831818779282 -1.759012038800441 -25.021083619343244 147 144 127
59.575313812368293 -1.407476345753119 -25.839307694157299 148 145 128
58.651924988292961 -1.254335253185768 -27.062021277836038 147 144 125
57.543223003353390 -1.225859169376552 -28.527375095757606 149 146 127
56.496354067500221 -1.167811696375785 -29.911755140660091 150 147 128
55.634903931927340 -1.000493941801529 -31.053387023193636 147 144 125
54.155586186817544 -1.237709701756450 -33.003857941717172 144 141 122
52.923469476880157 -1.327836569924002 -34.630667508305322 144 141 122
51.506004659515327 -1.549396908755915 -36.500030919641688 146 143 124
49.841381060046771 -1.945360532174648 -38.692794735869967 146 143 126
49.165543563044722 -1.703012320312793 -39.591418739896454 146 143 126
48.427970513674197 -1.507498922680244 -40.570885457931439 145 142 125
48.184870465622382 -0.987546006824312 -40.903374904467398 144 141 126
46.953009393634062 -1.135375768434747 -42.529712802504491 141 138 119
45.844793194248084 -1.210079234150596 -43.994236939633595 145 142 123
44.365779180359780 -1.547296153879406 -45.943823799958551 142 139 120
43.690293534189138 -1.345719406763347 -46.842196447048224 146 143 124
42.458582214822954 -1.534218660033945 -48.468187354718168 150 147 128
41.783212375754573 -1.346560530966611 -49.366472132200983 147 144 125
40.984281060984259 -1.251128086174976 -50.426413967783759 145 142 123
40.123592772825475 -1.206030750356244 -51.567152239340373 143 140 121
39.386595551205488 -1.080695436062609 -52.546172053131187 140 137 118
38.587841447097503 -1.005686678343630 -53.605988434416332 136 133 114
38.160079665210915 -0.671423110380529 -54.180801601474457 136 133 114
36.743213105986072 -1.054526502317134 -56.048788373656436 139 136 117
33.971352372227472 -1.812354567279062 -59.703588816218286 149 146 127
33.729320582527322 -1.368668897724240 -60.035804256808433 146 143 124
32.621719508960254 -1.566786128189391 -61.499352308142534 145 142 123
31.823331855802550 -1.544497711462482 -62.558801321351979 144 141 123
30.839486298668788 -1.667762058602132 -63.860606316039309 144 141 124
30.968820098311582 -0.961837706779193 -63.708027826607577 144 141 124
29.861417222792326 -1.190609907603594 -65.171355148198671 143 140 122
29.001430018031428 -1.240560054792040 -66.311450444159362 140 137 120
28.141494153698702 -1.297820200010328 -67.451495055722887 144 141 124
27.652719046895569 -1.076588188236947 -68.106815051607498 144 141 122
27.349591465894221 -0.715631169149859 -68.519809792419892 142 137 118
26.304277601438102 -0.935225002489528 -69.902075876707158 143 138 119
24.887834447359097 -1.454528955063358 -71.768863223667751 145 136 119
24.213745981376505 -1.401265861524544 -72.666377610027638 145 136 119
23.168525840981559 -1.647712008346713 -74.048412127232382 142 137 118
22.989507126665515 -1.213073848466204 -74.299820791612945 140 137 118
21.696897261351182 -1.671807675445716 -76.004755268343132 140 137 118
20.837419848395456 -1.792812552874567 -77.144363044922784 139 136 117
19.977987781035992 -1.921104072684051 -78.283917509609694 136 133 114
19.861191837045510 -1.451932370742239 -78.454589920208292 135 132 113
19.620750378363368 -1.084731772169815 -78.786778870447847 136 133 114
19.194754230944355 -0.872109364769336 -79.361184597410158 135 132 113
171.972785011390584 -0.522695509348951 120.370448253428066 149 146 141
167.696861215144736 -0.920662875110180 114.770868959416703 149 147 139
164.660776387465887 -0.881548227930596 110.790833546334255 151 151 139
157.100645420603541 -1.465912184023407 100.888805478382551 158 158 148
152.390598908267606 -2.176011612904550 94.724109741384467 155 155 148
149.726366329571960 -2.108523492138109 91.231042734097059 153 153 145
146.008183510135666 -2.490891703494372 86.362211462907595 156 153 143
143.963876083641821 -2.221248561558585 83.679082353750232 158 155 145
141.733571702436365 -2.046461242739655 80.753333294060013 156 153 143
139.255271111978630 -1.994858843819960 77.504057235397653 157 154 145
136.404975661177843 -2.122021740403528 73.769429054299508 155 153 141
132.810691052680852 -2.591453263163051 69.063939259926372 150 148 136
130.890343374634767 -2.371199069674240 66.543734387108202 152 150 137
128.288010102956434 -2.464594952842696 63.133569908310790 152 150 137
126.677659732095293 -2.144777408017934 61.018332955327963 151 149 136
125.625316019460584 -1.591402934064683 59.631473375220111 150 148 135
124.448990213731435 -1.102879400503731 58.082876176940431 150 148 135
121.784666804084125 -1.298221918619659 54.592558070669554 145 146 129
119.926355006999074 -1.148548670645971 52.154260855090342 143 144 126
117.200031065610190 -1.415626716399471 48.583483115587001 143 144 128
115.403735870533936 -1.273431467634021 46.226453229904848 145 143 128
113.669456251157470 -1.117822861809822 43.950476119877464 145 143 129
111.253157593598431 -1.300981393600208 40.784813946155197 145 143 130
109.146881387490353 -1.356837415262093 38.023822130241228 144 140 129
107.722661057595190 -1.101580845074567 36.152782416966630 144 140 128
106.298463629792693 -0.858787640459075 34.281860039092294 145 141 129
104.750279557347937 -0.689449887199164 32.249290791044871 145 141 129
96.201484372552855 -1.347470026617299 21.047252317463915 137 134 119
95.397496101911727 -0.873815115864497 19.985836478391178 138 135 120
93.663414294536537 -0.889006611064075 17.711522867022836 140 137 122
92.425432100835309 -0.660182945172832 16.084236209688100 144 141 126
90.753410993839466 -0.670794320400712 13.891044711429288 142 139 124
84.685707581325019 -0.521484203341361 5.928105579381281 147 144 129
82.641734049228035 -0.806314545766750 3.250524210406979 148 145 128
80.969866384298797 -0.903221250317209 1.058147587165280 147 144 125
79.298024281166633 -1.014674488157878 -1.134091529977837 144 141 124
77.812257985096451 -1.036184054076178 -3.083697856042420 145 142 125
76.264504910227174 -1.105706137327544 -5.114014587562508 146 143 126
75.212929606592880 -0.905717298858199 -6.497604196030522 147 144 129
73.045047026565001 -1.356378698150984 -9.335918688665572 147 144 127
71.993543310701483 -1.179485734207975 -10.719304807038867 146 143 126
71.128149060867088 -0.903147877653946 -11.860172037505720 145 142 125
69.890671094319046 -0.853004789142880 -13.485860666437844 144 141 124
68.405138220726982 -0.960479512978653 -15.434693778460201 147 144 127
66.175339851543029 -1.524785245158528 -18.353077056504588 147 144 127
64.751881040926335 -1.624008060825091 -20.220832243598011 147 144 127
63.328454591213884 -1.735564571924461 -22.088475955114092 147 144 127
62.215201044486363 -1.670405868179872 -23.552029914112495 147 144 127
61.101991425566879 -1.614861245611051 -25.015505925456523 148 145 128
60.423040224237354 -1.300465533741600 -25.913381965116798 148 145 128
59.061800134710921 -1.416728208376842 -27.699868090362884 146 143 124
57.700593946314171 -1.544762899808979 -29.486249258510583 147 144 125
56.773663238825975 -1.410405871327929 -30.707075063497228 150 147 128
55.970856872512627 -1.205138049497348 -31.766293678416815 147 144 125
55.044034132268919 -1.086160804719255 -32.987012822723358 145 142 123
53.682992563267391 -1.255002248931416 -34.773052699819601 144 141 122
52.197902602888618 -1.516103049103739 -36.720516349626138 145 142 123
50.836921857124693 -1.708994631995467 -38.506337764191557 147 144 127
49.786189135466756 -1.709654857864620 -39.888265079372246 146 143 126
48.859592746445230 -1.637205472692020 -41.108613574695113 145 142 125
48.367375897908659 -1.283308829254036 -41.763652636830471 144 141 126
47.254751566039900 -1.349656445108066 -43.226153949449838 139 136 117
46.390370307442666 -1.258024447401056 -44.365604521258916 144 141 122
45.029630221428633 -1.511026806231710 -46.150922316209943 140 137 118
44.289454677793969 -1.351465421812148 -47.128773937776828 144 141 122
43.177009203469254 -1.454396659688815 -48.590984241632697 150 147 128
42.250777172120507 -1.437949803153074 -49.810930582256759 149 146 127
41.200478342419203 -1.515905748497542 -51.192269826191705 147 144 125
40.274346330635254 -1.515815489388586 -52.412095649158545 145 142 123
39.658583442210514 -1.304656226503391 -53.228279211569628 142 139 120
39.042892859325903 -1.098661736191898 -54.044444201104568 135 132 113
38.489342770117716 -0.853486335447194 -54.779881413688003 131 128 109
37.377240710790133 -1.014442741405859 -56.241658723896933 135 132 113
35.644454377740161 -1.633799944162734 -58.510373104607226 143 140 121
34.532403827942176 -1.816544689004334 -59.971950778480902 147 144 125
33.917003432677745 -1.645333121466333 -60.787896554681168 147 144 125
33.053358980572256 -1.662096141663904 -61.926583847818023 145 142 123
32.003522997290460 -1.824135707003745 -63.307279000952946 145 142 123
31.202062013693620 -1.810114255200717 -64.365172647391915 144 141 122
30.586919158529639 -1.663268216951947 -65.180990823260203 146 143 124
30.033938972190256 -1.474735740549090 -65.916117621347411 145 142 123
29.294761377930797 -1.432014211609618 -66.893243967146930 141 138 119
28.555646583562662 -1.395503306537109 -67.870336427127796 143 140 121
28.437570660968547 -0.888879790200767 -68.040782010689526 142 139 120
27.947011459845896 -0.670395629458649 -68.695220216956017 140 137 118
27.208124855144604 -0.648636224943168 -69.672269997485586 139 136 117
26.158769212971862 -0.875363781926827 -71.052529078166117 142 139 120
25.047336332035570 -1.159775739023087 -72.513355731017128 140 137 118
24.060153255946901 -1.355667641886120 -73.812816476160464 142 139 120
23.507816056544584 -1.214945109949787 -74.547758745218289 140 137 118
22.769202198091051 -1.227437653214159 -75.524586434112678 142 139 120
21.968526668874631 -1.295950222243626 -76.582006275096944 143 140 121
21.043653357095792 -1.471428773833440 -77.800627037865098 141 138 119
20.864367731677618 -1.050003488703441 -78.051772006131870 139 136 117
20.063878711616283 -1.136480329134972 -79.109096157186627 138 135 116
20.133347692539573 -0.516373642702400 -79.037854064258426 137 134 115
179.668905768706622 -0.582354275439030 128.440306362441788 141 140 135
165.671880811855061 -0.922634387058851 110.196688691037679 150 150 138
163.619600965038387 -0.526306485504062 107.516069530563840 157 157 147
150.180558907693410 -2.348169208353323 90.018495391025965 155 155 147
147.319059872323464 -2.381579330748845 86.288261921980904 158 155 144
145.204437602684976 -2.135783099550955 83.528157776076227 159 157 145
143.649982901376347 -1.677893358303677 81.495618164814914 158 156 144
140.539481564460118 -1.880985853677827 77.442817629545459 157 155 143
136.557570997871238 -2.477551995365168 72.258922115829648 154 152 140
134.069460206267678 -2.474409134575302 69.014838042138933 154 152 140
131.083398089721641 -2.706654677235770 65.124524067188190 154 152 140
129.466683732283514 -2.371472055627483 63.012173463115687 154 152 139
127.538757570614408 -2.186674024720434 60.495959078979013 152 150 137
126.980215156580840 -1.413321201142862 59.757473381933039 151 149 136
125.239045512725852 -1.172891513035387 57.483919329988794 150 148 133
122.937678097866964 -1.200211170631439 54.483388085732287 149 146 134
120.449576548916909 -1.332600220201248 51.240694688426458 147 144 132
118.272708031554401 -1.343681237034370 48.402154215708237 150 146 135
116.033599684604027 -1.402617977444846 45.483022782207485 146 142 131
113.545508831994738 -1.597642768411888 42.240969008960604 146 143 131
111.679899678719579 -1.520219168236346 39.806906525489325 146 144 132
110.001049984122730 -1.370006740263400 37.615326359935182 144 142 129
109.006956649557239 -0.904933715443943 36.312367814719863 144 140 128
107.390400220003599 -0.750779035701373 34.201805070035022 144 140 128
105.462615044754216 -0.763179504103770 31.687553101695869 144 140 128
102.105104074595104 -0.590026681549481 27.305612706542831 140 137 122
100.052870835691536 -0.713201013465714 24.630318746467736 140 137 122
97.876148057535360 -0.917376718866976 21.793696173244598 142 139 124
95.637185201720385 -1.172324241124376 18.876512774728269 141 138 123
94.207533419281631 -1.029191201539758 17.009225593559620 140 137 122
93.213692661568416 -0.671753973156580 15.707254165768234 142 139 124
91.784105789264686 -0.551560675691661 13.840172062103022 142 139 124
85.318975025844225 -0.599736873125353 5.404240328782294 146 143 128
83.017911884035954 -1.020969621347847 2.407618266668123 148 145 127
81.401717060536825 -1.085046086230446 0.299128893687879 147 144 125
80.034593091603000 -1.024909286439561 -1.486358172223817 144 141 124
78.854289024929400 -0.872130803617867 -3.029596191632891 146 143 126
77.487238077561116 -0.834844822823772 -4.814882975851987 146 143 126
76.307013190339305 -0.703282864256291 -6.357940482097007 146 143 128
74.255127633065314 -1.080843255092771 -9.030782248374891 147 144 127
72.763645270120108 -1.153001383258713 -10.977132676544613 145 142 125
71.396727602928507 -1.165695491767909 -12.761968751376344 143 140 123
70.777055836180594 -0.752790952702544 -13.578358985271962 142 139 122
68.351656961462751 -1.410107917038236 -16.734786895355398 146 143 126
66.922571648342867 -1.496558229133690 -18.599981856732910 147 144 127
65.119894742914894 -1.818927376628543 -20.949176759349683 150 147 130
63.690868864968806 -1.931674760698523 -22.814129465338283 147 144 127
62.760061113594602 -1.754303914540691 -24.033543268652892 148 145 128
62.140677450043668 -1.394532785782291 -24.849524401246185 149 146 129
61.770461566070452 -0.886635324043231 -25.342795744589580 150 147 130
60.279336392211221 -1.076988442037764 -27.288100410387273 147 144 125
58.912797493116926 -1.202415464204435 -29.071957270066036 146 143 124
57.608572778644216 -1.300447272219780 -30.775048129853559 146 143 124
56.553509248670892 -1.251962392180916 -32.155409476444476 146 143 124
55.373928654625288 -1.291934562173373 -33.697009523379876 145 142 123
53.820686138295557 -1.581901534463712 -35.722430974936714 144 141 122
52.578894825177528 -1.684005736818957 -37.344488955807293 145 142 123
51.648577028037920 -1.594166859785602 -38.563236141017796 147 144 127
51.092044848594753 -1.267508695755298 -39.298085474870447 145 142 125
50.037263631171456 -1.274048295092490 -40.678015484209453 146 143 126
48.982529748138234 -1.289609401994079 -42.057875275249017 143 140 125
47.927842980909631 -1.314188404372350 -43.437664780599675 138 135 116
46.810907624848696 -1.389664123092366 -44.898009753874135 139 136 117
45.756312480307699 -1.432540901116181 -46.277654743007730 142 139 120
44.826361721503631 -1.399570750650077 -47.495992139728941 144 141 122
43.647260389411116 -1.545314451739337 -49.036732704435309 149 146 127
42.592802662574059 -1.615204898345846 -50.416165368466238 148 145 126
41.662999717843988 -1.607602468764743 -51.634312356239064 146 143 124
40.920170194602903 -1.477347606521834 -52.610592656304220 143 140 121
40.177405503309316 -1.353353983328257 -53.586839521671919 141 138 119
39.185461219796977 -1.411877144193018 -54.885436526973336 135 132 113
38.629757938659182 -1.168470662770627 -55.619825451542937 132 129 110
37.762555321638573 -1.152730944504276 -56.757145097795785 134 131 112
36.646137570741814 -1.323871606187093 -58.216752964290663 142 139 120
35.654397451100252 -1.414218418069180 -59.515120064061307 143 140 121
34.226445436704779 -1.831026025681691 -61.377456658063977 143 140 121
33.172454509823083 -1.985851474883280 -62.756238358944103 145 142 123
32.492467721444143 -1.873759189188320 -63.651536566515460 144 141 122
31.812549906436715 -1.767344662150951 -64.546809326689242 144 141 122
31.132701161299849 -1.666603439427247 -65.442056731480932 147 144 125
30.328250979177255 -1.665141940129468 -66.498391069690626 146 143 124
29.212169064007384 -1.905846296916911 -67.957443544786571 145 142 123
28.781866045613782 -1.635152880473890 -68.530386633505884 145 142 123
27.728218160333398 -1.844221868486913 -69.908774088317614 145 142 123
27.422762741308560 -1.487375135070307 -70.320612890163460 144 141 122
26.805663936773783 -1.373779353482095 -71.135153084961985 139 136 117
26.313345041206077 -1.168361022141476 -71.788614966291931 140 137 118
25.571691091834083 -1.161861542526189 -72.764183780543760 140 137 118
24.643023497769519 -1.308580222414875 -73.981285411479234 144 141 122
24.462742524968206 -0.871705249511110 -74.232113240367198 144 141 122
23.846025645188462 -0.782974274328897 -75.046580200716051 141 138 119
23.042278348677854 -0.848833109239727 -76.102557834974334 141 138 119
22.238585953617687 -0.921420014483815 -77.158492478490444 143 140 121
21.746825407932604 -0.748759963358687 -77.811884275055775 141 138 119
169.679975821561612 -1.026145240066970 113.490662857465651 151 149 141
167.432188964777311 -0.679040390195651 110.571503603255394 153 153 141
164.122157348019414 -0.759466087246821 106.280318344190619 159 159 149
153.627959504838117 -2.528050629272532 92.694618883780834 154 154 144
150.817706410863423 -2.513323029605115 89.050232911193746 155 155 147
148.569805322448019 -2.297382086590726 86.132478440988677 157 155 143
146.759296440969138 -1.923604760536056 83.779864543502725 159 157 145
145.386189546560217 -1.386297560596730 81.992327933992044 160 158 146
141.576108641947769 -1.870707955078184 77.057651878282655 158 156 144
138.203412772928601 -2.205116651363840 72.688200472385319 155 153 141
135.080649050778618 -2.463124585973355 68.641831492382948 154 152 140
132.645238582855086 -2.454559582401742 65.483338836566190 153 151 139
130.147336646210704 -2.494157149458442 62.244378761796469 153 151 138
129.899026381284244 -1.574704965016268 61.910269618491469 151 149 136
128.650919135582541 -1.097712395794393 60.285272224136605 151 149 136
126.153036686068262 -1.187307959905326 57.046817481291129 150 148 133
123.405194337505648 -1.410833848328189 53.485885769786705 150 146 134
121.282255154841664 -1.374961857342702 50.731921262226734 147 143 132
118.721886448619173 -1.557716702188115 47.413459780760888 150 146 135
117.286367234969475 -1.243083577324369 45.547214222039599 147 143 132
114.413551516141652 -1.611113768628513 41.825839028038502 147 143 132
112.165659317233974 -1.709979706042907 38.911320770489056 146 142 131
110.355227530264315 -1.620595972722620 36.561597397371173 142 143 129
109.044761806753854 -1.307324292965631 34.857258461494155 144 142 129
108.171782168656847 -0.793885674963737 33.717579457524863 144 142 129
106.611395766811810 -0.623435871552542 31.690836315145560 144 142 129
104.801052063463530 -0.589565791449932 29.341642233045405 143 139 127
102.365768736503497 -0.881712153225015 26.186184126575426 141 138 122
101.117929055560182 -0.600198000422731 24.563070887697421 142 139 122
99.057657836532755 -0.739952028095554 21.891792932899023 145 142 125
97.184896723983655 -0.802013865252109 19.462587715907489 144 141 124
94.749669056843928 -1.169321832375173 16.307876658132159 143 140 123
93.564435290039086 -0.909997493243782 14.765900260345177 142 139 122
92.254238291216282 -0.726233747185711 13.062765857719427 141 140 122
85.951250983516232 -0.677944193046680 4.880848935283609 144 143 125
83.953676608554403 -0.929464925115376 2.291586380946626 146 143 126
81.956120752500070 -1.198242641549264 -0.297507397963017 146 143 124
80.646144848805420 -1.104211626067805 -1.999823907666496 145 142 125
79.773752054953377 -0.777719219705540 -3.137859324640942 146 143 125
78.526365439441847 -0.669278131550281 -4.759407780469701 146 143 126
75.656657213677846 -0.698418126417005 -8.485757955536712 146 143 126
73.596751677833893 -1.090578091792791 -11.154612710801985 143 140 123
72.036951557241281 -1.211098995027365 -13.178641220468194 141 138 121
70.539694208084185 -1.308604852778417 -15.121967998114911 145 142 125
69.292523285336671 -1.272123712226204 -16.742878920732380 145 142 125
67.920363997410789 -1.320335174285039 -18.524841824209147 148 145 128
66.048114615185185 -1.678425092125301 -20.951244685487126 150 147 130
64.050848629689654 -2.127707573443525 -23.538619111255741 146 143 126
63.053885691950697 -1.989353751432047 -24.836841763264886 146 143 126
62.744687141653785 -1.440710740063656 -25.248864119379789 147 144 127
61.935401402520185 -1.201386323022888 -26.305333586194649 149 146 129
61.126174798371352 -0.968951445991474 -27.361760425487176 146 143 124
59.754297186810206 -1.093397830004624 -29.143073357622512 145 142 123
58.194880466920765 -1.347091641279362 -31.165914469228142 146 143 124
56.948121137289803 -1.417020564446865 -32.785926964340064 145 142 123
55.951512566119405 -1.338810183207263 -34.083700057451608 144 141 122
54.454722230752196 -1.588897920873202 -36.025679650954146 144 141 122
53.083020489555338 -1.771333698184820 -37.806479804912300 141 138 119
52.274141943699433 -1.600851091240376 -38.862435448260953 144 141 124
51.903061694638325 -1.151685064560817 -39.354688730143891 146 143 126
51.031781382923768 -1.034062672747196 -40.491106350772583 146 143 126
49.722798681023278 -1.213174676629649 -42.191086406496424 141 138 123
48.476389230191458 -1.361874292793508 -43.810455456112521 139 136 117
47.230016815363300 -1.521221969404315 -45.429732617790563 139 136 117
46.671649552286880 -1.227538398587466 -46.163364629870301 142 139 120
45.863181125268298 -1.108201060360275 -47.218990008720880 145 142 123
44.742042808331561 -1.209174382888828 -48.677061840273950 146 143 124
43.433302018751633 -1.448605080210998 -50.376536735409644 142 139 120
42.624994327748624 -1.353268438370100 -51.431991958594381 136 133 114
41.754196074012327 -1.308258654923345 -52.567892756052146 145 142 123
41.008564653855387 -1.183021824095972 -53.542780985118640 142 139 120
39.199535291456087 -1.813112068584832 -55.885769366257563 134 131 112
38.516557848130319 -1.660693472918886 -56.780051953720232 131 128 109
38.209017658959098 -1.246316112091024 -57.191485600322892 134 131 112
38.089266091342807 -0.699699670350537 -57.361541228321613 138 135 116
36.530613202581705 -1.192470332584924 -59.382286815992018 138 135 116
34.721691084995598 -1.880324769552460 -61.724731906830527 141 138 119
33.288175491870533 -2.309496661113821 -63.584279632053352 145 142 123
32.793268641218248 -2.061231303370363 -64.236944490508876 145 142 123
32.924205616912857 -1.354451530602678 -64.085141760282568 145 142 123
32.054025049939582 -1.390671735035622 -65.220501915898865 145 142 123
30.933574176756011 -1.621423491014550 -66.677566743576477 145 142 123
29.687987353683980 -1.955845751387755 -68.295417599017270 145 142 123
29.005701113463090 -1.874693179858927 -69.189297278688628 144 141 122
28.448663907311854 -1.703938720547956 -69.922300214343238 143 140 121
27.453559876419021 -1.873070296055872 -71.218247059351739 143 140 121
26.959260475402544 -1.665161579235717 -71.870787108452419 138 135 116
26.152055450456373 -1.703526119725290 -72.925393589863603 138 135 116
25.720518268207655 -1.456239254142289 -73.497505323438503 140 137 118
25.226470902027359 -1.261388230794463 -74.150031535742357 143 140 121
24.669904223430194 -1.119796282610812 -74.882959385789007 144 141 122
24.238643521212026 -0.883600659257509 -75.455089218734770 137 134 115
23.682249398594436 -0.750492001333841 -76.188012296202288 140 137 118
23.063320158795662 -0.672010523621591 -77.001315367874980 145 142 123
181.234903908583078 -0.867883835125681 126.474629585187643 144 143 138
174.212755469711965 -0.970235236854113 117.418859771735043 155 152 147
171.391634724985579 -0.809219687913063 113.778167030665628 153 151 143
168.570488943878303 -0.672722005557898 110.137738641632609 151 151 139
165.686591386660496 -0.584725421953520 106.416970848449552 157 157 147
161.610820508798554 -0.982731262565778 101.165075020073004 153 153 143
153.835555268701796 -1.735924263692237 91.145986523350018 152 152 144
150.010608011007577 -2.137991574130606 86.217574881267694 157 155 144
149.259429730033474 -1.331325949021651 85.238325962503154 159 157 145
146.312681224381549 -1.427788794059746 81.438665696258937 159 157 145
143.177725091617333 -1.627456738910376 77.397529000880269 159 157 145
139.101778150924787 -2.246642694483073 72.147994118392972 157 155 143
137.095965921467496 -2.028997472699211 69.557843164557880 157 155 143
134.086434965340572 -2.255930438193600 65.678701916992651 157 155 143
131.892422859152077 -2.158326121708276 62.847244125670755 157 155 142
130.890348029782416 -1.562180715896860 61.546754706348821 154 152 139
129.511890206866497 -1.139822325955192 59.762961188541112 152 150 137
127.255168258100682 -1.118368354271314 56.851428539790021 151 149 134
124.622042429185456 -1.284766407176010 53.456746562832990 150 146 135
121.926181439937594 -1.502269579008276 49.981744037282539 148 144 133
119.732206261798623 -1.514344613376731 47.151397564364828 151 147 136
