ply
format ascii 1.0
element vertex 687
property double x
property double y
property double z
property uchar red
property uchar green
property uchar blue
end_header
-100.599397773498879 -94.699016073225309 -22.416572032175935 140 105 99
-100.606284258208419 -94.163236211729242 -22.751369267524325 140 110 107
-100.613181667988400 -93.629086735087668 -23.086144493986069 143 119 116
-100.597152883270539 -93.055481069569041 -22.656281481241052 143 127 127
-100.551611546787115 -92.424431751389506 -21.243398504189855 109 104 102
-100.532273404931530 -91.837621779287289 -20.704395710196451 59 57 55
-100.591671005338583 -91.408523053149977 -22.786715843997513 35 40 36
-100.624867127703070 -90.934098130080514 -23.995166161034120 32 38 34
-100.497185063835857 -90.111485514868676 -19.852078760646123 27 33 29
-100.454819676038170 -89.463212651895049 -18.548712596149386 22 26 24
-100.448580788011355 -88.893901864192145 -18.446698575810842 27 31 28
-100.429192302998928 -88.291875354111667 -17.907876497280682 30 35 33
-100.399927395395707 -87.662187355342667 -17.041487344301942 32 37 40
-100.400267024539588 -87.105426772757625 -17.157914768173185 24 29 32
-100.384154996660101 -86.504918459264417 -16.728368501141716 26 31 34
-100.368040350826675 -85.902234669778338 -16.298845879797625 28 33 36
-100.361809754543231 -85.325578673843950 -16.196903500635727 24 29 32
-100.362179824856710 -84.767722307901934 -16.313327641004321 20 25 29
-100.362563412747036 -84.210406149001940 -16.429739753988059 24 29 33
-100.346463678377646 -83.602548647038304 -16.000263254672291 24 29 33
-100.340267725523987 -83.023977482757275 -15.898324016002221 30 35 39
-100.330779712300242 -82.434098947733872 -15.687217195255897 39 44 48
-100.317996332627445 -81.832097507805543 -15.366952768752896 26 31 35
-100.315134379163965 -81.262369450190803 -15.374186414583676 15 25 26
-100.299062411847629 -80.646336835394749 -14.944780782148143 13 23 24
-100.306149962383699 -80.111048630470961 -15.279476767426218 16 26 27
-100.303335615255392 -79.541029372038878 -15.286690636025725 16 26 27
-100.313780930736399 -79.020561393206378 -15.730486610951857 21 31 32
-100.324255868972614 -78.502258690627869 -16.174246126177167 20 30 32
-100.324822184036833 -77.947321155496539 -16.290546338737869 17 28 30
-100.312154657701811 -77.340097837880279 -15.970280239805504 16 26 28
-100.286238725300052 -76.677327387253072 -15.213488367786368 18 28 30
-100.280229187845009 -76.093231426291055 -15.111516818136238 16 25 28
-100.300786567139639 -75.620740228177155 -15.882558022051199 13 21 24
-100.304789480987708 -75.080581450894172 -16.107920937275111 16 24 27
-100.302182107524786 -74.512368768875447 -16.115017194383995 16 26 28
-100.282992310106025 -73.869964992480774 -15.576515687876025 17 26 31
-100.273788031375986 -73.270149015093196 -15.365375420606853 16 25 32
-100.274581487795231 -72.715365593639504 -15.481565383152343 15 24 33
-100.278733588780710 -72.176758460502086 -15.706840955908405 13 23 30
-100.289575729390279 -71.671064246620631 -16.150295017268888 14 23 28
-100.287148743630624 -71.102747803673694 -16.157306045582231 12 21 26
-100.288085041422349 -70.550876158800662 -16.273397700925727 11 20 25
-100.279068674627496 -69.949312530596998 -16.062185526678604 15 23 29
-100.276747167897440 -69.380657163976608 -16.069149582897381 11 19 24
-100.264466739646181 -68.760132646335620 -15.748835213502360 9 18 18
-100.265553008078101 -68.208163818206614 -15.864856123761740 9 17 18
-100.246675392294449 -67.549760296157203 -15.326369964049121 8 16 18
-100.224494144564574 -66.870511910460465 -14.678819932268397 10 18 20
-100.202344452106331 -66.187970174147196 -14.031288704666167 9 17 20
-100.196915668619852 -65.595337234695450 -13.929127199716334 9 17 20
-100.211562642322960 -65.115602747662649 -14.481352710377678 10 18 20
-100.206230844981249 -64.523444087878445 -14.379139925589755 7 15 17
-100.207627586664614 -63.969617478879719 -14.495031429581559 7 13 13
-100.199053619122083 -63.357110058756263 -14.283720262996496 8 14 14
-100.203897361202706 -62.823476177552607 -14.508613764842892 9 15 15
-100.198769942544658 -62.230069904812581 -14.406316048300141 11 15 18
-100.193696749854979 -61.636075023531994 -14.303998449083423 12 16 19
-100.188679463872560 -61.041489512209722 -14.201660183941271 10 14 17
-100.187065132315084 -60.467400053359150 -14.208341865822632 9 13 16
-100.185511616809379 -59.893259952448602 -14.214994974797463 8 13 16
-100.177327015125002 -59.275801090428502 -14.003548504599280 8 14 14
-100.165856420336468 -58.635293503627011 -13.683052409421123 10 16 14
-100.151099796324246 -57.970918240323428 -13.253515136423829 10 16 14
-100.149800923021331 -57.394103837186918 -13.260073953377940 10 16 16
-100.151921018731500 -56.839949100941148 -13.375622784861406 10 16 16
-100.144064126326128 -56.217292189471841 -13.164073045801729 10 16 16
-100.139628772947745 -55.616745416112096 -13.061517748361354 9 15 13
-100.135267596131868 -55.015584341684828 -12.958933288417199 9 15 13
-100.137685105711924 -54.461428366884093 -13.074339850873798 9 15 12
-100.120072295363769 -53.763241399420899 -12.535658123565440 9 15 12
-100.122648880562181 -53.208387741963271 -12.650995766389542 10 16 13
-100.118604295942447 -52.604741543591764 -12.548285430453120 10 16 14
-100.121349267329208 -52.050268539556093 -12.663538599645022 11 17 16
-100.117475767072122 -51.445907153535465 -12.560753779321686 11 17 17
-100.127103051576270 -50.942695265499566 -12.893904586931342 12 18 18
-100.130115622634563 -50.389589134086279 -13.009015667451109 13 19 19
-100.126514427110891 -49.784949861230309 -12.906103437905443 12 18 20
-100.112947508842382 -49.100873801457638 -12.476199803953250 11 16 20
-100.106184233969444 -48.467587047599189 -12.264236300322381 10 15 19
-100.092813321629777 -47.779483615825988 -11.834280353568857 14 19 22
-100.103018099475818 -47.278666189845239 -12.167130242942505 14 19 23
-100.109972686299514 -46.752017683001093 -12.390942019931742 12 17 20
-100.120385534013366 -46.253973137163570 -12.723663826745508 11 16 20
-100.117493448940664 -45.645840241780569 -12.620448322802503 17 25 28
-100.118064523403447 -45.065212115857420 -12.626151819719638 19 24 28
-100.125452502266853 -44.541352150255562 -12.849727559586768 7 12 15
-100.129601637660471 -43.989732424400763 -12.964279611305159 5 11 11
-100.123812203798352 -43.351540599065594 -12.751900715837564 7 13 13
-100.118143755116591 -42.712115912520773 -12.539476631934122 8 13 16
-100.126000836497141 -42.189618648323354 -12.762813927794923 6 10 13
-100.137329362861792 -41.697881993100964 -13.095032746793947 7 11 14
-100.165526197290419 -41.358075858333031 -13.971912352466859 34 39 42
-100.187143038418981 -40.961767712434238 -14.630803638123979 40 44 47
-100.205533247012752 -40.537948217535259 -15.180662836941053 18 22 25
-100.210660145304089 -39.993064539736068 -15.294677792714168 14 19 22
-100.209228055080729 -39.386193353668325 -15.190750844831825 11 19 22
-100.221314910748319 -38.904430047858177 -15.522504220995955 1 10 13
-100.223503486493641 -38.328938926300275 -15.527381033077290 20 30 32
-100.229176956267906 -37.785270474658944 -15.641122001993125 22 31 36
-100.234992726394680 -37.241962722690431 -15.754791182045153 18 23 27
-100.244293570578407 -36.731564855891264 -15.977313241554043 16 21 24
-100.253738877743274 -36.222066844301814 -16.199756927806277 14 19 22
-100.246642514431088 -35.547949621764111 -15.877514176148082 17 22 25
-100.233037325649633 -34.805221866391733 -15.337373697124519 10 16 16
-100.232943909855820 -34.194142128556621 -15.232849652721200 8 14 14
-100.239680641312532 -33.650147019259563 -15.346085323344084 9 15 15
-100.266565730169077 -33.311687706780177 -16.112719715163479 11 17 17
-100.276944498607662 -32.804462938034767 -16.334693437111412 10 16 16
-100.280829067124685 -32.228598380335747 -16.338762736029963 9 15 15
-100.268256086405287 -31.477355287670818 -15.798216104852116 6 12 12
-100.259201281945948 -30.758413247966512 -15.366512784166446 9 15 15
-100.266949110287243 -30.214903563621831 -15.479259752782554 14 20 20
-100.264914998939346 -29.564122257353127 -15.265213913747942 13 19 19
-100.273025251419313 -29.020358971610506 -15.377790110345018 9 15 15
-100.261428791929021 -28.258440416751327 -14.836886202653631 7 13 13
-100.276545583918690 -27.786932428130516 -15.167084504535381 7 12 15
-100.275291433683179 -27.132005084513494 -14.952708212023367 11 16 19
-100.300701338612498 -26.773548901065709 -15.609395279695008 9 14 17
-100.299842548186774 -26.118025480430873 -15.394835984125336 10 15 18
-100.319006750491056 -25.687808914140842 -15.833531870353312 12 17 20
-100.325158404736229 -25.107236109828349 -15.836565067578078 8 13 15
-100.341405299465094 -24.641362476890070 -16.166164734929509 11 17 18
-100.321627634462729 -23.752028551697528 -15.297909583565684 15 21 22
-100.318562639775436 -23.052396322267121 -14.974000877759380 8 14 15
-100.315736475617371 -22.350754189243183 -14.649998605193815 11 17 18
-100.352543151762376 -22.120488270288977 -15.632490624552503 17 23 24
-100.373117533297929 -21.696221885290264 -16.070450637664806 10 16 13
-100.400441880927517 -21.353819917275800 -16.726056588406436 9 15 11
-100.391966369475981 -20.571262313040457 -16.183872077974428 8 14 10
-100.373961503690552 -19.663854098095111 -15.314954873286041 7 13 9
-100.395422647152500 -19.241677119498988 -15.752469155222542 4 10 6
-100.397537189982188 -18.574614634149686 -15.536606204605079 9 15 12
-100.386894057976505 -17.740436268047546 -14.885131149929634 12 18 16
-100.379804427099700 -16.944165656291709 -14.342424793856338 6 12 10
-100.415218127086945 -16.690095016194608 -15.214969357266881 6 12 8
-100.450817585108794 -16.440054310101271 -16.087383572535259 1 7 3
-100.467180858145525 -15.938951193392699 -16.306431314756935 2 9 4
-100.483789713598526 -15.438511131833339 -16.525354746032662 5 11 7
-100.474828761285693 -14.594128846137842 -15.873179976428617 5 11 7
-100.485534610070573 -14.006037558992535 -15.874111854116791 7 13 9
-100.464347754764404 -12.981105313694730 -14.786208866350648 4 10 6
-100.472453875286348 -12.345307487157278 -14.678016627583872 4 10 6
-100.484063684027717 -11.752635901005702 -14.678563201245993 9 15 13
-100.521568058381135 -11.515272916578949 -15.549935612912975 13 19 17
-100.549690970572129 -11.147603636289819 -16.094560737323661 12 18 16
-100.568486605946063 -10.647087401932312 -16.312438804665817 6 12 10
-100.584377098680960 -10.101826574921549 -16.421308375937883 7 13 11
-100.613266916675173 -9.738995590823533 -16.965516812227747 13 19 18
-100.664593981742584 -9.699641134782150 -18.271673834465673 6 12 12
-100.681279023434882 -9.158606924900466 -18.380119789546654 21 27 27
-100.704581087494461 -8.710459647095698 -18.706161821795092 11 17 17
-100.709262454634441 -7.982983592785094 -18.378833893519868 17 23 23
-100.745741981729651 -7.723412764789533 -19.140066300171981 20 26 26
-100.760499744728335 -7.136052424661257 -19.139052231984209 13 19 19
-100.784977281238540 -6.690828207818267 -19.464501833706549 0 4 4
-100.762929949821199 -5.528541353458434 -18.156706584913678 0 5 3
-100.791226160502617 -5.129314161766382 -18.590714760435503 12 18 14
-100.819809652332822 -4.731693561963596 -19.024568964183032 26 32 28
-100.848683343568339 -4.335670333694242 -19.458267894982157 35 39 40
-100.850042817074439 -3.500084683845836 -18.911924205770447 21 27 27
-100.851848084289031 -2.660924177831137 -18.365404048166965 2 8 8
-100.860252757695207 -1.917349101433145 -18.036460618258275 11 20 19
-100.893598080923653 -1.570322207469665 -18.578374876677259 14 23 22
-100.270828133748594 -150.452460604420367 -16.456916162881072 191 199 201
-100.275635861425101 -149.820664671334811 -16.793696210127877 184 193 193
-100.273825443893301 -149.233207708301705 -16.911468182223473 175 181 181
-100.285534966174026 -148.562204601432512 -17.467067783565653 159 165 165
-100.297345051294784 -147.893996711348848 -18.022590503419281 115 119 118
-100.302525385665859 -147.269574077978859 -18.359116399822568 127 131 130
-100.297693266771120 -146.707524098066870 -18.367213531731579 47 52 48
-100.296300248913909 -146.125585695973598 -18.484729015933596 78 83 79
-100.291609613216977 -145.563932676910696 -18.492754376648293 71 76 72
-100.280239660317960 -145.041153469433368 -18.281857182305629 64 69 65
-100.268926062256199 -144.517342069932823 -18.070943652872927 60 65 61
-100.261044803042267 -143.973633321188373 -17.969451802632392 61 63 62
-100.263360137397143 -143.373659704397738 -18.196237754292753 61 63 62
-100.262362443825836 -142.793143735727995 -18.313549474889641 62 64 63
-100.264811370391584 -142.195173426945416 -18.540250895438504 59 61 60
-100.257167662785690 -141.651661744316982 -18.438643372822384 53 55 54
-100.256351082200766 -141.072644962183631 -18.555853017707250 54 56 55
-100.252202246291034 -140.511445310359704 -18.563614516524154 52 57 53
-100.251497501263245 -139.933327686441260 -18.680761404174660 48 53 49
-100.237271547321043 -139.422539364695126 -18.360248197810421 48 53 49
-100.233270621135873 -138.860912448922846 -18.367943335164540 45 50 46
-100.222521761552585 -138.331606450951426 -18.156816195441849 42 47 43
-100.222010514592526 -137.753634435051083 -18.273869015463504 41 43 40
-100.218146218862344 -137.191837518765766 -18.281500539176989 40 42 39
-100.221132016280293 -136.599417712014827 -18.507887988444679 37 39 36
-100.220761808361772 -136.023169953317392 -18.624855587226705 37 39 36
-100.213621633252487 -135.477060229186208 -18.523033919336484 38 40 37
-100.206516976688462 -134.930433410300566 -18.421200582212037 39 41 38
-100.202857151821448 -134.369048817207812 -18.428730043515685 37 39 36
-100.202646159857437 -133.793720747513902 -18.545612007109895 37 39 36
-100.195645656532818 -133.246350632529982 -18.443736494552894 39 41 38
-100.188675610735217 -132.698458520129805 -18.341851784400973 37 39 36
-100.174899792066611 -132.176347460412586 -18.021239785494799 37 39 36
-100.171402898548337 -131.613984164752594 -18.028701375276881 36 37 38
-100.164515415777629 -131.064247738996926 -17.926796151699762 36 37 39
-100.164498796832461 -130.489311713641314 -18.043581092398711 37 39 38
-100.164513427551867 -129.914935635471295 -18.160345319547503 40 42 41
-100.164558126736381 -129.341118536787320 -18.277089408189028 40 42 40
-100.168059184246033 -128.756338110433347 -18.503151722814920 38 40 37
-100.178449357047683 -128.150159120725931 -18.947856344302267 44 46 43
-100.182014472328447 -127.568122687038439 -19.173859768615017 40 40 38
-100.178743818395560 -127.008597467529256 -19.181183912411399 52 48 44
-100.158325368389256 -126.501255374214850 -18.641879931336746 51 39 35
-100.134476161411555 -126.001369061762290 -17.993281581619186 65 43 34
-100.114064581592842 -125.488340886180367 -17.454032843571525 89 58 47
-100.107409979307164 -124.934127877477536 -17.352062290485748 103 69 52
-100.117970079654242 -124.332642667429141 -17.796637303785843 110 72 52
-100.125117536405369 -123.742414939010885 -18.131870150250535 119 78 58
-100.132289883146726 -123.153824901442391 -18.467074231854582 124 84 65
-100.129152321935834 -122.592468955484250 -18.474353549135969 126 88 67
-100.119136465722875 -122.047640574905174 -18.263035522795377 130 89 71
-100.109127728617111 -121.501731229059772 -18.051725217616877 130 89 71
-100.112921888882070 -120.923871658168352 -18.277576073047243 132 91 73
-100.123634864170526 -120.332212868651368 -18.721976803216506 131 90 72
-100.141274795222600 -119.728384637378198 -19.384906737510448 132 90 73
-100.134767360406784 -119.176135739670542 -19.282845562430310 132 92 74
-100.142086607899742 -118.596825630741677 -19.617883844251025 132 92 74
-100.128683986073526 -118.057301539048950 -19.297272550340352 134 97 78
-100.142944718429334 -117.467454254786162 -19.850816283876156 134 96 77
-100.143389458460589 -116.903588176323979 -19.967266563497731 134 96 78
-100.150765731211052 -116.329180839333659 -20.302227097936196 129 89 71
-100.154694432192315 -115.761678026977947 -20.527906982230661 129 87 67
-100.158634469323715 -115.195264172585951 -20.753570234158389 128 87 66
-100.162585278544455 -114.629939071754649 -20.979217125668185 126 84 64
-100.159612735677186 -114.074616361330413 -20.986355395615448 123 82 61
-100.160112346425194 -113.515110089574335 -21.102734547593570 125 83 62
-100.164087982965142 -112.952235158647298 -21.328344340969295 123 83 63
-100.171543531484261 -112.386806482373885 -21.663174528286504 118 80 61
-100.172065116127371 -111.829749530506717 -21.779517955948535 117 79 60
-100.162169595114648 -111.282532612318761 -21.568166948078130 118 77 59
-100.148794534854375 -110.737056875158245 -21.247603732085423 117 76 58
-100.159750688051247 -110.172066083990941 -21.691613619672978 123 80 61
-100.153327546593772 -109.620666979773361 -21.589503371587909 123 80 63
-100.153861862643438 -109.064701846097037 -21.705829469955546 124 81 63
-100.147436945992908 -108.512761128132453 -21.603725646219118 120 77 58
-100.168870950855080 -107.948530468656017 -22.375291795829156 122 79 60
-100.169420137724160 -107.395284579763583 -22.491582789495141 124 82 60
-100.163000673420854 -106.844432963924604 -22.389465146699223 123 81 60
-100.146116641913821 -106.294998943333482 -21.959762470202577 124 83 65
-100.143174271934683 -105.741865409655261 -21.966863771247546 126 85 67
-100.147210878389984 -105.188512566903086 -22.192346381187633 125 82 65
-100.151252241087263 -104.636247208157258 -22.417815521738760 123 80 63
-100.148312595981423 -104.084202722372211 -22.424904309096661 131 85 69
-100.145371720005343 -103.532159043885017 -22.431993676988725 131 88 69
-100.145925266923825 -102.981092851109878 -22.548260148114906 132 89 70
-100.142983196064364 -102.429322517595864 -22.555347273957949 132 91 71
-100.147036998378368 -101.880593066240067 -22.780774066567972 131 92 71
-100.137094955404223 -101.325784468335911 -22.569523459617500 130 92 71
-100.134148808682511 -100.774016793688531 -22.576612507970083 128 91 71
-100.120692449795641 -100.215244963636351 -22.256225048325149 125 89 70
-100.117739420751192 -99.662664140656574 -22.263325759301608 129 91 77
-100.107773500486047 -99.104327533828908 -22.052122890733500 128 88 79
-100.101308071578089 -98.548055251312121 -21.950083034892117 128 86 78
-100.105365192153158 -98.001505737126067 -22.175485800868984 135 92 85
-100.112937632723700 -97.459737259087149 -22.510016521123219 133 92 85
-100.117006560045752 -96.915634713446011 -22.735388450916304 130 98 88
-100.096488955722123 -96.342962749953116 -22.196804378099841 130 102 92
-100.061898303432443 -95.749541471627566 -21.221730846631203 132 109 98
-100.037829769050091 -95.165571242090124 -20.574102940390929 129 111 101
-100.024296716381841 -94.593497044749768 -20.253889098737176 99 86 78
-100.017793571315394 -94.030440451854219 -20.151937120491624 66 62 60
-100.021849790151620 -93.483626469498532 -20.377343040161009 25 24 24
-99.997738275133457 -92.890966032619062 -19.729825148379319 21 24 27
-99.966564450392795 -92.282769421203142 -18.864127993169603 21 27 30
-99.938894322172530 -91.676636723987613 -18.107592321568944 11 19 22
-99.946468628613275 -91.133518360409113 -18.442136044247235 12 17 19
-99.890556675206767 -90.466869228588394 -16.812863011709254 14 20 20
-99.873425016807573 -89.871545885297834 -16.383751160920355 11 17 17
-99.870408001376219 -89.304036082613422 -16.391036154252731 11 15 16
-99.870927480508485 -88.744294466596656 -16.507408223780658 12 16 17
-99.857321126210223 -88.152935566198096 -16.187427956511840 9 13 15
-99.843711737425608 -87.559946055077958 -15.867465925626249 9 14 18
-99.837172535770634 -86.982492470500333 -15.765679392196773 12 17 21
-99.830637262863348 -86.404494445841650 -15.663896583463213 12 17 21
-99.824106557089465 -85.825951701885018 -15.562117196898043 12 17 21
-99.817581080942631 -85.246863936692179 -15.460340918674632 16 21 25
-99.825229553423128 -84.705911070615429 -15.794826870020046 14 19 23
-99.829352547903412 -84.156644142282858 -16.020226093855428 16 21 25
-99.812222347993298 -83.547180753652626 -15.591259095920378 17 22 26
-99.798638042038206 -82.946025938852443 -15.271369115067756 17 22 26
-99.795699931150025 -82.375507788635460 -15.278647327169580 17 22 26
-99.789225276916952 -81.793957209255865 -15.176872086900403 15 20 24
-99.782761147285626 -81.211858795028846 -15.075097450837148 15 25 26
-99.762101210901236 -80.582924866318237 -14.537160601862212 15 25 26
-99.752102057760851 -79.986798999482033 -14.326362615624703 15 25 26
-99.752776970376146 -79.425925770538228 -14.442671974567418 12 22 23
-99.757027334032330 -78.877976069025408 -14.667996706548280 15 25 26
-99.779087064219539 -78.394398547134941 -15.438433308045745 13 24 26
-99.772715602010592 -77.811174842794813 -15.336625923381717 15 26 28
-99.766361082451937 -77.227399080683597 -15.234816116019800 16 27 29
-99.745779594019751 -76.589175907874420 -14.696937356669480 15 26 28
-99.735894260294671 -75.989461566555832 -14.486121857584322 17 27 29
-99.736717978964762 -75.430700628736219 -14.602338285346860 21 31 33
-99.751828608998096 -74.929626526041815 -15.154561643793244 22 30 33
-99.749144840513637 -74.358454363340385 -15.161724911439990 22 31 36
-99.746486995898991 -73.787268636762377 -15.168875916816035 22 31 36
-99.736718351578958 -73.185860387371505 -14.958022030166205 21 30 37
-99.726972953424266 -72.583349647921494 -14.747168371114583 20 30 39
-99.727966217818960 -72.026677880915983 -14.863282183898946 19 28 36
-99.736137715618810 -71.502370576962619 -15.197346580591443 15 24 31
-99.740774411196810 -70.963484145229970 -15.422393199916229 13 22 29
-99.749023805810580 -70.442127837063182 -15.756389954957882 13 22 29
-99.743009883818260 -69.855442765866556 -15.654447153867665 12 21 28
-99.740606417246099 -69.285198299410595 -15.661466776796857 10 19 26
-99.716769297041665 -68.611260851930098 -15.014654240576988 15 24 28
-99.714434063371357 -68.039337087696069 -15.021658506975427 11 20 24
-99.704977178456687 -67.431743226066274 -14.810719147308902 10 19 24
-99.691975261025377 -66.804940496921986 -14.490814560649511 9 18 24
-99.671843937879274 -66.139746120161902 -13.952998071920803 9 18 24
-99.669664955839778 -65.564989745295151 -13.959956745558856 8 17 23
-99.674700902439554 -65.028019794666662 -14.184792637260614 7 16 20
-99.683373406281703 -64.511284800625333 -14.518539408789877 6 14 18
-99.670579654541427 -63.879426231458460 -14.198587278678588 6 14 18
-99.668592973105461 -63.305074250143335 -14.205449793741110 8 14 17
-99.673834774707544 -62.770677445470611 -14.430160718431438 9 14 17
-99.682722486776228 -62.257596752625176 -14.763766919524784 12 16 19
-99.670127771683525 -61.622858361709213 -14.443749214415533 13 17 20
-99.657583929882804 -60.986443127624710 -14.123724432286878 12 16 19
-99.659460765148452 -60.432689774548741 -14.239385507094511 10 14 17
-99.668584029043487 -59.922146312046785 -14.572852904015036 9 14 17
-99.656211623299058 -59.283408125061328 -14.252770018785839 8 13 16
-99.640303160699375 -58.621082680998050 -13.823762681601465 9 15 15
-99.620858532007617 -57.934351087073289 -13.285839373995231 9 15 15
-99.623047104850073 -57.379515075026717 -13.401362458967327 10 16 16
-99.618112558124082 -56.779727207287181 -13.299038162116574 10 16 16
-99.606052979449487 -56.133351770163820 -12.978884235541727 10 16 16
-99.594061685401002 -55.485277695041695 -12.658715126770062 10 16 14
-99.592934605324686 -54.906106651977481 -12.665216016512090 10 16 14
-99.595481500525622 -54.350672378877420 -12.780573839497748 10 16 14
-99.580112307756181 -53.675312174650323 -12.351442690809506 9 15 11
-99.582815550551800 -53.119456624403291 -12.466730054059013 9 15 11
-99.574801836652426 -52.490194188063292 -12.255323331850349 9 15 12
-99.570470023326578 -51.884657156538765 -12.152769868437929 10 16 16
-99.566222888316901 -51.278490556030306 -12.050182375679128 11 17 17
-99.572864331975595 -50.748016934040209 -12.274183333116923 13 19 19
-99.572394387348396 -50.167114008664356 -12.280387678647173 14 20 20
-99.568414760400003 -49.560130181694980 -12.177680623071296 14 20 20
-99.578932749728196 -49.057543254280446 -12.510398887512622 11 16 21
-99.575141891406830 -48.450362206482886 -12.407603555765718 12 17 23
-99.567847140065211 -47.815726722808797 -12.195908191809195 11 16 22
-99.567854542396176 -47.234049209823418 -12.201892149410298 12 17 23
-99.567963810480393 -46.652261059767000 -12.207828513627135 11 16 22
-99.582581542681169 -46.180854616711919 -12.649123403662202 12 17 23
-99.579299524668144 -45.572029351009604 -12.546101569216773 20 29 34
-99.590529180383328 -45.075216686966087 -12.878419937504361 15 24 31
-99.583865341672194 -44.437701737381047 -12.666452386897163 7 15 17
-99.584515763784736 -43.856397737467276 -12.672124881281150 9 15 13
-99.592480896921586 -43.332939736055927 -12.895420374902869 7 13 12
-99.596962292881088 -42.781174967712488 -13.009814967300628 6 11 14
-99.597963362184487 -42.200279610693009 -13.015315506903846 4 9 12
-99.609881569565701 -41.708667861939560 -13.347250938800755 3 11 13
-99.632714013267844 -41.308796939995766 -14.005597357797029 14 23 25
-99.652067982660100 -40.881698487204190 -14.555029248712430 15 25 26
-99.657157484005353 -40.334657402547244 -14.669084302328912 9 19 20
-99.655184691226438 -39.726193751008772 -14.565432416742851 9 19 20
-99.656941517561123 -39.148193967320744 -14.570541599181894 10 20 21
-99.662427954951383 -38.601474770305046 -14.684403446603852 12 22 23
-99.678829679467768 -38.150304738536519 -15.124636577282871 30 40 41
-99.677403818415783 -37.541147477398489 -15.020730181105421 21 31 32
-99.690486653837596 -37.060352273699550 -15.351997118807731 18 23 26
-99.685759400081920 -36.418271184888262 -15.139150114160827 13 18 21
-99.699127545908539 -35.939009849071354 -15.470264771470710 6 11 14
-99.701877032191206 -35.361903551521614 -15.474889871691516 21 26 29
-99.701193912055473 -34.751220020303087 -15.370643861470342 19 24 27
-99.700669594996981 -34.139776020177585 -15.266329708289845 7 12 15
-99.693141376348365 -33.459724202012815 -14.944354642518419 7 12 15
-99.710852840139211 -33.017169968197770 -15.383872511681375 14 19 22
-99.710817683657922 -32.404233974174886 -15.279339703600158 16 21 24
-99.728841923479621 -31.964241740101023 -15.718681569831716 13 18 20
-99.729141713153624 -31.351107080656430 -15.613990569620881 7 12 14
-99.718895830902156 -30.631288219039739 -15.182866082036696 7 13 15
-99.701697496289000 -29.837871498979716 -14.534107433719697 15 21 23
-99.695412683546195 -29.148430742712140 -14.211634171881457 15 20 22
-99.689323133889928 -28.457070417587676 -13.889087255938506 14 19 21
-99.708390730259808 -28.018571352314900 -14.327914614037184 10 16 17
-99.724065108244247 -27.545325726952818 -14.657864055058127 11 16 18
-99.747037501591080 -27.147351218116984 -15.205265116970850 16 21 24
-99.759504455610340 -26.640166907001369 -15.426239441643929 13 18 21
-99.743714092923724 -25.833767043529701 -14.776940866400793 20 25 28
-99.763683661335676 -25.401537180726386 -15.215272192115833 17 22 25
-99.766084714758236 -24.780927619149772 -15.109652897452889 14 19 22
-99.786432975249298 -24.351107960132030 -15.547778248736961 17 22 25
-99.778615175124699 -23.614299618534027 -15.115667056238294 18 23 26
-99.778116716901906 -22.952713646089794 -14.900997783869229 14 19 22
-99.767234748085357 -22.172184374499729 -14.359943635745140 18 23 26
-99.788414543933953 -21.743502178287933 -14.797659474888405 20 25 28
-99.809790734630297 -21.316681163440425 -15.235262201334876 10 16 15
-99.849001939204257 -21.091698637221572 -16.216549517919617 9 15 13
-99.863711835633083 -20.589422453220855 -16.436400304814100 9 15 13
-99.843440375840032 -19.682350688875232 -15.568563967674692 7 13 11
-99.862142675598861 -19.219578159587044 -15.896957056458547 0 6 4
-99.856477218563441 -18.470311025399006 -15.463944435014497 8 14 12
-99.858103919836580 -17.801183574201815 -15.248336121856340 8 14 12
-99.845980459709210 -16.963855510264139 -14.597601672502265 4 10 8
-99.879651964156139 -16.668052087822165 -15.360550387860513 4 10 6
-99.899537542742422 -16.206820348214265 -15.688361539987056 2 8 4
-99.916164300776231 -15.704316181008002 -15.907297653605838 4 10 6
-99.915606856181725 -14.988554284509682 -15.582355375196187 7 13 9
-99.925786674875368 -14.399844077463062 -15.583545274730426 3 9 5
-99.915382367414622 -13.550592425224398 -14.932111124117711 7 13 9
-99.894901641406605 -12.566617796266101 -13.954307614115919 3 9 5
-99.919844655601537 -12.147872713807512 -14.390120854797686 5 11 7
-99.938109061595341 -11.642494549024835 -14.608303106746604 4 10 8
-100.008457701966080 -11.804740935127638 -16.457579518418498 8 14 14
-99.999581607175841 -10.946797518921175 -15.805503744795402 10 16 16
-100.015170541581355 -10.400156994707089 -15.914531782455015 7 13 13
-100.041358111586447 -9.989472734198461 -16.349666657813430 8 14 13
-100.057506773149925 -9.443705227251284 -16.458417937513985 14 20 20
-100.097924278630728 -9.219076270769419 -17.328265639488336 21 27 27
-100.138551065099506 -8.998392779876440 -18.197972609496077 27 33 33
-100.189624121255704 -8.920978286039965 -19.393784034894736 20 26 26
-100.189787436788762 -8.148308228016610 -18.958223846684945 19 25 25
-100.214115696804456 -7.701831980060335 -19.283757749555775 14 20 20
-100.231944589426647 -7.161853658095009 -19.391645621487925 14 20 20
-100.226397926049600 -6.288770907560156 -18.738132896062666 9 15 15
-100.234781805365500 -5.603081107658332 -18.519462456665877 4 10 8
-100.243535651930117 -4.915595923744458 -18.300633506995069 5 11 7
-100.272837621817899 -4.516892034232799 -18.734155144147735 27 33 29
-100.265530927008470 -3.583897167240377 -17.971242232318332 23 27 28
-100.265383195146313 -2.744212241722789 -17.425661780892284 28 34 34
-100.285706824888635 -2.196689986558610 -17.532433832631540 5 11 11
-100.309710717372937 -1.698589188278095 -17.747795424327506 15 21 21
-99.752757014252936 -150.477679157543889 -16.593641138492160 187 196 198
-99.758421605175343 -149.845693242526920 -16.930013220878578 169 178 180
-99.756971843128568 -149.258047397670140 -17.047614600881957 171 179 181
-99.759209818147610 -148.649975385647480 -17.274520921833812 166 172 172
-99.765140626248339 -148.022291508824537 -17.610721363794397 158 162 163
-99.767547363958158 -147.416806677278544 -17.837520318105106 156 159 158
-99.773647427083702 -146.792249125665251 -18.173607608206083 48 53 49
-99.768983779305429 -146.229248386350406 -18.181633930754629 53 58 54
-99.760769698077965 -145.685988644981563 -18.080296679566032 59 64 60
-99.745376996974727 -145.181060495137189 -17.760281319351094 63 68 64
-99.737279179890052 -144.636279683247437 -17.658904104938102 59 64 60
-99.736487591944851 -144.053277080904365 -17.776142821479482 57 59 58
-99.739386984312901 -143.452276348482599 -18.002659934405557 58 60 59
-99.742353496092036 -142.852412566255339 -18.229133234435835 55 57 56
-99.741754946184486 -142.271732477998228 -18.346255695437463 50 52 51
-99.741215892011240 -141.691641035203531 -18.463343634660333 46 48 47
-99.733465893230232 -141.147145917811969 -18.361797084366060 46 48 47
-99.722127850879403 -140.619380395658737 -18.150935950768371 46 51 47
-99.718109339249665 -140.056644302520027 -18.158650918258758 44 49 45
-99.721420482857326 -139.460567813979225 -18.384920363087076 42 47 43
-99.721144826412967 -138.882031682192832 -18.501866284141784 41 46 42
-99.709987171214422 -138.352508338414054 -18.290936948089779 40 45 41
-99.702512649345138 -137.806056650056291 -18.189278750553086 41 43 40
-99.702373098081736 -137.227889723079613 -18.306155758945096 39 41 38
-99.702279076015529 -136.650295990324821 -18.423005086149203 35 37 34
-99.702229125055581 -136.073273975317875 -18.539827444909150 37 39 36
-99.691262710380073 -135.541178860125399 -18.328833092581533 37 39 36
-99.683981790682964 -134.993507874427962 -18.227094827269326 38 40 37
-99.684046870401986 -134.416833457179962 -18.343858577748364 38 40 37
-99.684150518638063 -133.840725395139657 -18.460598047402385 37 39 36
-99.684291396421585 -133.265182448917017 -18.577313889547554 37 39 36
-99.677144926870810 -132.717056222356007 -18.475515989769065 35 37 34
-99.670026395592956 -132.168405579051722 -18.373710122501564 37 39 36
-99.659269664143224 -131.632112279123163 -18.162658672462015 41 42 43
-99.655868453036589 -131.069526870607291 -18.170076774425553 38 39 41
-99.652494976148958 -130.506957556804764 -18.177481442762826 40 42 41
-99.652817924424042 -129.932335883325464 -18.294100699885718 43 45 44
-99.660512429166459 -129.334680468409090 -18.629148297374968 43 45 43
-99.668240803923183 -128.738668889874447 -18.964162770731747 38 40 37
-99.679676484450013 -128.133048010261717 -19.408361479999485 43 44 41
-99.676442022227789 -127.573534681169562 -19.415668187411512 35 34 32
-99.665873042334837 -127.035449722964628 -19.204545360109421 52 47 43
-99.640600596555956 -126.538036085924773 -18.556602430465688 55 41 33
-99.615328652140192 -126.037371163023025 -17.908692728090273 74 47 38
-99.597421161258481 -125.513667192563545 -17.479214818718674 91 56 46
-99.594254285055229 -124.949310177318949 -17.486539051705705 101 64 49
-99.598474527543445 -124.366260429308554 -17.712239495961342 106 66 46
-99.606403091580532 -123.775226079556731 -18.047106966336457 111 68 49
-99.618043548300278 -123.177021686595182 -18.491131369752594 117 76 57
-99.622329648792501 -122.598066921157852 -18.716758156052180 121 83 62
-99.608177256090940 -122.061521048913974 -18.396474893649327 126 85 67
-99.601413617054874 -121.507366690586920 -18.294555899653432 131 88 71
-99.602046852330119 -120.937233621937224 -18.410980513074605 132 89 72
-99.613780903226825 -120.345303380082811 -18.854895558368099 136 91 75
-99.621838896291550 -119.762727007247662 -19.189614048134700 137 91 75
-99.622516855203088 -119.195593912972157 -19.305986385678352 140 94 76
-99.630606298952898 -118.615740963024450 -19.640661795985068 138 95 76
-99.642413560639099 -118.031159461002844 -20.084466173217038 139 98 78
-99.657942310591935 -117.442664181493996 -20.637389374616703 141 100 80
-99.651263882303184 -116.891796622214542 -20.535395783417584 141 98 79
-99.655706169076112 -116.323748457801031 -20.760835583612419 138 94 75
-99.656451539865742 -115.762063563506445 -20.877119590485307 134 92 70
-99.653495079795348 -115.205926690597693 -20.884258547061080 133 91 69
-99.665383922740702 -114.630865795819162 -21.327925895705221 132 90 68
-99.666151931335989 -114.071358682372079 -21.444176655737181 129 87 65
-99.670638765105835 -113.508208071364550 -21.669544731823891 128 86 64
-99.667704093820717 -112.953977837718242 -21.676653638723764 129 87 68
-99.664771150524643 -112.399748514114989 -21.683761709592090 127 86 68
-99.665557100288083 -111.842147054478019 -21.799984270778680 124 83 65
-99.655189711294057 -111.294393526497217 -21.588864526527317 123 82 64
-99.648537547442402 -110.742724364194729 -21.486866621814102 122 81 63
-99.656770272600482 -110.180280810120763 -21.821294283128793 125 82 65
-99.650118043500981 -109.628612873495626 -21.719296397013466 124 81 64
-99.654636757184250 -109.070358472093318 -21.944598822713743 127 84 65
-99.651707970064351 -108.516677093923676 -21.951699265004009 127 84 65
-99.663688709537993 -107.957111456743505 -22.395163150193383 126 83 64
-99.660763248607054 -107.404517878513545 -22.402250803974994 128 86 64
-99.657836225268724 -106.851924853136737 -22.409339199516154 125 83 63
-99.647443493481248 -106.300644730308491 -22.198267880182669 123 82 64
-99.640776462422807 -105.747894001599462 -22.096288220996598 128 87 69
-99.634104439193990 -105.194600540877985 -21.994316536660989 130 87 70
-99.634899878103525 -104.641082112464559 -22.110492529581137 127 83 66
-99.643171327327693 -104.088968813760374 -22.444795330927320 130 86 69
-99.643970626560176 -103.537081871607654 -22.560952683374552 131 90 70
-99.633548406405552 -102.982817378686647 -22.349926190795372 131 92 71
-99.626859918121468 -102.428712574749625 -22.247970734849076 130 93 73
-99.631396539076292 -101.878617019483016 -22.473180610670084 131 94 74
-99.617211476361149 -101.320664488629490 -22.153133326980651 133 97 78
-99.618000874008587 -100.769325240409827 -22.269289778623403 132 96 77
-99.603799121841377 -100.209201283956673 -21.949272830685089 127 94 80
-99.612082233131389 -99.663071964765052 -22.283508456831811 131 97 86
-99.601617745977833 -99.104195714824428 -22.072549655771780 132 96 88
-99.598649693471316 -98.550528462640486 -22.079668737082528 132 95 88
-99.595679534161917 -97.996862362650205 -22.086788814420458 139 100 94
-99.573931595449167 -97.424744318365882 -21.548787627589832 135 108 103
-99.540897422324463 -96.838023885806038 -20.683759391572579 120 103 95
-99.489047896993071 -96.225788132155031 -19.273700572972842 65 58 47
-99.429639960700371 -95.597478940841569 -17.645705354396426 54 50 41
-99.396514143478626 -94.994462032483256 -16.780888708413130 61 58 50
-99.378413989378686 -94.407295535856250 -16.352156220127398 59 59 54
-99.367829473607415 -93.828598174722813 -16.141458869001497 64 65 68
-99.349708121107000 -93.237630709098966 -15.712775647241216 20 24 29
-99.346642637196624 -92.667946912509493 -15.720106205739228 35 43 49
-99.339809355978474 -92.092128545642353 -15.618443526847472 21 30 37
-99.336743844760292 -91.522175139177904 -15.625776873639325 12 21 28
-99.337450906413025 -90.958901600827403 -15.742095560183259 13 21 24
-99.326844572862015 -90.375320306119605 -15.531458919390133 11 18 21
-99.327557115505485 -89.812319915321169 -15.647772172201996 13 18 22
-99.328275306365981 -89.249863399070307 -15.764077124552188 11 16 20
-99.328999652825431 -88.687950603814699 -15.880373535291653 7 12 15
-99.307059545814255 -88.078357658337964 -15.342850029100020 9 12 17
-99.296449177159005 -87.490974951284599 -15.132254448533843 8 13 19
-99.293400783445591 -86.919666632654753 -15.139593553161632 9 14 20
-99.301706537669830 -86.374914726099774 -15.473804168605994 10 15 21
-99.291105540250456 -85.786172451876027 -15.263218099580627 9 14 20
-99.284291338350258 -85.205738186009398 -15.161593806975759 9 14 20
-99.281268937348287 -84.634426622296061 -15.168920510182772 11 16 20
-99.289620597922266 -84.092930300161171 -15.503075652820826 12 17 21
-99.271459343685663 -83.481587875142367 -15.074621249606935 13 18 22
-99.264670762638531 -82.899516637422337 -14.973001550247460 12 17 21
-99.250303954648146 -82.295391512416444 -14.653516490581382 13 18 22
-99.243528493333955 -81.711684475595249 -14.551907352888520 13 18 22
-99.232966524112584 -81.116133253671151 -14.341372700826184 11 19 21
-99.214817567313759 -80.496353382517214 -13.912999265431893 12 20 22
-99.204268226371838 -79.898076798013875 -13.702486625570089 12 20 22
-99.205127708125929 -79.335045308817072 -13.818729903326499 11 19 21
-99.221210686932963 -78.822087446119184 -14.370610418964077 12 20 22
-99.237323892840820 -78.311840127465246 -14.922448573068749 11 21 23
-99.234447999013611 -77.739665953706478 -14.929714067024094 10 21 23
-99.235395816989097 -77.180683257002045 -15.045873408779897 12 23 25
-99.217331968726683 -76.554881930222862 -14.617521239621169 18 29 31
-99.195469659889909 -75.913155546658842 -14.080291280670252 16 27 29
-99.169806062530952 -75.254688164841838 -13.434193283703166 17 28 30
-99.182256345330600 -74.735808240273983 -13.877013742496160 21 28 34
-99.194740729961097 -74.219090507736524 -14.319795630561401 20 29 34
-99.203446865584311 -73.689704851092600 -14.653656532387203 20 29 36
-99.193113482743897 -73.086431147815333 -14.443092016763728 20 29 36
-99.186617796744571 -72.497429027791881 -14.341403540470651 20 30 39
-99.168696317569271 -71.860934678874600 -13.913093331077249 22 32 41
-99.166067681324733 -71.285915012766679 -13.920269827934732 22 32 41
-99.167289219061942 -70.727065917253825 -14.036296847870602 24 34 43
-99.183828236581661 -70.234580858227446 -14.587748459298382 27 37 46
-99.196590279577293 -69.728062275096121 -15.030292531585047 30 40 49
-99.205572843670254 -69.206693743542800 -15.363938666682373 26 36 45
-99.187827424813008 -68.566008012146966 -14.935587374641699 26 36 45
-99.173935094040260 -67.940671370848136 -14.616093667494113 25 35 44
-99.160074167261314 -67.313679038866596 -14.296601979639462 28 38 48
-99.150073913983462 -66.703120084180512 -14.085953086727670 25 35 45
-99.136281514232394 -66.073083632455194 -13.766459950431539 21 31 41
-99.134014877208656 -65.497289642412085 -13.773471238607897 18 27 37
-99.135623176578534 -64.940370983762875 -13.889293362147981 13 22 31
-99.152606877462887 -64.460675829237758 -14.440400585666197 8 17 24
-99.146649662643028 -63.866966013789956 -14.338502965280526 12 21 28
-99.136904812637624 -63.252954827643094 -14.127767423871347 11 18 26
-99.134875806576545 -62.677806049640587 -14.134658388718009 10 17 24
-99.132898227658018 -62.102617994158763 -14.141525155298808 13 18 24
-99.127136873573036 -61.506851071399595 -14.039555010647945 15 20 26
-99.113753027057982 -60.868877651720908 -13.719948123082389 14 19 25
-99.123451303260566 -60.355717556412529 -14.053167370401923 13 18 24
-99.133212487779602 -59.844142568400358 -14.386340206292800 14 17 23
-99.116156992140120 -59.182769876183755 -13.957871798629583 13 16 21
-99.095315480908752 -58.497271335262518 -13.420604062408188 12 16 19
-99.086054406728238 -57.875508300416911 -13.209716877975467 12 16 19
-99.084539991914923 -57.297485181612302 -13.216391251166897 11 15 18
-99.071562994603610 -56.651260722802682 -12.896674660427607 11 15 16
-99.050963040032798 -55.957369330364919 -12.359377756164633 11 15 16
-99.049648748603090 -55.376986349170657 -12.365980682264421 11 17 17
-99.059941378987958 -54.867130577612180 -12.698881579516126 11 17 15
-99.066465905720165 -54.335036756445795 -12.922955147134815 11 17 15
-99.065376373185956 -53.755809937045875 -12.929438648395205 9 15 12
-99.060518027840914 -53.152161475862869 -12.827117636092709 8 14 10
-99.055738333268522 -52.547891809085812 -12.724765391911433 7 13 10
-99.035650226923181 -51.843426732716630 -12.187332461452343 6 12 12
-99.034880173403053 -51.261981137398635 -12.193685964022649 7 13 13
-99.022651899316372 -50.604136752438436 -11.873730796396302 10 16 16
-99.025902544905392 -50.047409941626995 -11.988765252348458 12 18 18
-99.025394988749497 -49.465153651937939 -11.995001521963900 11 17 17
-99.051919918049023 -49.066591429329954 -12.762426882327958 11 16 20
-99.043901448825181 -48.432994370568508 -12.551067053496325 15 20 24
-99.020582501473314 -47.691001312193649 -11.904707155751140 12 17 21
-99.016605609949110 -47.080999012647155 -11.802029862212294 10 15 19
-99.035822943760394 -46.634422105849325 -12.351727620633483 11 16 20
-99.055142398176528 -46.190461935573815 -12.901349589523818 12 20 23
-99.051472148223965 -45.581761241714858 -12.798512201626949 19 28 33
-99.040211041208110 -44.916064874588827 -12.478175168986013 16 25 32
-99.036756804767720 -44.305484362649388 -12.375253790877224 8 16 18
-99.037262409017686 -43.722942405779186 -12.381008308543130 11 17 17
-99.057121550261897 -43.285193284726518 -12.930308159654942 10 16 16
-99.054006783006784 -42.674493917604302 -12.827225604087602 8 13 16
-99.062552398512310 -42.151703113067640 -13.050236529141245 2 7 10
-99.063522637201373 -41.570253654071173 -13.055757521654698 2 10 12
-99.087693158025928 -41.169125548062965 -13.713476749969317 16 25 27
-99.100444325190466 -40.680073462180665 -14.044987348865220 12 22 23
-99.121008740210044 -40.253757787040406 -14.593832109217971 8 18 19
-99.118628753715626 -39.644626216244468 -14.490381898938153 6 16 18
-99.120225147425927 -39.065955864386481 -14.495574734289818 5 15 17
-99.106583887450654 -38.361331534384405 -14.065918178823324 5 15 17
-99.127663617755147 -37.939824841310539 -14.614466912841891 14 24 26
-99.137349838578999 -37.424896731258187 -14.836851241556730 28 38 40
-99.151013247092465 -36.943150095849433 -15.167850228646529 30 35 38
-99.134102496950561 -36.202520968034122 -14.629269516619615 17 22 25
-99.128862648497218 -35.557406661070281 -14.416698957957180 23 28 31
-99.142959456931237 -35.076451657177742 -14.747482459349726 34 39 42
-99.149529852493558 -34.530208395900182 -14.860820845851975 28 33 36
-99.148584070916513 -33.917025140192194 -14.756726222883913 12 17 20
-99.128635942512005 -33.133504979028373 -14.109181196238950 10 15 18
-99.131851302962417 -32.551603953466902 -14.113632778398880 17 22 25
-99.154376266609276 -32.141797471798213 -14.661369681586621 20 25 28
-99.180877933191724 -31.769247368267820 -15.317679530025259 18 23 26
-99.184571398806938 -31.189674893294313 -15.321878419372183 12 17 20
-99.161667004209107 -30.362833336109802 -14.565334704312448 19 24 27
-99.135140743725543 -29.496323618182792 -13.700073116863308 29 34 37
-99.135564452252041 -28.876031977505178 -13.595396504701341 21 26 29
-99.139990955852085 -28.291041369367420 -13.599300482755467 15 20 23
-99.140785201399297 -27.669389193251682 -13.494460611627659 13 18 21
-99.153211506451356 -27.156910200236158 -13.715508883447967 13 18 21
-99.177252046545163 -26.756080744765875 -14.262428335018114 13 18 21
-99.201460872486010 -26.357721890110081 -14.809241848080575 14 19 22
-99.183970290895417 -25.549379123908587 -14.160776651007041 12 17 20
-99.200942378359471 -25.077363381833905 -14.490092612454617 13 18 21
-99.202896010195175 -24.454502770826672 -14.384710533927830 15 20 23
-99.227848796581554 -24.060720974393796 -14.931121024903604 19 23 26
-99.207437623543015 -23.206161045482201 -14.173669880320631 19 23 26
-99.217617129771469 -22.658421545787355 -14.285297082184883 18 22 25
-99.209059655243550 -21.915116417949058 -13.853606622069861 17 21 24
-99.227247069225001 -21.445276784176375 -14.182318775701418 16 21 24
-99.260766525758086 -21.135587576073181 -14.945483163627841 14 20 20
-99.294462829373785 -20.829420909785973 -15.708526689223731 14 20 20
-99.320786000737485 -20.446240195016863 -16.254172470464539 15 21 21
-99.309583622201529 -19.660020636757626 -15.713330178231189 16 22 22
-99.325029310295037 -19.156389106017038 -15.932842916180277 12 18 18
-99.321875326061971 -18.447972917368389 -15.609067200372522 17 23 23
-99.337787545097996 -17.944377571263168 -15.828356379051144 18 24 24
-99.323878293672323 -17.108221296218897 -15.178464184321342 16 22 20
-99.332779753340745 -16.519917159179688 -15.180261466548757 12 18 16
-99.334438422971232 -15.846749284671249 -14.964679449944839 8 14 11
-99.340114409612212 -15.214518259714978 -14.857613064016476 10 16 12
-99.349798499155170 -14.624052108396416 -14.859058193493610 12 18 14
-99.370948578506059 -14.162289409440088 -15.186269878220003 10 16 12
-99.377421592920797 -13.528397422707185 -15.078839294050624 11 17 13
-99.365555826812482 -12.675390365036725 -14.428142956520105 9 15 12
-99.394936045590384 -12.301377655262195 -14.972231885875601 12 18 15
-99.431972194118600 -12.018022823636668 -15.733442827439490 15 21 22
-99.472925758274499 -11.782547688599660 -16.603145725945666 21 27 27
-99.473346684428449 -11.058930494762524 -16.277816256845256 23 29 29
-99.492578104950766 -10.558195163333036 -16.495488101342374 15 21 21
-99.486241004102894 -9.740936230108755 -15.952637780819174 13 19 19
-99.502375434589254 -9.193807944642145 -16.061409875795107 14 20 21
-99.537199176231780 -8.876009747329032 -16.713174883175014 15 21 24
-99.605316073327032 -8.976361732858905 -18.342438293497366 16 21 24
-99.662553087741969 -8.945320440193241 -19.645682444658235 12 17 20
-99.650400068528626 -8.032913461999783 -18.884876076329988 10 15 18
-99.667886878775832 -7.491919250762087 -18.992938056356394 10 15 18
-99.667447690042877 -6.714472714377694 -18.557715270813532 9 15 15
-99.685590673923997 -6.171954147993667 -18.665479030575938 11 17 17
-99.700418541067592 -5.581515257308279 -18.664463113872984 12 18 16
-99.744586893809924 -5.375496351930661 -19.532324860769336 15 21 17
-99.720234545720032 -4.253412551650156 -18.336077378740242 23 29 25
-99.681953343943846 -2.929562016322620 -16.705134759251393 17 23 21
-99.680283730345252 -2.086349342717142 -16.160318683714763 18 22 21
-99.743756225435689 -2.126527708554360 -17.570705587491716 5 9 8
