ply
format ascii 1.0
element vertex 688
property double x
property double y
property double z
property uchar red
property uchar green
property uchar blue
end_header
-122.360981115300802 -148.559486144275127 5.842493769289547 68 74 70
-122.128670802098227 -147.329864159278401 2.171215877490766 66 71 67
-121.917555733391794 -146.176122007837165 -1.156564557985348 63 68 64
-121.872399564000688 -145.497090118367680 -1.739451155596640 65 70 66
-121.848122744852517 -144.877454598589082 -1.979161092187326 68 70 67
-121.885995773536223 -144.426110233909895 -1.189676484921222 70 72 69
-121.855137963363433 -143.788193692991371 -1.543581805714979 67 69 66
-121.810704625453397 -143.116031861457600 -2.126051886265913 67 69 66
-121.738976745934053 -142.375788090783345 -3.165715923247717 64 66 63
-121.763621207672301 -141.885112028573730 -2.604682447826747 64 66 63
-121.706006741940584 -141.185532107178091 -3.415458332759925 63 68 64
-121.580009920919892 -140.320741747225469 -5.369237545311734 63 69 65
-121.536549588101963 -139.665096843695068 -5.951072126524394 70 76 72
-121.554915151764277 -139.159626442618332 -5.504053624903122 49 56 49
-121.628142926205300 -138.780839501014242 -4.142614133844802 52 59 51
-121.619304807088682 -138.205733638208699 -4.152762113289867 39 46 38
-121.508038875898023 -137.397516790760847 -5.877194009215003 43 48 42
-121.417522296523615 -136.643435622884681 -7.258565585847350 37 42 36
-121.395517626669545 -136.046027578203365 -7.496959735436718 65 70 64
-121.455552140829084 -135.626536565217521 -6.363968612170027 42 47 41
-121.474701970397774 -135.114948969337547 -5.916637887786493 31 36 30
-121.439401763706940 -134.487825256759123 -6.383416224763806 55 61 52
-121.411063299333719 -133.876886113130666 -6.735838607260035 38 46 35
-121.410102395002767 -133.322208808692267 -6.631148987818335 74 81 73
-121.422860505313352 -132.793790594650886 -6.297908170947096 34 41 33
-121.442511933222448 -132.276902782232867 -5.850392041428307 19 26 18
-121.469044855387295 -131.770723730974538 -5.288614713066636 31 38 31
-121.461675494242741 -131.199189705558297 -5.298023277015801 39 44 38
-121.434038989458543 -130.590930959917330 -5.650082253767835 39 44 40
-121.413318587961868 -129.996379880486444 -5.887832605598561 39 44 40
-121.372361772563636 -129.367830715389260 -6.468190602611628 33 38 34
-121.379014718316114 -128.822218210996965 -6.248906349926955 32 36 35
-121.378978348478171 -128.264406892525471 -6.143806696333655 33 38 33
-121.345160004168378 -127.651606212939456 -6.609728681253387 34 39 33
-121.331783198908212 -127.072940482834284 -6.732943481015127 33 38 32
-121.325279894097207 -126.505238944799501 -6.741898276865015 32 37 31
-121.366235019325657 -126.008179679212176 -5.951409771616625 34 39 33
-121.339614359569865 -125.409256133783387 -6.302886679683695 34 39 33
-121.340146029021909 -124.850176176819659 -6.197528336774496 33 39 35
-121.300223457483852 -124.235018092731252 -6.777253713945925 32 37 33
-121.267176264768423 -123.631633029016925 -7.242709862922027 32 37 33
-121.213989256465155 -123.004324518811458 -8.050623741456150 33 38 34
-121.214918494546424 -122.448454205253825 -7.945042164605496 35 37 34
-121.222676146174976 -121.900259764512612 -7.725256001584171 36 39 37
-121.217024419790192 -121.335219017897316 -7.733776016371195 34 38 37
-121.204718887157810 -120.762594730705075 -7.856416135372939 36 40 39
-121.199241640470362 -120.197914288779273 -7.864848970873652 36 40 39
-121.227523654411428 -119.668689560799763 -7.302472103729258 37 41 40
-121.222201540440821 -119.102727395151035 -7.310843917696133 40 44 43
-121.196772615814623 -118.517190863173752 -7.661612904507621 41 45 44
-121.151258373367170 -117.914531745577349 -8.354743544654923 40 44 43
-121.139479216038822 -117.345141330275268 -8.477098559647629 41 45 44
-121.114339752425394 -116.764890152440245 -8.827674664497437 43 48 44
-121.143055034943757 -116.229885834886133 -8.265150015369699 44 49 45
-121.131518246060054 -115.661138227407136 -8.387382465385372 43 48 45
-121.146926005472153 -115.112574887663783 -8.053081429365136 44 48 47
-121.115404200963766 -114.529995967673599 -8.517593669762135 46 50 49
-121.104109858014169 -113.962696196624492 -8.639695231166257 47 51 50
-121.086186688171111 -113.391882216927925 -8.875863059069957 46 50 49
-121.061640415366568 -112.818370056016590 -9.226086015383544 44 48 47
-121.023771936649041 -112.239435669766920 -9.804455852871428 45 50 47
-120.992700525282984 -111.666515059364343 -10.268653208900417 47 52 48
-121.001921660542024 -111.113765380517890 -10.048213809680931 47 52 48
-121.004508702596212 -110.557222569541182 -9.941846067445880 49 54 50
-121.000467307339306 -109.997702671299010 -9.949538876475316 49 54 50
-120.996497573546023 -109.438199638539018 -9.957197229301300 50 54 52
-120.985906372051247 -108.876806707934037 -10.078901608167570 52 56 55
-120.948626327533177 -108.309440296909145 -10.656870865771168 53 57 56
-120.924813151769698 -107.747532530825637 -11.006623661107625 51 55 54
-120.967953166291579 -107.198155397017160 -10.215628446410278 50 54 53
-121.017823637323474 -106.645792129713840 -9.310585257240348 50 54 53
-121.020949819401906 -106.085274920338037 -9.204000502745004 49 54 50
-120.977367848516252 -105.522322182457742 -9.895798033087203 47 52 48
-120.947236066113618 -104.962643183225325 -10.359409571285113 47 52 48
-120.950580256835664 -104.403782587887889 -10.252703469841407 44 49 45
-120.947312897308962 -103.844928190263374 -10.260019132498485 42 47 43
-120.964141135838886 -103.283623746566775 -9.925169694720836 43 46 43
-120.961006569069482 -102.723959318149596 -9.932430167831882 42 44 41
-120.951268072797149 -102.165659415846505 -10.053694777348483 42 45 42
-120.941601134448462 -101.607904869496736 -10.174919540176887 39 42 39
-120.911996481537088 -101.056416763585545 -10.638194588453302 42 45 41
-120.895808210916016 -100.502746313564586 -10.873355979552798 41 44 41
-120.893027821083948 -99.945258339373851 -10.880424612294348 43 46 43
-120.903647239692930 -99.382317645038270 -10.659421180355110 48 51 48
-120.907665757112810 -98.821279363628648 -10.552414899347326 43 46 42
-120.905087481228975 -98.262959392671831 -10.559395405629488 45 48 43
-120.895916346582212 -97.708173642001242 -10.680352418360997 43 47 41
-120.900138164778355 -97.146296487334709 -10.573257513902519 41 45 40
-120.917746113439719 -96.575692605820450 -10.238130789255678 36 41 38
-120.902124971254679 -96.025236686190937 -10.472987779279208 40 46 43
-120.886578226627208 -95.475858338299787 -10.707798085778990 36 42 39
-120.857793451129652 -94.937363096798535 -11.170547165430548 30 36 33
-120.875674072497560 -94.364802607221705 -10.835310135445241 40 46 44
-120.873656768712493 -93.806936674880887 -10.842017600950669 45 49 48
-120.924937174867125 -93.203289875884082 -9.936827790805182 44 48 48
-121.016188954184571 -92.559308970837279 -8.347777682441887 12 16 17
-121.094185453318090 -91.920211789337372 -6.986736353904377 18 24 24
-121.112379024726465 -91.333395791563106 -6.651496348799640 25 30 33
-121.057493578770121 -90.819835731548949 -7.569910769065558 23 29 32
-121.062537201539968 -90.246867447773226 -7.462536882679558 31 39 41
-121.080951250966535 -89.658619415202310 -7.127206142300224 20 28 30
-121.079493980598869 -89.091593555228826 -7.133739977475045 30 40 41
-121.084760254062829 -88.516640347565939 -7.026280007578862 32 42 43
-121.110041559143951 -87.916595671440291 -6.576926539491126 29 39 40
-121.095521453748219 -87.365011724064985 -6.811268408644963 29 38 42
-121.067791894575919 -86.831921828846220 -7.273457036478760 19 28 30
-121.060079997041399 -86.274008824462143 -7.393748145571095 7 15 18
-121.065737561130689 -85.698081165661222 -7.286111014096093 6 14 17
-121.038256078616129 -85.169249575911977 -7.748137130029761 9 17 19
-120.984285833131054 -84.681793559375095 -8.665845019494213 15 24 25
-120.950332775196657 -84.168419093274750 -9.241666891907812 13 22 21
-120.949679419501578 -83.605964892527098 -9.247769078673826 8 17 16
-120.962394568448389 -83.022217510522452 -9.025977230213101 12 21 20
-121.001762166844912 -82.393742151590871 -8.348459809146590 17 26 25
-121.034570992030339 -81.773121054222756 -7.784858119763243 28 37 36
-121.040897633874280 -81.195502363596660 -7.676918310423872 30 36 36
-121.060595614130037 -80.593856560188215 -7.341111251922513 30 36 36
-121.126874174327355 -79.906597668627953 -6.207889267723317 19 25 25
-121.166675933209262 -79.262880483797645 -5.530321037539551 12 18 18
-121.180003067801977 -78.665976341796906 -5.308371846383551 8 14 14
-121.193423761079387 -78.067925216968234 -5.086389703543915 5 11 11
-121.133878929908917 -77.612614559666099 -6.117292452281589 5 11 11
-121.074427149166240 -77.162156772801254 -7.148100732980311 7 13 13
-121.048279530916219 -76.648417268078759 -7.609333382409147 6 12 12
-121.068724756909845 -76.039501169837024 -7.273243680905125 1 7 7
-121.168983624644312 -75.258810759953903 -5.570432947006566 1 7 7
-121.182992406216897 -74.657656782531305 -5.348201403962861 5 14 13
-121.236965958841296 -73.967029019851282 -4.442618540532266 8 17 16
-121.217966754987486 -73.436870629880346 -4.789741535930148 9 18 17
-121.252225589260277 -72.786157667641447 -4.225755917851586 7 16 15
-121.279951607781697 -72.148175453102027 -3.775623417374902 6 15 14
-121.334373190207955 -71.444684209655605 -2.869958628292409 9 17 16
-121.295868088850966 -70.961924482325088 -3.558501934711103 7 13 11
-121.317289117511876 -70.335140378862974 -3.222129336909660 4 10 8
-121.365418820679849 -69.640106464339311 -2.430246390682811 2 8 6
-121.460214471661786 -68.822826091686082 -0.841284764740891 4 10 8
-121.468709871889374 -68.221112922741511 -0.732555445393956 7 13 11
-121.450725672044598 -67.688564716675273 -1.079217465930753 13 17 18
-121.446159557083746 -67.122111512560849 -1.198091551988767 12 16 17
-121.421757531251060 -66.610101884855268 -1.658471309495383 6 12 12
-121.457351903033768 -65.935731779360253 -1.094090289709783 6 12 13
-121.473120505583353 -65.314158376685199 -0.871227041744788 7 13 14
-121.455743690578927 -64.785479936932063 -1.217558658007192 9 17 20
-121.505059812286547 -64.067403812923288 -0.425345318255381 17 27 30
-121.567843469184098 -63.306648578223800 0.594589296482951 30 40 45
-121.644106299059118 -62.501567132284066 1.842233799252000 30 41 47
-121.647265077067203 -61.909400956765410 1.837649483900321 21 35 41
-121.697202783532248 -61.175792277498253 2.630000303275352 19 33 41
-121.720647333961480 -60.520071556894059 2.967043087817956 18 33 38
-121.704250358742570 -59.986996435445043 2.621134966296893 20 36 40
-121.747999141764836 -59.266336457925611 3.299799428482231 22 38 42
-121.738562154232412 -58.712529444277720 3.067866422352807 29 46 49
-121.749283129170522 -58.095001984867295 3.177497664576379 38 55 58
-121.766834689759307 -57.454949134054225 3.401023655312940 36 54 59
-121.831277164757694 -56.658896515553565 4.421388509241382 37 55 61
-121.976043859674434 -55.589164528079870 6.807669694466540 42 59 66
-122.054266808881863 -54.734316453233554 8.055739638693581 40 58 64
-122.179476264222700 -53.712746384054533 10.100583807600259 28 43 48
-122.278200817235572 -52.773947935716279 11.690174160208272 21 36 41
-122.176570956271135 -52.531715024729110 9.865319199313120 20 35 37
-123.721409333770907 -2.113338674141036 15.517468269155330 116 119 110
-123.195216393273384 -4.944822017350019 6.758751111650014 81 83 78
-123.109516458328727 -5.035447140213039 4.944943247715457 21 26 22
-123.176376260739744 -4.169765637169620 5.522312278023151 10 16 12
-123.207530886718217 -3.531487109740188 5.530646422775703 9 14 10
-123.268381574005645 -2.706249232709940 5.994698134645034 5 10 4
-123.227634047419599 -2.533207767641001 4.864834605663873 3 8 1
-123.253014860461974 -1.941144365817088 4.760023408682599 4 9 2
-123.176241359052597 -2.012351621242907 3.061144927010361 0 6 0
-123.253919444647437 -1.089872427511287 3.753963624668728 0 3 0
-122.094396989909598 -176.306527286225048 -2.424700183089016 214 195 193
-121.706799376983128 -173.970606667517188 -8.398832372798410 199 168 166
-121.545025269578062 -172.727792951544131 -10.706195155589739 188 155 150
-121.468005991594524 -171.892051798661441 -11.638514697067791 189 152 148
-121.489347760130684 -171.518614358939089 -10.966995537796635 210 169 167
-121.517850947641904 -171.174599714673604 -10.180888631700242 144 98 95
-121.483758552547457 -170.538040450361933 -10.425468510782906 97 50 44
-121.422146078493640 -169.775650583314842 -11.127944678596521 181 135 124
-121.395703157581721 -169.174752956762802 -11.257639107377656 184 140 129
-121.355674674691556 -168.512231367586992 -11.616184918687253 158 119 104
-121.309046590147759 -167.820747944458930 -12.089044960432886 135 100 81
-121.269692066298020 -167.162561433019960 -12.447223728914793 134 98 83
-121.313658761687108 -166.871622649244387 -11.431455027318066 131 98 81
-121.295564206887079 -166.304584497625996 -11.445948208861552 134 101 82
-121.263935880081320 -165.678117955170507 -11.689245396664859 128 97 77
-121.211931806704385 -164.964286998348200 -12.275766212352153 117 86 66
-121.187795149659806 -164.370842199921498 -12.404280616700476 108 80 65
-121.177673397045794 -163.836349610954613 -12.303765744260346 67 45 31
-121.188377928453136 -163.387900262006553 -11.859825307875553 48 30 18
-121.171834889197328 -162.823572590565931 -11.873548349366757 41 27 14
-121.196625970982709 -162.428796501349183 -11.200598699899302 34 20 7
-121.173674526298470 -161.835446033552842 -11.328545131724468 27 15 3
-121.157807222178775 -161.270585221736127 -11.341950391724509 36 24 12
-121.183124118178114 -160.870265258632770 -10.668806260418307 44 32 20
-121.215396714455778 -160.493988002968962 -9.881228177354984 44 35 24
-121.261411693413052 -160.167742726078103 -8.864843011390320 48 42 32
-121.784262466290542 -149.635133693711595 4.912512415491562 86 98 94
-121.712905248099062 -148.854245426298434 3.872607327395514 61 71 66
-121.601874336361462 -147.958866697594999 2.147390662941035 65 71 67
-121.484509269780119 -147.052222396451754 0.308168913404046 63 69 65
-121.327591689092472 -146.038211751831739 -2.216233108539171 66 72 68
-121.217532106168321 -145.170184513811876 -3.940703549984903 67 73 69
-121.187400011383403 -144.536546235316365 -4.294217652720363 66 71 67
-121.230386604590436 -144.108857474964850 -3.391184349774704 65 67 62
-121.260192457654512 -143.640343922959090 -2.716594667663713 64 66 61
-121.184142949459627 -142.880476991866914 -3.869387032959111 61 63 58
-121.174498778190340 -142.303602186920557 -3.879938833601216 61 63 58
-121.131933245058079 -141.639531708216168 -4.461432074389279 58 60 55
-121.129199275470995 -141.081464521882424 -4.357625577045837 53 56 51
-121.060556652701891 -140.353804554589146 -5.395684106363944 46 51 45
-121.025122978937048 -139.714402361119198 -5.862652682103914 62 67 61
-120.983260315715540 -139.060934191422774 -6.443700537443192 49 55 49
-120.987705530436273 -138.522978540444967 -6.225393639878007 22 27 21
-121.064715957177015 -138.158070707202114 -4.751142791370256 29 34 28
-120.931101008864246 -137.288622484235844 -6.930332205470620 33 38 32
-120.889864490463310 -136.643511351864021 -7.510994492090589 36 41 35
-120.868513452499798 -136.046236061203018 -7.749074579920148 51 56 50
-120.952430610853497 -135.685786703612536 -6.160614796432924 30 35 29
-120.970688536322243 -135.173235968572271 -5.713720669988874 28 33 27
-120.943090921392866 -134.559326097380875 -6.065819211841784 44 50 43
-120.895952835961339 -133.905423813805896 -6.760254164556414 40 48 39
-120.881751401101056 -133.323056681581534 -6.883901564683697 32 37 30
-120.874221087961573 -132.754680479409387 -6.893354622454524 35 41 34
-120.879898026057447 -132.212560498978775 -6.674501338183717 19 24 17
-120.872579263323473 -131.643798719512205 -6.683857159906438 21 25 18
-120.884992402090333 -131.112737171271789 -6.350808585406071 66 71 64
-120.877876037468212 -130.543308189825723 -6.360074448411041 59 64 58
-120.877398742446445 -129.985947020079607 -6.255181098307361 36 41 35
-120.857423047301623 -129.392945215054880 -6.492559237712271 26 31 25
-120.844090081243380 -128.812553101142555 -6.615770835485876 29 34 30
-120.843913550366793 -128.255125389791147 -6.510734285792239 30 35 31
-120.811219863682595 -127.642702130733142 -6.976114353379785 29 34 29
-120.811242117682042 -127.085674948113507 -6.870978582839427 29 34 30
-120.817869634117457 -126.538519968532484 -6.651722372924866 30 35 31
-120.850630088277057 -126.030669578290144 -5.976124133614405 28 33 29
-120.831370894271842 -125.441111222930317 -6.213124056172859 29 34 30
-120.825229310652659 -124.871776934035736 -6.221922612569273 32 34 31
-120.806171272066564 -124.283964785543077 -6.458808328480245 32 34 31
-120.787214658080245 -123.697295720925624 -6.695633756873718 33 35 32
-120.735867405511414 -123.068166071350518 -7.502686248472997 32 35 32
-120.710628020391226 -122.476693516962271 -7.853425662695173 35 37 34
-120.704969171790296 -121.911428806797133 -7.861951390095300 36 38 35
-120.705885365544532 -121.354111568890573 -7.756390947525148 37 40 37
-120.687418461333962 -120.773403564086479 -7.992920740257262 38 40 38
-120.688499219120274 -120.215899281366930 -7.887283496164514 37 40 37
-120.696139096089468 -119.664974756953825 -7.667581778259290 37 39 37
-120.690890928749383 -119.099375125130763 -7.675914484668795 37 40 37
-120.666291902916328 -118.514195043619381 -8.026282781618562 39 40 38
-120.648261827553583 -117.936953119050230 -8.262567918822185 38 38 37
-120.656208994896090 -117.384812997284811 -8.042731707009864 38 40 37
-120.618935408542256 -116.791563719133293 -8.620964300403614 41 43 41
-120.627034923996604 -116.239216067782891 -8.401057341983119 42 45 42
-120.609340501751802 -115.665101761344943 -8.637149709741010 42 45 43
-120.630508351466759 -115.121532311231661 -8.189182776728643 41 44 42
-120.593586613379841 -114.534124186527137 -8.767186921190813 40 44 42
-120.569678099659754 -113.958185790363800 -9.117129750202679 42 45 43
-120.565225065291202 -113.396168084386716 -9.125045197161938 40 43 41
-120.586661729398998 -112.849432534164833 -8.676982254524404 40 44 42
-120.556536576978274 -112.272202892453308 -9.140771278541393 41 45 41
-120.507149286221278 -111.687364431064950 -9.946430219678092 44 48 44
-120.457861354143503 -111.106359465103495 -10.752002167869023 44 48 44
-120.440902073774524 -110.542811705406478 -10.987634079499571 44 48 44
-120.449796863240124 -109.990181615108028 -10.767349572004036 44 49 45
-120.471637625511136 -109.440839064731975 -10.319120145352599 44 49 45
-120.487091819747647 -108.887424986587178 -9.984846826158645 45 50 48
-120.463972538158345 -108.322577337490927 -10.334297926593393 47 51 50
-120.440932526340490 -107.759376686688796 -10.683694151260340 48 52 51
-120.450145657540816 -107.203276484000085 -10.463293069780150 47 51 50
-120.478718793940814 -106.648553431801716 -9.901039397709752 46 50 49
-120.468753556179792 -106.087839016953623 -10.022437333367861 46 51 47
-120.458858998464137 -105.527677677850491 -10.143795762848072 46 51 47
-120.423322457186842 -104.968061706275662 -10.720851155310811 48 53 49
-120.426427807118031 -104.409551052691754 -10.614255712356481 48 53 49
-120.423171656543445 -103.851043836171939 -10.621562438979794 47 52 48
-120.445675289219338 -103.289279458887819 -10.173143761503326 42 46 43
-120.442545900414899 -102.729689873359433 -10.180400987098238 43 45 42
-120.426642330532516 -102.172821863342747 -10.415459092431632 44 46 43
-120.378716724652961 -101.625204765025217 -11.220035630344682 40 42 39
-120.375799436647014 -101.068067972655868 -11.227166139812425 39 41 38
-120.347284137559029 -100.519636920526025 -11.689888577163458 41 43 40
-120.363748644993990 -99.956237871193409 -11.355234707922904 41 43 40
-120.367444619009206 -99.396644122962954 -11.248367861268576 43 45 42
-120.403264589227206 -98.821532232621607 -10.571998316372742 42 44 39
-120.394260385498441 -98.266009040315623 -10.692883060782492 41 43 38
-120.391735056158353 -97.707485057820762 -10.699840337612869 42 44 38
-120.363643311182116 -97.164195690430546 -11.162307222184666 40 43 38
-120.380478460133986 -96.594494486440780 -10.827540910556735 37 42 38
-120.371749920480539 -96.040570303376072 -10.948277318812387 38 43 39
-120.369496252020326 -95.482551544979557 -10.955099433483525 36 41 37
-120.341694996924019 -94.944120222731243 -11.417377342393365 32 37 33
-120.339581750086737 -94.387164308728686 -11.424121339450181 40 45 41
-120.356742608452464 -93.813859177750516 -11.089236306585974 43 47 46
-120.386768367273532 -93.227469474651045 -10.526613665674205 49 53 53
-120.448854028958237 -92.608391252766694 -9.394695731867387 12 16 16
-120.485395515490112 -92.008894205189264 -8.718232024713615 12 16 16
-120.490006493148869 -91.438779793153131 -8.611035737930280 15 20 22
-120.501084734583245 -90.861292685671842 -8.389962540262047 22 27 29
-120.512231915120296 -90.282693428334710 -8.168867810280631 23 31 33
-120.549032062973438 -89.673574692239242 -7.492379401310757 22 30 32
-120.528341102870485 -89.129777024842667 -7.840452123033799 9 17 19
-120.526911710105068 -88.563898422658809 -7.846960812358503 9 19 18
-120.506375830327556 -88.022498598598716 -8.194934661979346 7 17 16
-120.537064163560274 -87.415173923996875 -7.632210541918596 7 15 17
-120.478326952103160 -86.927087347112277 -8.663064307159203 14 22 24
-120.502772617933417 -86.327051791572615 -8.214110512141986 7 16 15
-120.508117081807896 -85.752579446587703 -8.106608186460278 6 12 12
-120.462410575590766 -85.253778493950605 -8.909620625590691 4 10 10
-120.391226772157466 -84.797973031101478 -10.167814281886848 3 9 9
-120.409594389471621 -84.207055487673699 -9.832533233087219 11 17 15
-120.402480573765786 -83.655860117358031 -9.952469073900659 12 18 17
-120.421006785501049 -83.062682766582100 -9.617135415405926 8 14 12
-120.458781272964373 -82.435144715566040 -8.940370484967872 7 13 12
-120.490247041542347 -81.815458395692886 -8.377401687127559 7 13 11
-120.496239785816641 -81.238758946997550 -8.269612151022045 14 20 20
-120.476762932230926 -80.708316806456239 -8.616966573201609 24 30 30
-120.527648030656820 -80.047626133833376 -7.712553058166179 28 34 34
-120.642505060503453 -79.259942665402647 -5.670253941854753 25 31 31
-120.668011046853522 -78.637816261724353 -5.221020285332685 14 20 20
-120.674442516466186 -78.051863488886070 -5.113116113643002 7 13 13
-120.661800586012305 -77.504537654026777 -5.346515639451241 5 11 11
-120.604530766438785 -77.051688976956228 -6.376304688039681 7 13 13
-120.598463755590757 -76.494716311688791 -6.495799209596555 8 14 14
-120.618048111519201 -75.882648324427990 -6.160153789357963 4 10 10
-120.669677238176490 -75.198040035665073 -5.255630529805046 4 10 10
-120.657513215421034 -74.653406926545799 -5.488773708629765 3 11 10
-120.671007522666784 -74.050942798427101 -5.266801774379786 3 12 11
-120.697385246086370 -73.417343072438115 -4.817269182502031 2 10 9
-120.717478400179274 -72.796746828070482 -4.481468140600185 2 10 9
-120.750461323547313 -72.143371707055337 -3.918120316862627 0 8 7
-120.783555572977733 -71.487188718291250 -3.354748137911713 5 13 12
-120.835940559053157 -70.779956982791177 -2.450096152306344 6 12 10
-120.856480175222913 -70.150035368175907 -2.114177515197895 4 10 8
-120.883529147444420 -69.501764424291736 -1.664474818410127 3 9 7
-120.904302875190638 -68.868119804030968 -1.328482505893334 2 8 6
-120.906010724952509 -68.284263578136986 -1.333675401858585 2 8 6
-120.907835512275042 -67.700315740104244 -1.338813298305439 7 13 13
-120.884190846109590 -67.187150951750809 -1.798842628192119 12 18 18
-120.886250784798079 -66.604106168193439 -1.803858733438119 7 13 13
-120.920427701197568 -65.929630803167285 -1.240156902938480 4 11 11
-120.916338568829588 -65.363557098330105 -1.358798895782314 4 13 12
-120.886768039683886 -64.873179753190442 -1.932287460526595 6 14 14
-120.895727743018526 -64.270908752127625 -1.823341762211072 12 17 20
-120.962452438404767 -63.493732539421124 -0.690831912623878 14 20 24
-121.035739785058681 -62.691333288512894 0.555416738352221 23 33 35
-121.057940138548346 -62.042061056186739 0.891930680872974 31 40 45
-121.080285632408220 -61.391025468666740 1.228495906948496 23 34 40
-121.109188241891346 -60.717766664828339 1.678828164853172 15 28 34
-121.106189713698527 -60.145840626243789 1.560647672297193 16 29 35
-121.135394132096366 -59.469310996344994 2.011090646296367 14 27 33
-121.126271853566209 -58.918125850335407 1.779335184075677 16 29 35
-121.175034963790438 -58.173926916453418 2.571015069824426 23 36 42
-121.159794625084189 -57.644017212941478 2.225692862483413 31 44 52
-121.253832732879147 -56.739889115144912 3.813398115097897 32 46 55
-121.348081277075494 -55.827931003781586 5.401123441502421 32 47 54
-121.378306657830493 -55.134636608833262 5.851882272245177 38 53 60
-121.434414682338456 -54.347291274861504 6.757490697160506 38 55 61
-121.452152762354473 -53.694586629381440 6.980975686873450 26 44 48
-121.431484008509244 -53.181461092032016 6.522370427270459 23 36 42
-121.320905694682878 -53.002844177214641 4.472171618764520 20 34 37
-121.242588226649815 -52.713831183185889 2.990564350605950 22 36 39
-121.280259815384881 -51.994421041100225 3.555475484138640 28 43 45
-121.485584004095813 -50.633177322861499 7.076315339338265 32 48 48
-121.607491461992865 -49.577724578333836 9.119231072587610 33 46 47
-121.555642035879217 -49.190510753421883 8.092710734156213 25 37 37
-121.503928511817719 -48.808055339121097 7.066304391511494 13 25 23
-121.471706426652318 -48.353334009534912 6.381055471815813 10 21 17
-121.459003436785963 -47.823865841127521 6.036951668405123 6 17 12
-121.362523703966190 -47.636768730637577 4.215128051653636 3 15 9
-121.518117323142562 -46.424754129804484 6.826841983758015 24 36 29
-129.661768551453861 -2.247213863073616 147.289576964132067 127 130 121
-129.272340212133543 -1.435650943443478 139.667376666952123 126 129 120
-122.969963270772269 -3.058686758918713 12.950532292687569 125 128 120
-122.533264099519698 -5.441634506095500 5.338600494619868 35 37 32
-122.562822498251677 -4.805334014593334 5.346191370646579 20 22 19
-122.620864540781128 -3.984522577196745 5.808945000057719 9 14 10
-122.651518231914054 -3.345390046118157 5.817030708608627 8 13 9
-122.647603634467330 -2.937911404673514 5.256669171649804 5 10 4
-122.665187172574846 -2.392089925547620 5.037744891486369 3 8 1
-122.648011996137924 -2.081976423526824 4.250323997443246 3 8 1
-122.602924371887568 -1.964562795150226 3.008097900963691 3 9 0
-122.643011823399050 -1.280620075877660 3.131094319286206 0 3 0
-122.099222517774592 -1.546594429928536 -10.429381003387448 67 71 57
-121.215013840830693 -174.190840923700534 -7.855821711315627 200 180 174
-121.045254288377592 -172.880084330723804 -10.389421843651604 163 138 133
-120.990847656868127 -172.142164075647230 -10.977339998162591 127 96 90
-120.970497424734333 -171.570774927639178 -10.992957075002380 115 75 71
-120.997492246738886 -171.226477707349915 -10.207574674491042 110 67 61
-120.944104112176959 -170.493370803228913 -10.794956037314080 110 65 59
-120.904504355895355 -169.827089574215222 -11.153335447145196 148 105 95
-120.871937728172654 -169.194399995096660 -11.397145571733461 164 126 110
-120.839687815384750 -168.563187596780807 -11.640788975618420 165 129 111
-120.807749866459645 -167.933444222106715 -11.884268015662457 155 122 103
-120.782784408969476 -167.335871451427693 -12.013221406595193 148 117 99
-120.784729214027479 -166.860917381604821 -11.684603304597346 132 100 85
-120.766942018252266 -166.294166047073645 -11.698946494284542 116 84 69
-120.729497796214915 -165.638118562405623 -12.056189362850262 94 65 49
-120.679099766011134 -164.924868646852303 -12.641935872038914 92 63 48
-120.662148199144568 -164.361297775173995 -12.655846561618660 88 59 45
-120.678514000790258 -163.943227100583101 -12.098026205080487 78 51 39
-120.675225778352299 -163.436392039970258 -11.883098617473763 62 40 26
-120.658951615115882 -162.871771783184698 -11.896696041326862 59 41 27
-120.623146229242337 -162.222820723830324 -12.253081849218518 32 18 5
-120.646861173800033 -161.827172326177930 -11.580655999221051 30 18 4
-120.670715440033845 -161.428471192917016 -10.908194921552393 47 33 20
-120.694707725373775 -161.026714016761872 -10.235699273401252 49 35 22
-120.738515065965288 -160.703188476368695 -9.220342238449575 49 36 23
-120.762757516702678 -160.294478644997014 -8.547798479202584 54 42 28
-120.747865022966593 -159.723443818653976 -8.560800945489547 65 54 39
-120.687426537829680 -158.968794389439779 -9.373494689734827 85 75 62
-120.692609306446826 -158.478163266034869 -9.043488928857130 91 83 74
-121.039160647455915 -149.587947804631625 1.118947118761213 87 100 94
-120.970256764766717 -148.813132381018988 0.080278208792095 54 66 61
-120.882394044142757 -147.982802140097334 -1.300608640923826 60 67 64
-120.871615525913896 -147.398391119189370 -1.311780683319938 64 70 66
-120.867389972262458 -146.833788258909607 -1.208755029655322 61 67 63
-120.786627321630789 -146.036194486153079 -2.475049372391197 60 65 61
-120.706124429017976 -145.244779433322464 -3.741155847113134 59 65 61
-120.657779710651496 -144.553707354025249 -4.436550656267713 60 66 62
-120.647893973127680 -143.977420149351900 -4.447211972913180 61 63 58
-120.644523988338804 -143.419551049734167 -4.343707704056072 62 64 59
-120.641287181117477 -142.861263051425169 -4.240144035441858 61 63 58
-120.631819408661627 -142.284815478117707 -4.250607049786367 52 54 49
-120.628847610975271 -141.725954731855524 -4.146922497101372 52 54 50
-120.594236188322114 -141.080716654195044 -4.613557782415683 47 51 45
-120.572491557915995 -140.471618332058426 -4.851947863922987 44 49 43
-120.519171518970779 -139.780517122569222 -5.660582034160626 62 67 61
-120.440677116655138 -139.027883988284941 -6.925328452238972 39 44 38
-120.444775971506061 -138.490614123772986 -6.707180192903650 54 59 53
-120.467980925316908 -137.999818621050281 -6.146836602602122 19 24 18
-120.465955020890107 -137.444198042219256 -6.042666185152939 26 31 25
-120.419770968701371 -136.781209353768531 -6.736738262564302 57 62 56
-120.367432709010458 -136.106598155039222 -7.544733013007345 29 34 28
-120.403701443635583 -135.642093972801433 -6.756151355132801 29 34 28
-120.427406813687696 -135.144945744564126 -6.195633759211773 43 48 42
-120.407023868368711 -134.545887753333886 -6.433269065071102 53 59 52
-120.367851402936537 -133.906287291591809 -7.012887191724616 38 45 37
-120.372940608756210 -133.364943956180355 -6.794307082162788 60 65 58
-120.352930760973919 -132.769145508912288 -7.031730347316000 37 42 35
-120.345632670260727 -132.200695514901639 -7.041073070250519 23 27 20
-120.332149102404117 -131.619508338032603 -7.164364899390677 51 54 47
-120.325065025051117 -131.051484529516614 -7.173600852125844 79 84 77
-120.324368723425550 -130.495802695322453 -7.068794987786305 62 67 61
-120.330048808185992 -129.951641691426971 -6.849961207441737 43 48 42
-120.323259561632156 -129.383012601371917 -6.859062344600176 28 33 27
-120.310294135242728 -128.803001046505386 -6.982094195370649 27 32 28
-120.297432482808290 -128.223600614546427 -7.105070110441631 27 32 28
-120.297210554312642 -127.666617085202148 -7.000050706624819 26 31 27
-120.309608451612007 -127.130411298481292 -6.667062375821189 27 31 27
-120.315818994757208 -126.582269852939262 -6.448015798689056 28 33 29
-120.328369539322665 -126.043180391398835 -6.114984125070180 28 33 29
-120.297196752005959 -125.433821955191888 -6.579605051852269 28 33 29
-120.284898611051631 -124.855319527560965 -6.702302141353073 29 31 28
-120.272694912443512 -124.277415093398872 -6.824947894511979 30 32 29
-120.266832509254428 -123.709101318334163 -6.833602387286049 31 33 30
-120.217339003680692 -123.079784347264209 -7.639769980871250 33 35 32
-120.192939519779202 -122.488128466631849 -7.990109476298471 35 37 34
-120.193599866111256 -121.930859985441728 -7.884670928380729 34 36 33
-120.213049568381450 -121.396801918583392 -7.437428045770673 35 37 34
-120.182682847712755 -120.799555576454367 -7.901538677162392 35 37 34
-120.171114040114460 -120.226606998039884 -8.023829687525648 35 37 34
-120.153400670357399 -119.647156937431646 -8.259986043306554 35 37 34
-120.142003343291961 -119.075648672443052 -8.382180192101004 35 37 34
-120.112015118750463 -118.485098784856689 -8.846040822272244 37 36 34
-120.119456564298332 -117.934375510035139 -8.626431961715696 35 35 33
-120.145624077500145 -117.400584249251295 -8.065113670093240 36 36 34
-120.122103858471760 -116.818311654323892 -8.414935941345476 39 39 37
-120.080026909180503 -116.221351346010891 -9.106363531522163 38 40 37
-120.056689910103813 -115.643226188447187 -9.456055459321306 41 43 40
-120.083124543254741 -115.106014289626827 -8.894644588776487 39 41 38
-120.078567270767351 -114.542935779295775 -8.902620822286622 39 41 38
-120.061669301801544 -113.971160048368631 -9.138308097393320 41 43 40
-120.032442825452051 -113.392320174940352 -9.601683772782224 41 43 40
-120.052919907694843 -112.846216316920362 -9.154073388494567 41 43 40
-120.023850620552480 -112.269600668013553 -9.617350970045209 41 43 38
-120.007262887304179 -111.701728669062547 -9.852849646373755 43 45 40
-119.959772325970661 -111.119967390347028 -10.657569523668627 44 46 41
-119.930959418495803 -110.550219153620006 -11.120653764341654 44 46 41
-119.933189653868268 -109.994941602700152 -11.014443693242725 47 49 44
-119.954053448641417 -109.445683343320425 -10.566680776843924 44 47 43
-119.974968928817006 -108.894261399510768 -10.118915406216502 45 50 46
-119.965004043972385 -108.332484561974127 -10.240324109091091 45 50 46
-119.930370519780737 -107.765802051169089 -10.817020240713504 45 50 46
-119.920551913348405 -107.206227763832388 -10.938336292541436 46 51 47
-119.923164379690988 -106.648850734274603 -10.831964974444816 44 49 45
-119.919659151820198 -106.090389567258001 -10.839390384782206 41 45 44
-119.910041128129620 -105.531660035489693 -10.960601783020564 41 45 44
-119.919019300060540 -104.973495058367135 -10.740334359009978 40 44 43
-119.921881073249210 -104.414514999228558 -10.633860274161549 47 51 50
-119.924804106062567 -103.854995360647990 -10.527362437080967 48 52 51
-119.927788374863269 -103.294935075436058 -10.420840870061227 49 53 51
-119.924664089197904 -102.735417880579064 -10.428094909178355 48 50 47
-119.896930831828342 -102.181330742054058 -10.890501441390484 48 50 47
-119.863106604931630 -101.631051797366808 -11.466641557814597 46 48 45
-119.860187832656337 -101.073987104232245 -11.473772035198095 39 41 38
-119.857333009365703 -100.516920967953823 -11.480871934461533 36 38 35
-119.879192830453178 -99.950067693058458 -11.032813636821714 35 40 36
-119.870299419792346 -99.394624803263284 -11.153644551613496 38 43 39
-119.886113026283752 -98.827758977132063 -10.819337756428382 37 42 38
-119.871189630231584 -98.275568671887967 -11.053878799996085 39 44 40
-119.868650885748522 -97.717390131885011 -11.060838938771752 39 44 40
-119.847707988269434 -97.170626346176277 -11.409062718217740 37 42 38
-119.845302552921567 -96.613247767103502 -11.415950847960346 37 42 38
-119.855270252936108 -96.047154820028339 -11.195291643683817 35 40 36
-119.871451808210452 -95.475337034231316 -10.860859796070656 32 37 33
-119.844630044065411 -94.936150320661241 -11.322676895489138 31 36 32
-119.836335128385514 -94.383621464952981 -11.443191496716764 41 46 42
-119.834258411725443 -93.826181294579541 -11.449923002556091 49 51 46
-119.862992272485101 -93.240156862823710 -10.887914641327200 48 51 45
-119.879488206257307 -92.663364292318860 -10.553383604076402 14 19 12
-119.920634011535839 -92.059886003996311 -9.763899302607030 7 13 6
-119.924959737638062 -91.491759937960154 -9.656819012146315 18 24 20
-119.947788335697993 -90.902659249374807 -9.208526258728796 18 24 21
-119.946102658958921 -90.339659715740680 -9.215127917729149 20 26 26
-119.981348704922709 -89.732549879309019 -8.539362307162776 19 25 25
-119.961371323897851 -89.190729382684879 -8.887073303088755 15 21 21
-119.959896261519305 -88.626839642231289 -8.893583368246937 14 20 20
-119.970776314873476 -88.046592777372041 -8.672633390646013 11 17 17
-119.994008295278832 -87.448352857808700 -8.224241735192777 8 13 9
-119.955907319325362 -86.935003682352772 -8.912906581960016 5 11 7
-119.930166968085430 -86.406928198138985 -9.374091963685942 3 9 5
-119.916784132951435 -85.862490422478942 -9.607816207509359 1 10 5
-119.928033315168562 -85.280999292472231 -9.386702447771938 3 14 9
-119.859561620625001 -84.825782552179191 -10.643592580454538 1 9 5
-119.877104278172482 -84.235510276210547 -10.308699547517477 10 16 14
-119.925408954117472 -83.591839816141729 -9.405345300153954 11 17 15
-119.943102089405244 -82.996857063968235 -9.070428766479637 10 16 14
-119.942463456113359 -82.432868495573800 -9.076539704115419 11 17 15
-119.929633157847178 -81.891163078259211 -9.309971490658171 12 18 16
-119.941430447892941 -81.304762394231247 -9.088646054520183 15 21 19
-119.928766132291884 -80.764057898541196 -9.321988132535779 19 25 23
-120.038902741695836 -79.984781442471728 -7.281860711582283 19 25 25
-120.069356410461580 -79.354934069265809 -6.719480691649409 25 31 31
-120.099896340712789 -78.722308492384755 -6.157088001963587 25 31 31
-120.112117452405172 -78.125299448652655 -5.935669008178195 12 17 18
-120.118292639383654 -77.540216326825472 -5.827878489467508 6 10 13
-120.087744692915763 -77.034598204303180 -6.401991528286374 6 10 11
-120.081831058093456 -76.477180558147865 -6.521417255690011 8 13 10
-120.118961977494877 -75.823016988418701 -5.845234275846508 5 10 7
-120.186870408931782 -75.094701220980141 -4.600796300961122 3 9 7
-120.162834332888622 -74.576857471514714 -5.061061042888923 5 11 8
-120.163440511364556 -74.002294983956986 -5.066685309503697 4 11 6
-120.194830784268404 -73.352754356477234 -4.504059933920814 0 6 1
-120.220187926709457 -72.715668132306163 -4.055051472762159 0 6 1
-120.251788450899284 -72.060796790710924 -3.492380385403038 2 8 5
-120.246667709456744 -71.497926308995602 -3.611482924107349 3 9 7
-120.296900937242114 -70.790856578565254 -2.707858664692793 3 9 7
-120.310413943142109 -70.177421130059201 -2.485990718382936 4 10 8
-120.293338190247269 -69.645913748678225 -2.832207427281418 3 9 7
-120.337776301267041 -68.947022851612786 -2.042130227943460 2 8 6
-120.357770967885671 -68.312887696501690 -1.706515664921369 2 8 6
-120.377884519141375 -67.677023071372716 -1.370862030200158 5 11 8
-120.355117414545148 -67.163422763666730 -1.830476020659631 8 14 12
-120.387757015498337 -66.490029955246229 -1.267498493301019 11 17 15
-120.414380627398998 -65.832066045476637 -0.818099061999874 7 13 11
-120.410403968040583 -65.264484910574581 -0.936702764876401 6 12 10
-120.369666457886979 -64.810194264877126 -1.736879886372861 5 11 9
-120.359779311962384 -64.264221718034420 -1.968947602631602 7 13 12
-120.374611626570612 -63.641815757137955 -1.746540841548381 7 13 13
-120.438782340939625 -62.861174710656940 -0.615288473000135 9 15 16
-120.515413701405990 -62.035139833920269 0.743175534271813 16 22 25
-120.512218498133933 -61.464707333854648 0.624916326774354 28 35 38
-120.527620576606793 -60.833351186007334 0.847503532166940 22 33 37
-120.500073108916396 -60.345843494127607 0.275012331870926 19 31 36
-120.534228017257306 -59.650968092725634 0.838493645968299 13 25 30
-120.543903567670455 -59.038310219628833 0.947674885780771 12 25 30
-120.584532517065711 -58.317239439760741 1.624842601657889 12 25 30
-120.606840751298137 -57.658202368509819 1.961307639563699 17 31 36
-120.604650528463651 -57.085757104499123 1.843508492872360 26 39 47
-120.621108151050791 -56.446609083281402 2.066520461284199 31 44 52
-120.705582125748109 -55.557139713648688 3.538942270140325 32 47 53
-120.759412695308825 -54.774971332541021 4.443514457391814 30 46 52
-120.825782521527699 -53.941869787803711 5.575278871248713 27 43 48
-120.824434716472297 -53.361250114542180 5.457798591034418 24 37 40
-120.804716798823847 -52.852238489601589 4.999690554775867 19 32 36
-120.741891692120348 -52.513368519588425 3.746699346115179 13 27 30
-120.747185775926297 -51.913170469279542 3.743053877615921 16 30 33
-120.795943669901703 -51.140834867582896 4.534441643072597 22 37 40
-120.894409277827179 -50.165742143424040 6.234393406945117 25 37 38
-120.912666491789949 -49.508719273868550 6.458082298909090 21 33 33
-120.887769443239591 -49.028142452085916 5.886930392972488 16 28 27
-120.887810330148127 -48.447457252585018 5.770113783739248 14 26 24
-120.881834499930690 -47.893064820528238 5.539830557399739 13 25 21
-120.938048996556120 -47.077399363258003 6.445198404955136 11 23 19
-120.944871090633825 -46.469057857244650 6.442200106651825 7 21 16
-120.877399509162686 -46.181720787230056 5.076657609496124 6 19 12
-120.741730255933732 -46.198265079011854 2.462169849322208 11 22 16
-120.873314902556714 -45.052526018948079 4.730503523926586 40 50 42
-128.885051278846305 -1.743036529532525 148.908268261278039 125 131 119
-122.036556400076691 -5.308558841997778 7.095067347684363 114 119 113
-122.018420814293194 -4.985681279996067 6.307055610220345 15 20 14
-122.040865592902250 -4.392381411897530 6.200827096861616 13 18 14
-122.097411759876479 -3.569333241506849 6.662842080718207 9 14 10
-122.093953862311452 -3.158846724255837 6.102668065840618 7 12 8
-122.104385632405084 -2.657448697283156 5.769920792362484 4 9 3
-122.115265767779761 -2.156929112353831 5.437397057543222 1 6 0
-122.133378987303587 -1.610210814886735 5.218716943752042 0 4 0
-122.124804146103102 -1.253189688270050 4.545786461782683 1 7 0
-122.089368500277814 -1.089360448065304 3.418558944408176 0 4 0
-122.040541597448396 -1.026343671463572 2.064245039075047 47 50 39
-121.551508546180798 -1.855978709902436 -9.912208647733166 61 68 52
-121.608146771042115 -1.093721387253122 -9.560382757884923 67 71 56
-120.609910294691886 -173.841853162417948 -9.257482329215065 102 90 81
-120.491781219303675 -172.766922861728375 -10.987942945358952 126 112 103
-120.503854130010069 -172.359601434841011 -10.432065645724720 82 55 47
-120.483774285816892 -171.786573820854557 -10.447570235453924 143 103 96
-120.496290067302965 -171.375832254570554 -9.891516273169742 142 98 92
-120.425136345786228 -170.545370334027410 -10.820975410749014 132 89 81
-120.405951242730836 -169.974318532474769 -10.836031621354834 140 100 89
-120.367749404387112 -169.309006459918635 -11.193732296021864 155 118 102
-120.329878657959057 -168.645725893422224 -11.551253666138905 161 127 109
-120.292333893967282 -167.984468212334264 -11.908598264800077 156 123 105
-120.255110075205593 -167.325224954331588 -12.265768588894531 140 108 92
-120.250185632442125 -166.820116259469842 -12.051605993133080 125 93 78
-120.251874397469820 -166.344367718955169 -11.723118557694079 111 79 64
-120.221870342232890 -165.717925584954884 -11.965638448297852 97 68 54
-120.204894994993566 -165.152092200925125 -11.979583803502607 90 61 47
-120.188168583250587 -164.586566813029833 -11.993406898460279 89 60 46
-120.197107312938769 -164.137482097750222 -11.550317755710125 89 60 48
-120.174489243678195 -163.542686039470112 -11.678119582064397 72 46 33
-120.158464856894383 -162.977214649820326 -11.691606274856866 53 35 21
-120.142675778980106 -162.412027226312915 -11.704977473686569 39 23 10
-120.196679349287280 -162.154288599706632 -10.462347649795561 38 24 11
-120.200216522160616 -161.669544770092585 -10.133068535408569 49 33 20
-120.222861983971740 -161.265517764139759 -9.461240567515460 51 35 22
-120.226738941641159 -160.777150185944322 -9.131836202311234 47 31 18
-120.243382165574218 -160.341013138991286 -8.574069094148228 43 29 16
-120.228736673863068 -159.769662624276151 -8.586956645052112 69 55 42
-120.189185854584011 -159.093506910941585 -9.056273171537072 92 77 64
-120.181268833994451 -158.549740441242108 -8.954799023566807 95 79 69
-120.179813495848151 -158.031369299013335 -8.739113337080823 89 75 64
-120.197316682994796 -157.588428853630518 -8.181004856261865 108 94 83
-120.196197252881745 -157.067480148008286 -7.965185004679029 111 96 88
-120.226486087462320 -156.670062094078929 -7.178773559268620 120 106 100
-120.294325264974503 -156.416638464300803 -5.707762642044258 139 132 128
-120.446869297529162 -149.439960130991381 0.058061461250389 64 75 69
-120.251246093652369 -148.237193097454110 -3.373671241852804 69 80 74
-120.209835213119959 -147.556169735104163 -3.954786605342662 66 72 68
-120.223935019287524 -147.057414161385111 -3.509739708393880 62 67 63
-120.232008974301550 -146.536955135067842 -3.178657847442963 54 59 55
-120.227934841657131 -145.976231182954280 -3.075519826937267 55 60 56
-120.224000497070648 -145.415099593454272 -2.972319128320208 53 58 54
-120.165071586928832 -144.684057741719471 -3.894906577328271 56 61 57
-120.136967477169406 -144.050331412290177 -4.247451405331361 57 59 56
-120.072333029201616 -143.308668735222284 -5.283736574489467 57 59 56
-120.087377183052737 -142.806210039643418 -4.838276022939397 54 56 53
-120.090307638340150 -142.266208956000753 -4.620714835760850 52 54 51
-120.099459360908924 -141.742696532734442 -4.289148804654786 50 52 49
-120.078223257759774 -141.131710835815454 -4.527315036162264 51 55 50
-120.026661301653604 -140.437355474233556 -5.335141642218133 48 53 47
-119.993559192873732 -139.796870313851088 -5.801005952783726 62 67 61
-119.911924275653490 -139.027734199920729 -7.178283540807996 22 27 21
-119.909584380189884 -138.474504974795536 -7.074238720189527 56 61 55
-119.925594435239717 -137.968295577951181 -6.628354692669177 69 74 68
-119.953842769233262 -137.491094146642354 -5.954599551048830 57 62 56
-119.945739030126461 -136.919061563357900 -5.964364570804491 27 32 26
-119.883150364541848 -136.212113669677990 -6.999313707978217 39 44 38
-119.893503096408793 -135.686912479875673 -6.667190501462926 46 51 45
-119.873649730851540 -135.087888707000701 -6.904572105952724 49 54 48
-119.866034501186249 -134.518407999377558 -6.914077156727899 47 54 46
-119.816163977508808 -133.851656196314252 -7.720810450012920 39 46 38
-119.808792220371970 -133.284255601815147 -7.730177612715693 85 90 83
-119.813617303883319 -132.743658621129782 -7.511716175756675 20 25 18
-119.812491842401883 -132.188958623829905 -7.407105513480758 39 43 36
-119.805424783936019 -131.620972863485918 -7.416332932789743 80 83 76
-119.774319916600248 -131.002890956388967 -7.881011161953950 55 60 53
-119.785563648152319 -130.472951154271726 -7.548510481160378 28 33 27
-119.778801542568530 -129.905453507712082 -7.557586987655469 52 57 51
-119.790212676211908 -129.373194216281092 -7.225030097943971 28 33 27
-119.783634945256367 -128.805011085609920 -7.234025456281245 28 33 29
-119.783171141871037 -128.248069544063839 -7.129121332381033 29 32 29
-119.782794855789319 -127.690644193404381 -7.024180320593047 28 30 27
-119.788517746630461 -127.143365408491817 -6.805358154852485 29 31 28
-119.788310004350407 -126.584694345441946 -6.700349335030893 31 33 30
-119.788186365641039 -126.025534255008054 -6.595305314153961 33 35 32
-119.764129629050174 -125.426627933305426 -6.945555472874844 31 33 30
-119.746178819971718 -124.838952066062447 -7.181910091173251 30 32 29
-119.734323960638150 -124.261686683678207 -7.304382382737998 32 34 31
-119.728555353959251 -123.694012000486978 -7.312985425089380 34 36 33
-119.710884998393126 -123.108938815999025 -7.549179084667713 34 36 33
-119.693308295284638 -122.525002371057312 -7.785316240200160 34 36 33
-119.681811474946826 -121.950378952925163 -7.907590052071271 35 37 34
-119.682370350553811 -121.392154599492699 -7.802209886673808 33 35 32
-119.671039043834838 -120.818160948064744 -7.924398034891965 34 36 33
-119.659791512663332 -120.244752433464129 -8.046540082068049 34 36 33
-119.648626709163636 -119.671927535470672 -8.168636545150605 34 36 33
-119.631568781014451 -119.092869431468927 -8.404475305306789 34 36 33
-119.614596425848518 -118.514936942229255 -8.640261541122811 36 35 33
-119.609648618356857 -117.950669360702122 -8.648436844947497 35 35 33
