ply
format ascii 1.0
element vertex 678
property double x
property double y
property double z
property uchar red
property uchar green
property uchar blue
end_header
-105.373197384420038 -130.763099938527148 -27.078263334012433 178 178 180
-105.377760951016668 -130.112898160737444 -28.080502957211621 183 179 181
-105.367091757258123 -129.668981855878855 -27.314164322021753 176 169 168
-105.344927782893762 -129.369042662924954 -25.221536102686485 17 4 2
-105.332339263223346 -128.938386411474823 -24.234261404202016 47 26 20
-105.326496255805537 -128.420478403296130 -24.020669996384413 60 31 23
-105.325509186245995 -127.844022794740610 -24.359652609005025 75 41 31
-105.320704183629545 -127.314124479673879 -24.256546930421138 88 51 42
-105.316900954809711 -126.772752784791948 -24.263938992869384 97 59 46
-105.312162825391042 -126.242085275592558 -24.160809240078493 101 62 47
-105.304538038682864 -125.742124386935600 -23.726167720807979 105 63 47
-105.300829719270794 -125.199458698724911 -23.733527698644195 114 68 53
-105.297154188744670 -124.656812990528579 -23.740871784725528 117 72 58
-105.294488538918742 -124.104592443513212 -23.858690190887842 118 72 59
-105.291857366379475 -123.552933837565121 -23.976486318892739 120 74 59
-105.287296346256284 -123.019936822654273 -23.873295816394489 120 74 59
-105.282760753507191 -122.486412759803201 -23.770098574696874 125 78 64
-105.275294082344189 -121.977880695515680 -23.335469640908030 127 80 64
-105.271788554892240 -121.434250117636765 -23.342742535859770 128 80 65
-105.269298224596909 -120.882671016201044 -23.460470467038022 129 82 66
-105.270798774310407 -120.300884597302272 -24.020035653675023 129 82 66
-105.268372707568005 -119.751506727774341 -24.137710183003975 126 79 63
-105.262992502702616 -119.224127631444873 -23.923994862699885 121 75 59
-105.259619899702898 -118.681921612901220 -23.931189503344399 120 75 58
-105.260258771875371 -118.113310724955824 -24.380172406284089 118 76 57
-105.260932859451870 -117.546884690849822 -24.829115972497021 115 73 54
-105.257639148785927 -117.006884871391932 -24.836250161804003 113 71 53
-105.250357095702000 -116.490049550986356 -24.401618376945379 115 73 55
-105.248100956367267 -115.943464398786361 -24.519182866742597 116 74 56
-105.246872798395074 -115.392186156587385 -24.747162767033018 116 73 54
-105.248691031244917 -114.827082655740554 -25.306404249490242 114 71 53
-105.245499986212806 -114.288212943064522 -25.313477691153111 111 69 50
-105.242326451842743 -113.749350498077575 -25.320542680965275 112 71 52
-105.239169916556577 -113.210494914219325 -25.327599467848927 113 73 53
-105.236029891891022 -112.671645800716405 -25.334648289505651 113 75 54
-105.228845739841802 -112.147261910330911 -24.900047370350507 110 73 52
-105.225731093497487 -111.607337711323765 -24.907095117500518 109 72 50
-105.222631661816919 -111.067418908518661 -24.914135530461721 108 72 50
-105.223625939835429 -110.516306745793898 -25.362768285293555 105 69 47
-105.217498146962768 -109.985068276308994 -25.038591450075813 107 71 49
-105.216489222227509 -109.440923081974347 -25.266393045892158 107 72 52
-105.210378496218979 -108.907791121851616 -24.942227536595425 107 72 53
-105.207349651944369 -108.367894494973058 -24.949233952515641 107 72 53
-105.203306611363971 -107.829442438931665 -24.845851801858402 107 72 53
-105.203389035708696 -107.285772989248173 -25.183985287857467 107 72 53
-105.201432396438832 -106.745532009282513 -25.301341194098399 107 72 53
-105.196395541282612 -106.207714871608957 -25.087569060473527 105 68 50
-105.190331605510934 -105.669167583313310 -24.763436909581173 105 68 50
-105.188410364616530 -105.128662380141634 -24.880778601142822 105 68 50
-105.181322321835623 -104.587756472171435 -24.446301773070076 105 68 50
-105.177347841919627 -104.046061478262999 -24.342920204414497 106 69 51
-105.171303641067837 -103.502359345935517 -24.018831673803362 107 69 50
-105.175669980374181 -102.967071622779031 -24.798265011928976 109 68 50
-105.173815137259083 -102.427932579696005 -24.915560876448524 110 69 51
-105.173018504322059 -101.890885502503934 -25.143187848110728 111 70 52
-105.164923521239729 -101.342189761775174 -24.598414036568045 112 71 53
-105.158918892533791 -100.794959649351583 -24.274342890049383 112 72 54
-105.152917387059702 -100.246099459215444 -23.950287028596080 113 76 60
-105.147968535349747 -99.698243494864514 -23.736576129110205 111 74 58
-105.145127576534975 -99.155112860133244 -23.743525950537901 110 71 56
-105.141246418066586 -98.608803689093804 -23.640147233264855 107 68 53
-105.138428279899912 -98.065399917627445 -23.647088948906344 111 71 56
-105.135622494514962 -97.521995050456212 -23.654024766298051 112 73 58
-105.132829247627143 -96.978588827985490 -23.660954599266489 113 74 59
-105.130048748292594 -96.435180983943070 -23.667878350540747 115 75 61
-105.128340456537529 -95.896307703919874 -23.785101369759275 115 73 59
-105.124526945135727 -95.348359328146088 -23.681707163519292 114 72 60
-105.119662225676024 -94.794785198790962 -23.468014875398211 113 70 59
-105.114805869234061 -94.240121466630953 -23.254329802267193 113 75 66
-105.111022938841714 -93.689991102612026 -23.150943426478221 101 68 60
-105.113648095650078 -93.174683924285546 -23.709286300716343 74 55 47
-105.114166798351008 -92.649756704507496 -24.047018149457557 69 66 57
-105.115777484269174 -92.132894128990884 -24.495003468656421 91 98 90
-105.113134248629592 -91.591360259788019 -24.501842263685120 76 88 77
-105.103007523812821 -91.000948495677505 -23.736752064568037 94 104 93
-105.089660962525898 -90.384966641045210 -22.640888775207202 96 99 87
-105.085971227209015 -89.831272534187050 -22.537494498608908 58 50 39
-105.088748187294527 -89.323811195723110 -23.095683989508501 53 33 26
-105.087249991400185 -88.786785549511833 -23.212787480964437 95 65 59
-105.085773073805640 -88.250296425359323 -23.329875270263557 109 65 62
-105.082159806408214 -87.697118848009552 -23.226439094776993 116 72 69
-105.079644272239733 -87.152273868609299 -23.233250880780247 121 77 74
-105.079312452420339 -86.625731946064235 -23.460547352606085 124 80 77
-105.080089577353476 -86.109695557092621 -23.798064055249398 128 84 81
-105.081979924338995 -85.604979441200229 -24.245790555941483 130 86 83
-105.075220400887503 -85.022659210234735 -23.811582863778938 133 88 85
-105.070647365541461 -84.458639741304566 -23.597858554105244 135 87 85
-105.067181183882639 -83.904036421901225 -23.494366689184687 134 86 84
-105.062648577299512 -83.338091233724214 -23.280642860924985 134 86 84
-105.059226852440986 -82.782104362573889 -23.177143969616708 135 85 84
-105.055829213764980 -82.225560529512109 -23.073639288650014 141 89 91
-105.054641078240650 -81.691662399342761 -23.190562255193953 141 88 90
-105.048016327015930 -81.098925424391879 -22.756397313238864 122 70 72
-105.041411685546876 -80.503998274757933 -22.322245295413865 117 67 68
-105.041401798621038 -79.981382938422243 -22.549347337322587 103 55 55
-105.045813831352817 -79.510593453666303 -23.217236018180643 95 50 48
-105.042586318508100 -78.952322040430886 -23.113667732450011 84 43 39
-105.036093101392908 -78.353789805034282 -22.679499518554849 84 43 39
-105.031825002490521 -77.780071691511424 -22.465729161352726 92 51 47
-105.026486859839352 -77.191468620890817 -22.141765042832674 94 54 52
-105.016771407207656 -76.545019035267742 -21.377054917959754 91 57 55
-105.003770961755549 -75.851779251818144 -20.281821302642356 81 47 45
-104.996308348976029 -75.226037411765134 -19.737538041519343 61 27 25
-104.985561882776040 -74.552958820635979 -18.862736370813963 59 35 33
-104.981475125962078 -73.966318060396830 -18.649012279472799 31 22 16
-104.976320426423200 -73.363153512876181 -18.325110290993393 12 11 3
-104.976740689706759 -72.836726924253909 -18.552045781650747 13 14 8
-104.972776147008275 -72.247550279083242 -18.338289326633088 11 13 10
-104.971072250649954 -71.689701201518801 -18.344846685605120 9 15 11
-104.970525395816452 -71.148314461797696 -18.461539949684806 6 15 12
-104.968917942445074 -70.590669083410361 -18.468049073884515 7 16 13
-104.969583064342714 -70.067067109079517 -18.694838349846293 9 15 14
-104.964741544655752 -69.457955998682138 -18.370847748158212 10 16 16
-104.961061036182230 -68.864757106965143 -18.156996815145277 11 17 17
-104.957431678309575 -68.270428873443095 -17.943133036742722 13 19 19
-104.957197601265960 -67.729354159453749 -18.059673457162205 12 18 18
-104.953677171417752 -67.133578336495120 -17.845772468731411 11 17 17
-104.954674265680836 -66.611357840297160 -18.072388710003082 11 17 17
-104.951269503690455 -66.014399430436967 -17.858444559426601 12 18 18
-104.950156880114335 -65.454736329653230 -17.864737728178653 12 18 18
-104.949107093412337 -64.895021645088477 -17.871001366963242 10 16 16
-104.952591762798576 -64.414299046328196 -18.317718171958546 14 20 20
-104.949438187991731 -63.815497141315291 -18.103672830316214 13 19 19
-104.942995249914247 -63.154630560628931 -17.559263316911398 11 17 15
-104.941092656335769 -62.573294381185192 -17.455298611570583 9 15 13
-104.940379405486880 -62.012202350794730 -17.461415430469089 9 15 13
-104.939738789872550 -61.451046273691077 -17.467498160185386 9 15 13
-104.935813430058687 -60.825637203779500 -17.143237033839029 11 17 15
-104.936442406748640 -60.285196856418580 -17.259358042456313 11 17 15
-104.931549038512131 -59.635527742626635 -16.824950843919709 10 16 16
-104.932335463513823 -59.094670272247356 -16.941000823461081 8 14 14
-104.930962885165130 -58.509310559386556 -16.836823976901769 7 13 13
-104.933034983808497 -57.991601873699864 -17.062879497430572 8 14 14
-104.925107662789472 -57.267624181199643 -16.298111972274228 8 14 14
-104.920628984080224 -56.609655835676641 -15.863591815850583 9 15 15
-104.917360358492630 -55.972995140460156 -15.539132328733132 10 16 16
-104.924267167286203 -55.549250329985533 -16.205343262808981 10 16 16
-104.924544152033320 -54.983954797637949 -16.211029625149962 11 17 17
-104.927156387436099 -54.467353531961749 -16.436815346873999 12 18 18
-104.926505202921476 -53.877742223128124 -16.332337151790341 11 17 18
-104.927073140461289 -53.312424341316458 -16.337884553366820 15 20 23
-104.929980678512706 -52.797429431071471 -16.563512468292600 18 23 26
-104.928514300470027 -52.181471772763516 -16.348836570288427 16 21 24
-104.931628608090335 -51.667350548537847 -16.574356574072084 16 21 24
-104.929258395138646 -51.024042084432821 -16.249535718253810 14 19 22
-104.929235648534103 -50.431589352374004 -16.144786128824762 11 17 17
-104.930442639937596 -49.865048472241526 -16.150040398159462 10 16 15
-104.931763568124680 -49.298382772502421 -16.155241445358314 8 14 12
-104.936547299621665 -48.812967946853220 -16.490526198020717 7 13 11
-104.932526522326285 -48.109862553212373 -15.945392716520956 7 13 9
-104.931976290182220 -47.486906397700231 -15.730350576506680 8 14 10
-104.921534488293844 -46.611192234295203 -14.524912330418317 10 16 12
-104.917911793062459 -45.898637689975459 -13.979685672678414 10 16 12
-104.918872356821964 -45.297174965370083 -13.874558415321246 11 17 15
-104.923296724599012 -44.781316451581830 -14.099469573610577 9 15 15
-104.930068424285437 -44.324480612202336 -14.544367996163288 11 17 17
-104.935858860708038 -43.840358838963830 -14.879157834601926 9 19 18
-104.941780063146524 -43.357715837669616 -15.213869893284340 14 24 23
-104.950044505543929 -42.936276765422804 -15.768548721055367 15 27 27
-104.955126245438137 -42.426989962355400 -15.993077748857360 24 37 38
-104.962552136285296 -41.979448142507763 -16.437567540589157 15 29 30
-104.966810517742616 -41.441856768821559 -16.551922928489091 11 26 28
-104.971215486279704 -40.904627328303725 -16.666204464072507 18 32 35
-104.973574109943783 -40.305282420137424 -16.560386579900637 21 34 37
-104.965131937474311 -39.390080524734550 -15.354398185014787 18 29 33
-104.957981569770141 -38.500417808689988 -14.258387792474736 17 26 31
-104.954306960189967 -37.701232010456650 -13.492359939556763 13 22 27
-104.961726951605357 -37.221339727230145 -13.826326668207059 14 19 23
-104.970390823968714 -36.775488571533593 -14.270206810969597 14 19 22
-104.975950164354742 -36.232955643410030 -14.383990690479550 15 20 23
-104.987097232001204 -35.856549410442831 -15.047685819495427 12 17 20
-104.991903627610370 -35.282591981593818 -15.051294488457557 11 17 17
-105.002283893812120 -34.876954809099395 -15.604798456480694 12 20 21
-105.005284304628262 -34.235912214942751 -15.388243873843663 11 19 21
-105.011700967376825 -33.696305475845612 -15.501587492540381 13 21 23
-105.019370699154123 -33.191531795356170 -15.724831978058546 12 21 21
-105.026150705720752 -32.652782393311647 -15.837992949317140 12 21 20
-105.019262307323629 -31.658122966371035 -14.521220245608646 10 19 18
-105.027520367281298 -31.151708205737954 -14.744200169404223 12 17 20
-105.039145878570494 -30.753047903336238 -15.297036600017179 11 16 19
-105.055169985619344 -30.500546295094630 -16.289699812314836 10 15 18
-105.056592936328059 -29.745961432910406 -15.742491974028241 9 14 17
-105.067708654133156 -29.316576518075504 -16.185029667046535 9 14 17
-105.071681665522888 -28.631837389087860 -15.857600701092650 9 15 13
-105.084236150751465 -28.241348418887760 -16.409908602129917 8 14 12
-105.086577040944249 -27.480249411166113 -15.862328678113045 10 16 12
-105.092284010059174 -26.828795935428460 -15.644586451697251 9 15 12
-105.098231527581461 -26.175893760521170 -15.426744059936226 9 15 13
-105.111619662527843 -25.788506139981994 -15.978621222055978 8 14 13
-105.120079960798890 -25.211460297442521 -15.980513667102798 6 11 14
-105.131834928401744 -24.750138385635829 -16.312215403842146 6 11 14
-105.133648846069960 -23.900385465723058 -15.544082371087796 5 10 13
-105.145877008786243 -23.438874729982214 -15.875559676566439 5 10 13
-105.145240634253568 -22.464755463374203 -14.777302365723500 4 9 12
-105.160976464214599 -22.121613889840013 -15.438459836726821 3 9 5
-105.164945665683476 -21.300357692195060 -14.779861277432587 3 9 5
-105.180145150180408 -20.919382953043680 -15.330805885126495 2 8 4
-105.190621567746305 -20.337546868121724 -15.331783133984572 3 10 4
-105.203327771821279 -19.837135649620535 -15.552573283406304 3 10 3
-105.212376119305461 -19.172580074282493 -15.333367419525104 3 8 4
-105.222690923867859 -18.547944600273361 -15.224003654182042 3 8 4
-105.230397682202522 -17.796991641726574 -14.784611163778067 3 8 4
-105.247071751668244 -17.421756528929333 -15.334791254219965 3 8 4
-105.263020101750499 -17.006524700950369 -15.774871347688844 3 9 5
-105.281107253728493 -16.678274730930738 -16.434750667542971 4 10 6
-105.284341774543719 -15.666657869646754 -15.335027515213142 3 10 3
-105.293613462965439 -14.907941235732640 -14.894966283030385 4 11 4
-105.311604114725057 -14.537539320662512 -15.444466774483459 2 9 2
-105.327991494424523 -14.081959577978944 -15.773893274122969 2 9 2
-105.340069397252961 -13.407448187474923 -15.553340561556354 3 10 3
-105.345215605671513 -12.376858188755648 -14.452898164464699 8 14 12
-105.357138677579272 -11.652138204342448 -14.122077459839090 6 12 8
-105.371221692901130 -11.014881712168783 -14.011040909865329 4 10 6
-105.394529815143500 -10.827970807887716 -14.999544316196108 3 9 5
-105.411877313549752 -10.327538279571741 -15.218114305671406 2 9 2
-105.435643567732811 -10.147656455161799 -16.206326189401949 1 5 2
-105.456154091776881 -9.788270191376998 -16.754507792959117 8 12 11
-105.492358453531324 -10.264246125152770 -19.282042644168712 11 15 14
-105.520900796150713 -10.333553381261140 -20.819699059777122 13 17 18
-105.531071927831960 -9.379381363928941 -19.937783917790000 13 19 19
-105.545894699661147 -8.655699287333386 -19.605565322954760 15 21 21
-105.557014762972955 -7.692505886191627 -18.723289076963738 13 19 19
-105.577603869905118 -7.248898821736862 -19.050582243905893 12 18 18
-105.597707779048491 -6.758318209932894 -19.267732165206894 11 17 17
-105.626116783052851 -6.751039163462696 -20.584522940996806 14 20 20
-105.649176250119751 -6.409921327029156 -21.131297092848939 28 34 34
-105.672527166668900 -6.070950814237520 -21.677909712786771 30 36 34
-105.686194741266036 -5.095190331785689 -20.794544105410068 18 24 22
-105.710266124408989 -4.756742491867383 -21.340806676464524 12 18 16
-105.724176794201526 -3.724259270699696 -20.347049763903783 14 20 18
-105.747526095046879 -3.285962608539254 -20.672967800900466 14 20 18
-105.768322471312842 -2.647388244000850 -20.558733167584762 16 22 18
-105.796001831049594 -2.462759825794066 -21.434263009185372 15 24 21
-105.824637185791133 -2.332827983263337 -22.419631371642424 15 24 21
-105.859049243442072 -2.616676879695426 -24.284848005580500 16 25 22
-105.883279965911072 -2.137590990556248 -24.499905352577230 18 28 27
-105.910583634999256 -1.865834151423082 -25.154794010061551 19 29 31
-105.946748097011081 -2.273330379200829 -27.239617305504453 19 29 31
-104.871954821373350 -141.243680289808367 -18.563181155714034 193 195 197
-104.843608850744133 -141.036990056813238 -16.361691638892182 198 199 201
-104.839736278691717 -140.457990912716014 -16.480363078062908 199 200 204
-104.839442976889032 -139.828770267522714 -16.930415816516131 152 153 157
-104.835718936350034 -139.251787399998022 -17.048995444172249 120 121 125
-104.837932787719708 -138.593419872488340 -17.719866562484356 90 91 95
-104.835531090850296 -138.002865356057782 -17.948812170182094 69 70 74
-104.832020029076389 -137.429299767492296 -18.067254733757977 74 75 78
-104.826210303614218 -136.887484403658874 -17.964752379309147 83 84 87
-104.833466793569698 -136.176786457646813 -19.077185319574625 124 126 128
-104.844378726559995 -135.426467800244353 -20.520853999069573 136 138 140
-104.855401130496119 -134.683265102012086 -21.964396581500267 149 151 154
-104.858204373620197 -134.048614736754843 -22.634741604151799 160 163 165
-104.864658714846769 -133.374609323256294 -23.636321710029307 126 129 134
-104.864036792000107 -132.789219687314784 -23.975221600146028 119 120 124
-104.865866518424554 -132.178146597643575 -24.534930772187494 129 130 134
-104.864168878367991 -131.610036071064684 -24.763308534256765 122 123 127
-104.867323999987249 -130.990520911577590 -25.433329425166107 135 135 137
-104.875354665101995 -130.322863519727861 -26.544948964643368 164 164 165
-104.871427022375187 -129.786546062330956 -26.552348520472776 189 186 183
-104.855480128822833 -129.373408355508531 -25.455641244440983 63 56 53
-104.838325685244826 -128.966901770643460 -24.248584513812375 29 13 7
-104.830846122021285 -128.460267818160361 -23.924801094243264 48 24 16
-104.829451513060036 -127.894529996578029 -24.153009463830784 70 41 32
-104.826887300022562 -127.341130980347117 -24.270791473556812 85 53 42
-104.823146659421283 -126.799254009092536 -24.278158795079378 97 61 49
-104.818222898049811 -126.268082425893837 -24.175123036665354 108 69 55
-104.813328699701017 -125.736387792930216 -24.072078519416550 118 74 59
-104.810905254166840 -125.183889180771359 -24.189783918140108 125 79 64
-104.807293811171604 -124.641821337387512 -24.197091396713517 125 79 65
-104.800038593434451 -124.128560516944091 -23.873268864713651 124 78 65
-104.797707891838186 -123.576387920982711 -23.990926539206725 126 80 65
-104.794180941764424 -123.033828082662154 -23.998198661007166 130 82 68
-104.791911512937247 -122.482503045740614 -24.115818298466536 134 86 71
-104.783513580122033 -121.974281798842938 -23.681631677660476 133 86 70
-104.778827976689712 -121.439188597262444 -23.578522352492740 135 86 72
-104.776634279307487 -120.887634442458676 -23.696108118713909 135 87 72
-104.776941924990197 -120.321249422111507 -24.034367682377081 133 86 70
-104.776044546723796 -119.763929230733254 -24.262251531608229 132 85 69
-104.771455755442958 -119.229158098225383 -24.159092576620282 130 84 68
-104.769369273752545 -118.680097779047898 -24.276601380919118 124 80 61
-104.771037927792293 -118.111771746366671 -24.725088707584945 122 79 60
-104.775230603294233 -117.532960103070451 -25.394194254533375 120 77 58
-104.770734663068296 -116.999860333559113 -25.290973675740105 117 74 55
-104.762509017755590 -116.483599864583923 -24.856787384934819 118 75 56
-104.758039096821960 -115.948615153892902 -24.753573761247793 121 78 59
-104.759842313025715 -115.386855846521456 -25.201929119233114 121 80 62
-104.759168958723350 -114.837230155172819 -25.429626592813548 122 81 63
-104.757263722502032 -114.293402864843841 -25.546994823706427 121 80 62
-104.754121268701809 -113.754558361037240 -25.554044760002938 119 81 62
-104.752252463104199 -113.211559301152349 -25.671387037218267 117 79 60
-104.747882625809595 -112.676887967899290 -25.568122308109992 116 78 59
-104.743524291894531 -112.141678796936986 -25.464857612058069 113 75 54
-104.739177043016042 -111.605931460476796 -25.361593152570464 111 73 52
-104.737369079219945 -111.063497651898217 -25.478900504860860 110 72 51
-104.731780077086754 -110.530018763374088 -25.265347860679327 110 72 51
-104.727465329891416 -109.992926802596216 -25.162081693391485 110 72 51
-104.726966915200975 -109.448518917315511 -25.389641766962143 110 74 55
-104.722675682541976 -108.911163101020222 -25.286367066398157 109 74 54
-104.718393468874609 -108.373267391741706 -25.183093608569123 108 73 53
-104.715393462087988 -107.833387804365600 -25.190086053337780 106 71 51
-104.714954888741886 -107.291167179090976 -25.417594984448385 110 75 55
-104.710704249544690 -106.752737122272791 -25.314311921808780 110 75 55
-104.706461698708267 -106.213766204168635 -25.211030557081983 109 71 52
-104.702227066364699 -105.674254200448189 -25.107750973841405 109 71 52
-104.699281118633479 -105.134115667439019 -25.114720222400734 109 71 52
-104.689933822675385 -104.593046639933192 -24.570467007454710 109 71 52
-104.687001602207957 -104.051553157785520 -24.577443636110246 110 72 53
-104.680223816214422 -103.507871523930902 -24.253705839115270 113 71 55
-104.683741912510499 -102.970573479515451 -24.811847897195179 114 72 55
-104.679555416867714 -102.428353866513461 -24.708573156304482 115 73 56
-104.679245364503970 -101.890226562262114 -24.935978468808059 114 72 55
-104.671204523284956 -101.342286753436809 -24.502029859717226 114 72 56
-104.664455017883796 -100.794262148449931 -24.178323237767387 114 72 56
-104.660295275408203 -100.249327665539795 -24.075063643773007 113 74 58
-104.653552212401593 -99.698586318729184 -23.751381904592080 111 72 57
-104.650701734124581 -99.154924878048703 -23.758341743950183 109 69 55
-104.645265335683931 -98.604912750106493 -23.544886279624052 112 70 56
-104.645032884615603 -98.067600467283739 -23.772246078508999 111 69 55
-104.640913703557445 -97.520218529416965 -23.668992272954824 114 75 60
-104.636802858717687 -96.972292078654860 -23.565740084327246 113 76 60
-104.632700575487874 -96.423820872421672 -23.462489407296516 116 76 63
-104.632523007309871 -95.888405485897039 -23.689803424688250 114 74 62
-104.631056148146868 -95.349269719781205 -23.806913645283544 115 75 64
-104.626988035952309 -94.800521207921122 -23.703649475392751 118 75 66
-104.622929593316755 -94.251226889143751 -23.600386297882892 115 75 67
-104.617570357676726 -93.695766063265182 -23.386950005322575 105 69 62
-104.620091779702051 -93.174568120923652 -23.834544257598139 80 57 50
-104.621323995275304 -92.649376701338340 -24.171937483768289 98 94 85
-104.627837607961752 -92.151554021095123 -24.949957927161591 60 66 58
-104.625170780078378 -91.610580667100592 -24.956802238974234 71 81 70
-104.610660746924808 -91.006792496934551 -23.972228919767048 86 94 83
-104.605374005776511 -90.448863474953356 -23.758783352472705 92 93 83
-104.594816932108927 -89.859753031486420 -23.104744520544131 36 24 16
-104.597475207498064 -89.345317497005013 -23.552203693778296 79 56 50
-104.594869491179381 -88.800786586046272 -23.559055389748835 103 70 66
-104.592281055359223 -88.256249382366533 -23.565898883562284 114 70 67
-104.585734392055144 -87.685877614504179 -23.242325253222191 121 77 74
-104.583178456342551 -87.140511258044924 -23.249161733981680 119 75 72
-104.587281134185005 -86.640900895297278 -23.806636192013457 130 86 83
-104.587428654914405 -86.115726260947270 -24.033689274779618 134 90 87
-104.586271137549957 -85.581933639433245 -24.150596507647208 134 89 86
-104.574484092180171 -84.968931429749304 -23.386533134996313 137 92 89
-104.570698813988784 -84.413553183270508 -23.283201901476843 136 88 86
-104.566933688888355 -83.857620924354720 -23.179866729516078 130 82 80
-104.563189514429283 -83.301134008693353 -23.076527244200804 132 84 82
-104.559467112513232 -82.744091765249905 -22.973183059243382 124 74 73
-104.557104957064169 -82.197820296220783 -22.979936152967355 117 65 67
-104.557446195856315 -81.674732809108320 -23.206875077621248 111 61 62
-104.551119005151691 -81.093366689079346 -22.883309622731844 110 62 62
-104.544812522383651 -80.510355112399324 -22.559751198748472 101 55 55
-104.538527774816643 -79.925697217681346 -22.236199323098049 103 57 57
-104.540325631833923 -79.415506854466443 -22.573167534931116 103 58 56
-104.535438492375960 -78.842142144268621 -22.359689686850942 105 61 58
-104.533269337746290 -78.294130922869130 -22.366368357789611 104 60 57
-104.527092968415403 -77.705596835830178 -22.042804533957252 97 52 52
-104.519596157428907 -77.101638547083667 -21.609172289023036 92 52 52
-104.506731221265184 -76.439304408909905 -20.735273489034995 93 61 59
-104.495235371176250 -75.786915143631234 -19.971476240309471 97 65 66
-104.485113102805215 -75.145285066649109 -19.317770009988777 91 62 62
-104.475017269514467 -74.500367866951549 -18.664084969221705 72 54 52
-104.473064497825263 -73.942957492636651 -18.670756873506008 24 20 16
-104.468445457162275 -73.354711313126330 -18.457303950320664 9 12 5
-104.471990812564940 -72.859407756656978 -18.904141812456288 10 13 8
-104.467454839676833 -72.270560278322819 -18.690655339403094 8 13 12
-104.467028027764130 -71.729255283310778 -18.807290333921543 7 13 11
-104.462577540571928 -71.138985355382488 -18.593777606792628 6 15 12
-104.456812776626975 -70.530829785960094 -18.270218846129723 6 15 14
-104.453808589278722 -69.955079927175632 -18.166723636667484 7 13 13
-104.445414914267772 -69.309516307732835 -17.623089828057516 10 16 16
-104.445225473428849 -68.766676622716602 -17.739627062403088 8 14 14
-104.443729102894707 -68.206489068362771 -17.746109212848523 10 16 16
-104.445009706948539 -67.682509449543076 -17.972607931540949 7 13 13
-104.439537128929643 -67.067592212476541 -17.648978991374349 8 14 14
-104.436843115864690 -66.488335283877177 -17.545371495629638 9 15 15
-104.435569607250045 -65.927428692019760 -17.551754431110908 6 12 12
-104.438448127753759 -65.424113306611687 -17.888134889636063 8 14 14
-104.435932719035506 -64.844439916375322 -17.784446237032881 8 14 14
-104.440304870817158 -64.362957941763256 -18.230746290129389 9 15 15
-104.436551324591974 -63.763421485761192 -18.016995533859358 12 18 18
-104.432861727997846 -63.162740235790217 -17.803225968244448 13 19 17
-104.427871319753805 -62.540337598100308 -17.479443410699304 10 16 14
-104.427048611774651 -61.978781106512919 -17.485617374446207 7 13 11
-104.423562192526063 -61.374924255260318 -17.271783297544886 12 18 16
-104.417411771734763 -60.727130436772825 -16.837958165285045 11 17 15
-104.420909111464226 -60.228737693557491 -17.173991911584693 8 14 13
-104.419011445688270 -59.644165023506780 -17.070058163623742 11 17 17
-104.415822862273373 -59.036766945517464 -16.856118054706229 13 19 19
-104.412713328789977 -58.428204689885234 -16.642152112037820 14 20 20
-104.415159891226480 -57.909491376628516 -16.868038831507789 13 19 19
-104.416321570384881 -57.368762638710976 -16.983907965638963 13 19 19
-104.407986339311535 -56.665402795585798 -16.329982238293752 14 20 20
-104.399738084827490 -55.958686171681222 -15.676049454677212 11 17 17
-104.402530686036314 -55.439366389948688 -15.901776873069366 13 19 19
-104.402676878234473 -54.872812257122526 -15.907538761524364 16 22 22
-104.409760045683512 -54.428115885988831 -16.463022106242533 17 23 23
-104.407357112979540 -53.813410048775900 -16.248781367154777 16 22 23
-104.405052170523703 -53.197513362934110 -16.034506007871272 14 19 22
-104.400111353624368 -52.530004473408574 -15.600305142385906 14 19 22
-104.400745541972000 -51.962133812228330 -15.605847126843457 16 21 24
-104.404218296939291 -51.445664191491595 -15.831219823870015 18 23 26
-104.400960126128254 -50.800033723080176 -15.506847665604738 17 22 25
-104.400545676758327 -50.205251251021522 -15.402309446620194 16 22 22
-104.405706628992078 -49.716101411602665 -15.737452184548118 13 19 18
-104.413707571995431 -49.282164239384763 -16.292385718747624 10 16 14
-104.417722143782370 -48.769470580551292 -16.517460344592024 9 15 13
-104.410936833592771 -48.038583648753431 -15.863076490560900 7 13 9
-104.405642307569565 -47.331949834552582 -15.318588685891768 5 11 7
-104.395026155272802 -46.510676335844963 -14.334391233171743 8 14 10
-104.391358176825378 -45.825412594035100 -13.899764205747715 10 16 12
-104.391906857934259 -45.223280034570102 -13.794840886585490 9 15 13
-104.400746372702429 -44.793025764675136 -14.349335340963279 11 17 17
-104.406989456566990 -44.307281736895206 -14.683925333098188 10 16 16
-104.410644180782214 -43.764401400244147 -14.798623950506254 5 14 13
-104.418502592626595 -43.310659564521167 -15.242970645553612 11 20 19
-104.429200484979560 -42.918660120133183 -15.907041167248849 10 20 21
-104.433253000231900 -42.379115700933816 -16.021515144514069 22 33 34
-104.440151126188056 -41.900758171196330 -16.355715733822677 14 25 27
-104.443132056343956 -41.331822927460259 -16.360146003326150 10 24 28
-104.450310072711261 -40.855570202514727 -16.694191028208309 19 32 38
-104.463021758888218 -40.505695814707529 -17.467723428392105 23 35 41
-104.465090503133908 -39.907434127799164 -17.362033071399793 22 33 39
-104.459248554170429 -39.117748512102239 -16.596944276062402 19 28 35
-104.445531319636217 -38.131687483268500 -15.172491071602991 13 22 29
-104.445435282422451 -37.461561176236579 -14.846858307436236 15 20 24
-104.453550671389380 -36.985193717918513 -15.180456077488060 14 19 22
-104.455135738576686 -36.345859628486807 -14.964561003894232 14 19 22
-104.462239531493481 -35.837815716032779 -15.188109894763784 14 19 22
-104.465509283551768 -35.230351690784488 -15.081939704042043 16 22 22
-104.476942596411590 -34.824329792521212 -15.634943858329081 16 22 24
-104.480562235305214 -34.216935712368901 -15.528605562964600 17 22 25
-104.488345219915814 -33.711510396319433 -15.751802576327606 15 20 23
-104.508210495112323 -33.517722368102994 -16.963741588416497 13 19 19
-104.503115929311164 -32.668390883462479 -16.088050327508171 14 20 20
-104.499572166519670 -31.849461219533080 -15.322163111463027 12 18 18
-104.502835638163234 -31.203193530078906 -15.105536465958636 11 17 17
-104.520739506503702 -30.947542640464299 -16.097332824032918 11 17 17
-104.534862317636936 -30.588841774818917 -16.759422117324505 10 16 16
-104.540009243200942 -29.979840426908808 -16.652369717666460 8 14 14
-104.549275587367489 -29.479386427715632 -16.874805924640697 8 14 14
-104.557437742821705 -28.942991600720873 -16.987281443785264 7 13 11
-104.568396322460217 -28.480879550303346 -17.319372303090631 6 12 10
-104.564039802576659 -27.572542917928320 -16.333076448251887 8 14 10
-104.570276265496148 -26.959486928603475 -16.225544554118557 9 15 11
-104.574172113609649 -26.269837388547959 -15.898203048139464 8 14 12
-104.582160043970703 -25.692570032898779 -15.900323752520961 8 14 12
-104.589100010683140 -25.076545264563489 -15.792485863718241 9 14 16
-104.598827195264718 -24.536978688941389 -15.904245326694706 9 14 17
-104.603706484649138 -23.841747364371244 -15.576490801894664 7 12 15
-104.611380788759178 -23.222957416733738 -15.468330071977618 5 10 13
-104.621828313181695 -22.682270391646018 -15.579756460192584 5 10 13
-104.632514393549030 -22.141750728071255 -15.691067001325081 4 10 6
-104.643442373833693 -21.601390643278190 -15.802260175741736 4 10 6
-104.652122973033187 -20.980466977461226 -15.693640001136345 3 9 5
-104.663554722563646 -20.439843576475628 -15.804594884518423 2 8 4
-104.669056820430811 -19.694772924990563 -15.366196546583552 3 9 5
-104.683485141280713 -19.235405146271514 -15.696599245419463 3 10 3
-104.695700459542451 -18.694322170455450 -15.807184002840955 3 10 3
-104.709399740554986 -18.195104663729396 -16.027486780184802 2 9 2
-104.714849802984759 -17.402291651943674 -15.478745887002589 3 10 3
-104.725475937734288 -16.775472367189678 -15.369255661426251 3 10 3
-104.737603929453385 -16.190209372007775 -15.369478077779434 3 10 3
-104.753615608611000 -15.733093716248533 -15.699100121195187 3 9 5
-104.754396956279578 -14.716079157683039 -14.600606119699592 3 9 5
-104.771010053469453 -14.257670557720573 -14.929953755714422 0 6 2
-104.791426136963508 -13.931601892324142 -15.588696469449985 2 8 4
-104.806211147483609 -13.388356049049305 -15.698074158384486 3 9 5
-104.818963946111538 -12.756556930121732 -15.587617804033130 4 10 8
-104.832047121502967 -12.123640634206017 -15.477014898234444 6 12 10
-104.853528011256159 -11.803571174772220 -16.135186459464734 4 10 8
-104.875249239511191 -11.486324536160573 -16.793213986866760 3 9 7
-104.889251515863876 -10.853952707190754 -16.682165781846891 1 7 5
-104.893433895800342 -9.809083686271663 -15.582331458146001 0 4 2
-104.919429189276286 -9.631699242594934 -16.569451270324834 4 9 8
-104.959001814922487 -10.014077595087217 -18.874620432716625 11 15 15
-104.981991816365138 -9.709426004341179 -19.531911336219792 13 17 17
-104.998644236704990 -9.126506474846659 -19.529945158959663 11 17 17
-105.008020576879176 -8.213051339085501 -18.758850008109277 11 17 17
-105.028689362872996 -7.769064092195257 -19.086108970270232 9 15 15
-105.049671256204959 -7.326117544370090 -19.413207430515513 12 18 18
-105.069905837849305 -6.836217103435549 -19.630287837199575 14 20 20
-105.097863370428485 -6.684662037720015 -20.616203046154510 17 23 23
-105.118714287017582 -6.197653430512601 -20.832958833216253 24 30 30
-105.143019643629444 -5.857607757965608 -21.379125919459142 8 14 12
-105.155296306651209 -4.930108435622991 -20.606787827967594 16 22 20
-105.179289088215612 -4.541459862545793 -21.042745858192433 12 18 16
-105.197559760731011 -3.856098683808839 -20.819342228155335 15 21 19
-105.219265962982490 -3.318799463184867 -20.925347631115187 15 21 19
-105.231497926513725 -2.278414895107598 -19.932475138408790 17 23 19
-105.262877187262603 -2.192967788875462 -21.026931806819789 16 25 22
-105.291569437347690 -1.959893606568303 -21.791616876816107 17 26 23
-105.330075622624335 -2.241615874965365 -23.654896784582235 17 26 23
-105.369575587416577 -2.583821497065713 -25.627937571011103 19 29 28
-105.397922470026259 -2.314784664368541 -26.282299160329899 22 32 33
-105.424727235348897 -1.944319138531831 -26.716724779923851 19 29 30
-104.316490907312200 -140.616520937519624 -15.731320076727570 189 193 197
-104.324353756355308 -139.900200797617487 -16.732661924029600 193 196 200
-104.315292975166855 -139.388877149816892 -16.409683227104722 193 196 200
-104.303437385202244 -138.908767043083770 -15.866002490619081 196 199 204
-104.265993332517965 -138.716250559468619 -13.336142912782691 191 195 199
-104.299800711990486 -137.718573551912868 -16.323429061806507 155 159 162
-104.283801251459181 -137.280994818742329 -15.448716287240529 157 159 161
-104.277834791675346 -136.731939174276874 -15.346363441799667 156 157 160
-104.280513397097195 -136.092156848233998 -15.905962031630736 126 127 129
-104.291874127349402 -135.366543626089026 -17.127443932756933 108 109 111
-104.309079725065402 -134.588981248534481 -18.790099947758563 109 110 112
-104.333591828682984 -133.748510799434200 -21.004202524366519 148 151 155
-104.351030252677575 -132.988702689525894 -22.666564402478656 151 152 156
-104.361361689605673 -132.305474449657311 -23.777243539167529 131 132 136
-104.363108648351016 -131.708149427761327 -24.225991906294439 123 124 128
-104.364914818615006 -131.113030728524308 -24.674689236046277 126 126 128
-104.369676500853856 -130.494394292140811 -25.343932508723697 127 128 130
-104.374502258304773 -129.879049132603427 -26.013111249273351 162 163 164
-104.366315473354319 -129.377850767673834 -25.689610210920932 181 178 177
-104.347972323804470 -128.959365011915565 -24.594104345699009 150 139 137
-104.333997984302641 -128.500144724864583 -23.829504412480389 30 10 6
-104.325867262566803 -127.991134521663952 -23.506056964853883 59 31 28
-104.323601758228321 -127.435596197214352 -23.623718094336482 84 53 45
-104.325760489429499 -126.847749275666118 -24.072171908083675 100 64 54
-104.325038749622962 -126.283470039161472 -24.300043365425040 119 79 67
-104.325821901233084 -125.709883567922134 -24.638149576834167 127 84 71
-104.317840909303897 -125.198801317861736 -24.314651827600670 128 84 71
-104.311348373234907 -124.676235297701425 -24.101419099320708 132 87 74
-104.300464098096469 -124.181395243042502 -23.557425311905291 132 86 73
-104.301373544830909 -123.609237740797781 -23.895456395064144 134 88 73
-104.300845823085353 -123.047781703484077 -24.123205974222628 137 89 75
-104.297398350792079 -122.504994242931147 -24.130442417155280 138 90 76
-104.292497989627918 -121.970732302640371 -24.027427274760299 136 89 73
-104.286138781010621 -121.444179832682991 -23.814171797614847 140 91 77
-104.285722302806022 -120.884681030360326 -24.041848011441658 142 94 80
-104.283852119928184 -120.333977543976587 -24.159270253075448 142 95 79
-104.284976880557366 -119.768980166301276 -24.497124628045981 139 93 76
-104.284646257140665 -119.212776846153318 -24.724725847183038 135 90 71
-104.282854478125586 -118.664551701125333 -24.842085069865050 130 85 66
-104.285554955623439 -118.097052341939929 -25.290070266359720 126 83 64
-104.286796007264471 -117.538073554440317 -25.627807055736611 126 83 64
-104.283585960936989 -116.998930852325159 -25.634892397571463 126 83 64
-104.277404238531730 -116.471384155997342 -25.421562245702034 126 83 64
-104.271233073734010 -115.942758261068974 -25.208238151842693 127 84 65
-104.271063203309637 -115.392051028395059 -25.435705893309859 127 85 66
-104.269416082383941 -114.847416349372608 -25.552958953587478 128 87 67
-104.269288345984265 -114.298624679699813 -25.780386820429385 126 85 65
-104.264673942586214 -113.764231820308396 -25.677236224435347 123 85 64
-104.263078832189052 -113.220974249249409 -25.794450227790293 120 82 61
-104.258489206970438 -112.686049199774246 -25.691293256100039 118 80 60
-104.253909729780403 -112.150585848856409 -25.588136970634821 118 80 61
-104.250848741676748 -111.611235507481823 -25.595153140861498 117 79 60
-104.250820749051059 -111.065736342585936 -25.822499399218202 114 76 57
-104.246275412274997 -110.529743153318563 -25.719332234988258 114 76 57
-104.240225309756426 -109.995743776396381 -25.506005537299075 115 77 58
-104.235695292340537 -109.458399732451909 -25.402844949365544 113 76 57
-104.232689607913102 -108.918525890737527 -25.409840051155129 113 76 57
-104.231212493881699 -108.376937119680321 -25.526980427656440 113 76 57
-104.229748789415979 -107.835894738178837 -25.644108764805281 110 73 54
-104.228298224498531 -107.295398518914013 -25.761225194117031 109 72 53
-104.222293418041957 -106.758157408158382 -25.547910195741935 110 73 54
-104.213244628608550 -106.221094570718350 -25.114331823491284 111 73 54
-104.207244196218625 -105.681140984353206 -24.901042653451753 111 73 54
-104.204300880430907 -105.139926627519060 -24.908021716893415 110 72 53
-104.196781916817244 -104.598162857204997 -24.584618755198505 109 71 52
-104.193852571964598 -104.056136744251802 -24.591599490806232 110 72 53
-104.189401046670895 -103.513384906606220 -24.488457017647704 112 73 56
-104.192619029511974 -102.975084873481336 -24.935894078028412 112 73 56
-104.189721010050945 -102.433877428079882 -24.942851400719775 113 74 57
-104.186831884902645 -101.892670816054547 -24.949804459824065 114 75 58
-104.174729409470615 -101.340581648708678 -24.296123864209363 114 75 58
-104.170310962366116 -100.795660465513038 -24.192987896722030 114 75 58
-104.165898628904770 -100.250196192370112 -24.089854594786487 114 75 58
-104.163033842492851 -99.706817579892387 -24.096818367814478 113 74 59
-104.155549875390150 -99.154737005424238 -23.773504859956546 111 70 56
-104.149610843200904 -98.604198330992247 -23.560295273900465 111 69 55
-104.149858044165171 -98.066348440841836 -23.787431142759317 113 71 59
-104.145479391279721 -97.518437548092322 -23.684306912436369 115 74 60
-104.142656134013762 -96.973969773376695 -23.691262029357347 118 77 65
-104.136743165208344 -96.420982744270034 -23.478065176812351 121 78 68
-104.133937306998845 -95.875969160030465 -23.485017588375996 120 76 67
-104.131141927255442 -95.330954019118721 -23.491965003100972 122 77 71
-104.129911331132860 -94.791011235442298 -23.608970503304761 124 79 73
-104.128694557154375 -94.251609794156380 -23.725963818732936 122 78 71
-104.124378337959683 -93.701514350701885 -23.622832207024146 115 75 70
-104.126303725559083 -93.174429900859835 -23.959913307984380 87 60 55
-104.128249395508263 -92.648972780390309 -24.296967955019312 107 98 91
-104.130215684732462 -92.125142707343286 -24.633995989847278 43 45 38
-104.125954012296503 -91.576122026459629 -24.530827220085001 46 51 44
-104.115448606782138 -90.998649990273663 -23.987502755236704 21 24 15
-104.117462913252609 -90.476438781764912 -24.324491154992671 34 31 23
-104.105403216567126 -89.888178228660763 -23.671162424416849 49 34 27
-104.096477528604169 -89.312234648013103 -23.237925379866539 86 60 55
-104.090694416660369 -88.750237882264329 -23.024759145989407 109 73 69
-104.088062382457181 -88.203817784851736 -23.031642878690917 124 83 81
-104.088589856706946 -87.674604223423316 -23.258555767700670 132 91 89
-104.087566812309973 -87.137592974480626 -23.375431800110590 128 87 85
-104.088138124625075 -86.610267939799144 -23.602304277585631 134 93 91
-104.084006830661068 -86.055757867924001 -23.499129640268393 136 95 93
-104.079892007777175 -85.500696348125459 -23.395952799573422 141 95 95
-104.072638635136741 -84.925152914944164 -23.072770491106581 142 96 96
-104.070135565926179 -84.378680064952036 -23.079593070406503 146 98 98
-104.067653691077695 -83.832197547587455 -23.086405609907331 150 102 101
-104.065193771633048 -83.285704759059286 -23.093207751744472 148 99 99
-104.065922160639303 -82.761304987282756 -23.319974973068270 127 77 77
-104.061926941533557 -82.204009546583862 -23.216763909205810 125 75 78
-104.059538869667733 -81.657753832012006 -23.223529239086162 123 76 78
-104.052416966195025 -81.075883377037982 -22.900349163433987 121 78 79
-104.046901686206951 -80.504507595992862 -22.687151342583320 121 78 79
-104.039820174010913 -79.919619349548157 -22.363983007526372 126 84 84
-104.034349618505203 -79.345767671884374 -22.150789276284399 125 82 82
-104.030494455498186 -78.783767075897330 -22.047559642591438 119 77 75
-104.028259060127070 -78.234432088425180 -22.054283629062951 119 75 73
-104.021275289083064 -77.644584951572199 -21.731119579324002 120 76 75
-104.006346106043139 -76.984238436528301 -20.858187848362491 109 71 70
-103.993028296828001 -76.333564361681283 -20.095244563321046 103 75 74
-103.984519029569128 -75.722004236520831 -19.662174923518194 91 65 68
-103.976037038049625 -75.108247169471625 -19.229114849321576 93 76 76
-103.962788694155023 -74.447719935246042 -18.466239755828212 21 15 13
-103.959160232826164 -73.874137304997376 -18.363020888526449 12 13 10
-103.955569001691742 -73.299985302235697 -18.259790071264604 9 14 10
-103.956819926436154 -72.772281783518750 -18.486341320409309 6 11 9
-103.953309717822208 -72.197803048765522 -18.383075105467867 5 13 10
-103.953046627039910 -71.655184930279262 -18.499645292998338 8 15 13
-103.951225451039349 -71.096591235108789 -18.506266422872329 13 19 19
-103.944635185715129 -70.487683096794072 -18.183110325809309 11 17 17
-103.941297835961137 -69.911175265578336 -18.079782302291051 7 16 15
-103.933187481500894 -69.282174112731639 -17.646701353232260 7 13 13
-103.934763811179863 -68.756421368654671 -17.873076849468276 7 13 13
-103.929961972301342 -68.160323289356228 -17.659792199871674 11 17 17
-103.931644540953485 -67.635581114110920 -17.886106469454404 15 21 21
-103.923726707789655 -67.001527978849779 -17.452985421460227 16 22 22
-103.919078850082514 -66.402585372696080 -17.239656387942915 10 16 16
-103.920928463791256 -65.878258478873946 -17.465886469042857 9 15 15
-103.922838873113164 -65.354973627810551 -17.692076739460305 15 21 21
-103.923199323207442 -64.813247592149892 -17.808339444516037 23 29 29
-103.925234797500977 -64.291769513488859 -18.034451286263732 10 16 16
-103.917655839949049 -63.651172594705329 -17.601235479789466 13 19 19
-103.911750740378224 -63.028641934667512 -17.277891825238100 19 25 23
-103.905908715024097 -62.404421529601521 -16.954535389592024 16 22 20
-103.908205060113133 -61.882722792301550 -17.180524702995541 16 22 20
-103.908957445230712 -61.340937748028544 -17.296600515084890 19 25 23
-103.901704298520443 -60.692697557486738 -16.863307517856640 11 17 15
-103.897752756500793 -60.085532996226604 -16.649730002015446 8 14 12
-103.892258445212619 -59.455279149183454 -16.326269326401331 15 21 21
-103.886838921993572 -58.823320773693631 -16.002790417998909 19 25 25
-103.887962886970143 -58.279563883339030 -16.118708764759646 17 23 23
-103.895634871950151 -57.827275965677295 -16.673988564791358 13 19 19
-103.895305464161140 -57.262524804917980 -16.679959419752805 11 17 17
-103.885357008059927 -56.557924446084144 -16.026818222982683 12 18 18
-103.877110377466209 -55.873537327842790 -15.483513698603844 6 12 12
-103.878654503056111 -55.329379051482867 -15.599235173635179 8 14 14
-103.883522904651031 -54.833903495449249 -15.934582980564841 14 20 20
-103.890099914542134 -54.364358822794344 -16.379705360453556 11 17 17
-103.888684347649658 -53.773609840446866 -16.275604553924438 13 19 19
-103.887364464305406 -53.182218068507858 -16.171464589269959 9 14 17
-103.882908932830077 -52.539771717769028 -15.847632468519521 9 14 17
-103.886636907852775 -52.022970473001706 -16.072886482719099 19 24 27
-103.888849277106601 -51.481404279146389 -16.188261590664752 17 22 25
-103.886317079861882 -50.862204337184487 -15.974128951367959 14 19 22
-103.883892252501553 -50.241798716857062 -15.759957357339658 17 23 23
-103.886422410542409 -49.699892504948082 -15.875183936195526 17 23 22
-103.892291040985910 -49.212098103941202 -16.209974171085179 11 17 15
-103.895040832328377 -48.671587320589765 -16.325081314275252 13 19 17
-103.888223463704406 -47.967158981920171 -15.781299330218957 13 19 15
-103.881529383042349 -47.259865518339865 -15.237487857794264 9 15 12
-103.870125593864358 -46.465893006212731 -14.364245070009190 8 14 12
-103.866912356600324 -45.808454130276559 -14.039972965559770 14 20 18
-103.873491355408760 -45.320131083341508 -14.374428804276704 7 13 11
-103.883411249607093 -44.890816586423632 -14.928396735282973 7 13 11
-103.882190896224159 -44.260870719900339 -14.713747127579154 7 13 11
-103.881106102734464 -43.629673703352154 -14.499045547202826 6 12 12
-103.884979128260170 -43.085957023769140 -14.613648338910167 4 12 12
-103.903434486735023 -42.811298144822096 -15.716235409698015 5 13 15
-103.910775790149529 -42.331063882787390 -16.050243302577883 19 29 31
-103.919853137350188 -41.882702622992468 -16.493951478157953 12 23 25
-103.924258450173269 -41.344332455025047 -16.608244591116886 4 15 18
-103.936806737296166 -40.961076985817698 -17.271339884167617 20 31 37
-103.951083692086712 -40.612152203634345 -18.044113690444220 22 33 39
-103.955906883692464 -40.077889310221742 -18.158164613385566 22 33 39
-103.949711526881160 -39.321569463695397 -17.503760321448112 21 32 38
-103.938910647776851 -38.465610256603384 -16.520008278820569 14 25 31
-103.929891853391780 -37.636821809155563 -15.645982895613884 15 20 24
-103.935374278213516 -37.096800466704060 -15.759777718253133 18 23 26
-103.936253456289435 -36.458494096009019 -15.544209760765369 17 22 25
