ply
format ascii 1.0
element vertex 672
property double x
property double y
property double z
property uchar red
property uchar green
property uchar blue
end_header
164.544609892424518 -2.039539301351220 -61.083803528435595 134 131 112
162.088325581946833 -2.187453707346743 -62.789533984386622 132 129 110
159.440093528955003 -2.423165495114362 -64.624251325545430 132 129 110
156.791644387850340 -2.674072193408676 -66.458708403647847 133 130 111
155.139633323202048 -1.787969366777041 -67.672973003043040 133 130 111
150.225991898082498 -2.221461637228496 -71.082503649976076 134 131 112
148.575318083072005 -1.389898652748021 -72.296846579020524 134 131 112
146.790337120164111 -1.372200232204743 -73.549418796990665 136 133 116
145.197393516851946 -1.285725883546981 -74.672851204879606 136 133 116
130.043442940258331 -5.432067121062895 -85.007135521487072 138 135 118
129.986318066627007 -4.763099433173421 -85.097552083142006 135 132 115
129.737515279056396 -4.175665056583190 -85.317149094294109 136 133 116
128.816361764575760 -3.877274834782855 -85.988132740072729 139 136 119
129.433575395390619 -2.920675049580928 -85.628099078043959 139 136 119
124.667184396433171 -4.297014532584865 -88.876650854275283 143 140 123
120.861350372629673 -5.281153328918533 -91.480178064394323 142 139 122
115.171304149721621 -6.464283971990584 -95.397433992366757 142 139 122
116.985799250673750 -4.345254324728645 -94.291834537193381 141 138 121
117.894414731620131 -3.276600576161242 -93.739783294400212 141 138 121
114.375390724929858 -4.215061532544677 -96.148412963795550 144 141 122
115.477610448119520 -3.059420013899220 -95.468158965847067 145 142 123
112.728419983063475 -3.670428241916915 -97.361573918859108 145 142 123
111.616348916964540 -3.538548880260407 -98.161227052263683 139 136 117
109.348236866515379 -3.951973224496101 -99.732527675395858 141 138 119
107.940876545509965 -2.705390857262447 -100.845825179117043 142 139 120
107.215452419880720 -2.417149189329469 -101.388622859613804 142 139 120
96.504198602239313 -6.334982896482388 -108.640262628954162 141 138 119
95.198705090514736 -6.368242590838360 -109.567401037946752 141 138 119
97.367814359823853 -4.706298700953376 -108.183307232397027 143 140 121
96.256255364209196 -4.648296348539805 -108.982444885397285 143 140 121
99.296919080349227 -2.537306995269076 -107.022192026024243 143 140 121
86.353106148660672 -7.807606681229248 -115.741615909207098 144 141 122
87.656189297107900 -6.574788523361333 -114.936530933476462 146 143 124
86.785837908416099 -5.860266895933530 -115.636101591701902 139 136 117
83.353567696591057 -7.045944251299753 -117.972830371687550 141 138 119
87.851790323174299 -4.153761736451058 -115.055026638819555 140 137 118
217.249731088057672 -5.805648342021887 -25.286599691843747 120 118 106
213.254198993877026 -6.104305815923865 -28.028149768773972 121 119 107
212.326537830192990 -5.470629123164611 -28.699471449558985 123 119 108
212.677718217410984 -3.519026413873603 -28.554987115384819 125 123 111
212.710180964999353 -2.587192977753955 -28.580109012229030 124 122 109
205.261361423066830 -4.070324773213675 -33.648345678949852 126 124 111
204.046903123615380 -3.565408753273592 -34.513715849514369 128 126 112
205.039275957910007 -2.342069253857284 -33.892467210687272 130 128 113
197.012994644326625 -4.102481883264252 -39.346747263828718 130 129 111
200.020941259231392 -2.219275143023554 -37.368497974505544 131 128 111
194.488564432861580 -3.198880073051147 -41.141559623902310 132 129 112
193.658559539811108 -2.610640239023148 -41.748273140487868 133 130 113
193.020833093991030 -1.960996618638600 -42.225886297331755 134 128 112
188.063255463911105 -2.809151257209332 -45.610129686348955 131 128 113
186.081488214596135 -2.647684842244215 -46.991757665459176 132 129 113
184.963981990060461 -2.193457885196051 -47.792128723430693 130 127 110
184.326891737386831 -1.575087729754067 -48.269724319410045 130 127 110
177.097894397013476 -2.494594927875894 -53.227207075149494 130 127 111
178.766870805488139 -1.066008166212801 -52.155743785741578 131 128 113
166.023824713721979 -4.904594480300434 -60.764233412098918 132 129 112
167.440508541057994 -2.795826742499038 -59.911652315903183 132 129 111
160.556079219714491 -4.580990103762611 -64.581629057428785 133 130 111
163.668563644974881 -2.629530184353753 -62.543233977594241 131 128 109
161.205692801888290 -2.781949784371505 -64.245767084696581 133 130 111
161.146747465990018 -2.026373571442373 -64.336204248499655 132 129 110
158.683880267693894 -2.199817713038775 -66.038522683089013 132 129 110
156.220839131153610 -2.387328861523673 -67.740613107450059 132 129 110
150.871475156139184 -3.720971983465049 -71.375865414815820 133 130 111
149.658483584203879 -3.450922784646352 -72.239519660619834 135 132 113
152.583684017142104 -1.540429760258385 -70.332824637824615 134 131 112
150.890413629161259 -1.464424723551096 -71.519012174852747 134 131 112
148.908384643504007 -1.514571533849922 -72.898336698961032 133 130 111
145.289577078265438 -2.241719071858712 -75.372264296066788 135 132 114
137.937422297326322 -2.377394314513956 -80.500615100309915 137 134 116
128.824457473663358 -5.502378114887732 -86.640431004629392 136 133 116
128.960641762722901 -4.756302295120429 -86.602401950003468 137 134 117
131.892673779652853 -2.814836231515300 -84.699293954625432 140 137 120
130.295264574569785 -2.803927806243276 -85.819812195923504 140 137 121
124.937425830595430 -4.430255453414866 -89.447997454017695 142 139 122
126.136090469667124 -3.229443874125962 -88.703488446446954 140 137 121
116.918490185375262 -6.592356765024909 -94.901656866328324 139 136 119
115.705425805098486 -6.472703380478736 -95.763728181202595 139 136 119
117.387232302969039 -5.072478632017006 -94.698110818134040 141 138 121
121.193464695651883 -2.711122720380146 -92.219809458864091 141 138 122
122.685052610471971 -1.369964581376188 -91.284301945236194 141 138 122
112.538792862529917 -4.652695587424847 -98.147617062510960 144 141 122
109.728848300797779 -4.661543531801438 -100.129024687140088 140 137 118
106.391430382384755 -5.576780539708661 -102.403055372601131 142 139 120
107.402250289485664 -4.475587216721514 -101.789374438218317 142 139 120
102.175581676505203 -5.690180434800074 -105.373690341762227 141 138 119
101.733040736276209 -4.052412418449553 -105.843991951319197 144 141 122
99.941548187976778 -4.306103385619886 -107.090655501855821 142 139 120
98.924228795240467 -4.191543469360876 -107.824600348343012 143 140 121
97.326190999243209 -4.368129815856083 -108.942887896027258 144 141 122
93.694444316375794 -5.559805683726832 -111.405843840152727 144 141 122
88.607183077652920 -6.336426776647703 -114.950501135875044 147 144 125
89.577866996241880 -4.679612051592926 -114.434197457294943 138 135 116
90.404025569399991 -3.671529142635996 -113.952934511294671 138 135 116
91.231299010697583 -2.657488836406625 -113.472266236873736 142 139 120
219.744258181794891 -6.236806242519316 -24.590933734451397 117 117 105
219.102697092722622 -5.493803488634732 -25.067673403568193 117 116 104
216.250343835099699 -5.434482291550864 -27.029494552666250 119 119 107
222.050934382091896 -2.704237698161153 -23.181047871515432 125 123 111
215.737658923389802 -3.737125388267368 -27.466852905048341 123 121 109
210.577546563120563 -4.441342964726454 -30.977403759702923 125 123 109
210.514077441018742 -3.548355047451084 -31.067091207394924 124 122 107
214.490803530937114 -1.354435064530845 -28.446912176511233 124 122 107
206.863043680637389 -2.004613655081974 -33.659836188684096 127 125 110
204.491881783344922 -1.885215489186172 -35.298181612996018 129 127 112
193.749025191901751 -4.571507397162057 -42.547379602087261 130 127 111
196.188682145369000 -2.884590031072381 -40.960395291053686 131 129 113
193.239502978433393 -3.011796852711683 -42.984834115348178 132 129 113
193.755448654191184 -1.970074570495014 -42.688089304281704 133 130 114
193.886925757976030 -1.057801544906577 -42.649519099685136 132 129 114
187.953200699338538 -2.254817035971492 -46.671774754031077 133 130 113
182.692603994489957 -3.249635165757582 -50.242121830110392 129 126 109
183.787341128892109 -2.026655872261976 -49.558981328878303 128 125 108
179.489112706536588 -2.720146119230813 -52.484234962647122 129 126 107
179.236122595183588 -1.984044735706386 -52.703359076640936 130 127 109
177.442117896600195 -1.807532269869229 -53.953249123144275 131 128 111
174.684627973430906 -1.993011365617705 -55.847073828968945 132 129 112
164.579444444625210 -3.328634069987868 -62.750082232573476 132 129 110
162.013640450584091 -3.509812555320297 -64.513935328351238 131 128 109
165.425588313501123 -1.435895024907913 -62.287486393562915 131 128 109
162.281642320960430 -1.850085566491396 -64.437513138336072 131 128 109
161.644924622921110 -1.315719371679602 -64.914422268208682 131 128 109
155.992657317207659 -2.732600541942325 -68.736486504148672 131 128 109
153.619384524152963 -2.898980327199878 -70.370880427149757 133 130 111
148.447788672754257 -4.181784469659028 -73.869981936829419 135 132 113
148.389815350997964 -3.463881341704449 -73.960496320877212 135 132 113
150.592208113139122 -1.094229595888508 -72.599610016695010 134 131 112
145.322608614878391 -2.484323480518409 -76.161581415350810 133 130 111
141.790024874833335 -3.194845733498435 -78.566070442368783 133 130 111
142.313155734040606 -2.256396216514798 -78.271699959983550 133 130 111
140.035779951027877 -2.475295662682696 -79.840571187707440 135 132 113
137.068204072716298 -1.574030066753663 -81.977654556512988 134 131 116
132.029567351207447 -2.313150347664389 -85.435100784375919 138 135 120
128.107723036327855 -3.309986607784789 -88.093857252441211 142 139 124
120.316587295128883 -6.011849859172233 -93.318362662442183 141 138 123
113.974123371982131 -8.124640105216820 -97.579088055129688 140 137 122
115.659899056746767 -6.736269645849317 -96.515247515313263 141 138 123
117.153344005640662 -5.423027714843391 -95.580341044868106 141 138 123
123.293564686538076 -2.025860625450380 -91.568660569145891 141 138 123
111.949467387405221 -4.526430274013427 -99.308150991517380 141 138 119
107.537812735208789 -5.918718835833494 -102.282807708542379 140 137 118
109.520366610028958 -4.369093567041143 -101.030028059577518 141 138 119
105.010675496561788 -5.839377573640950 -104.067840508197321 142 139 120
99.278256283142269 -6.089657061868962 -108.085286533232960 142 139 120
99.033709482756464 -5.599753660917687 -108.305915658738428 141 138 119
100.633621532228943 -4.216967390956841 -107.311799654167856 142 139 120
104.758781922741321 -1.593040416060577 -104.656198476962970 145 142 123
102.381208482602062 -2.134206725352449 -106.284677119171704 145 142 123
99.420477074862177 -2.976738318875444 -108.296226193837896 145 142 123
88.735673276766164 -7.091721898276358 -115.447631314270552 142 139 120
87.326475534566512 -7.220051913984502 -116.435038253215765 144 141 122
90.194620182255775 -5.194866713146476 -114.613087407437462 144 141 122
93.797549223397795 -2.182808428865655 -112.376801082823846 140 137 118
90.056006981001048 -3.510304921473402 -114.896692022617799 141 138 119
218.746913246611541 -3.053210963902742 -26.474614264905711 121 119 106
213.544279304479005 -1.920817896536652 -30.094586981460054 125 123 108
211.070773996068027 -1.802397034703922 -31.794820493735529 127 125 110
206.764288697993095 -2.297243524582983 -34.718168806444169 129 127 112
205.255285016524226 -1.893892943928187 -35.774160666541377 129 127 112
200.851689773726463 -2.461989833137258 -38.761156796321927 130 128 113
193.166505396496490 -4.156327455078431 -43.935861058195599 130 128 113
192.139484239089370 -3.641187722782798 -44.669287982999691 131 129 114
191.981436830108464 -2.835120196916605 -44.823693672102593 132 130 115
183.653239362804925 -4.005649765791096 -50.472186689621594 133 130 113
184.268081343203306 -2.954142098394811 -50.111995372672027 131 128 111
185.269862053391961 -1.762331995577989 -49.494922881506966 131 128 111
180.513986983916311 -1.784336861390440 -52.762446288930761 130 127 108
179.488429385546738 -1.326668171933135 -53.495981797046795 131 128 109
176.723943060631655 -1.508167991783278 -55.386500408943846 131 128 111
169.937927304229135 -2.383341839246598 -60.002065956888316 132 129 114
165.142755657864257 -3.372810711320814 -63.240831423597058 131 128 113
166.437222094199399 -2.100860428876826 -62.432027048944178 131 128 113
160.364387900014322 -2.066720539043664 -66.622124040326327 132 129 111
154.696554670107389 -3.489625962607402 -70.436679580822073 132 129 110
145.582880470026168 -5.559167126063223 -76.587020323165291 132 129 110
150.073027646409685 -3.049817542358634 -73.661412630922996 135 132 113
149.378844089038012 -1.839972383096407 -74.228642219900536 135 132 113
143.223322199022135 -3.588527584109687 -78.360831524907752 133 130 111
140.939737836931698 -3.794052906148661 -79.926870256260315 133 130 111
140.108712843198475 -3.416159491583301 -80.530930558811349 135 132 113
134.353031910366582 -1.572413459597300 -84.669661998562788 138 135 120
129.645216548823498 -2.898504465497680 -87.835894506849627 140 137 122
124.257384048986282 -4.546589815671519 -91.449506891981912 140 137 122
116.582155724915253 -6.572862521244036 -96.625557320994631 140 137 122
117.886343173736407 -5.343748061828863 -95.820962514748942 140 137 122
118.318094526056655 -4.495269890922674 -95.592809154149279 139 136 121
114.523263225699012 -4.891719781614849 -98.207649406585915 141 138 119
114.567944497533759 -4.223958043784421 -98.235898380899243 141 138 119
111.504898798167332 -4.976064099443598 -100.310290329562946 140 137 118
110.772955245608060 -4.673352952449990 -100.850118080179925 139 136 117
108.778027285510831 -4.959216766984768 -102.220845425591477 140 137 118
111.448349752516876 -3.082990113633559 -100.524441591333300 140 137 118
110.134501250030539 -3.058474268394536 -101.448177714036916 144 141 122
106.778690369152869 -4.004487843942601 -103.713092470629164 144 141 122
103.276301644745786 -1.946517088395138 -106.382241948777647 145 142 123
99.041563833048599 -3.411361428706757 -109.219070452959528 145 142 123
87.449673864971260 -7.970114877649157 -116.929690676990532 143 140 123
97.343010297159395 -2.437629384221459 -110.522830190128218 143 140 123
88.620611506160799 -6.230280793452832 -116.288324483018300 144 141 123
90.036458092214104 -4.933456961618506 -115.426985106953026 143 140 121
90.185646926138631 -4.273794285973841 -115.394287888112046 141 138 119
88.872051726023074 -4.363129987252072 -116.316973258639194 140 137 118
219.705449849916363 -3.946683230093891 -26.813119046539924 121 119 107
220.222494408960245 -2.850804110904718 -26.517457400999973 119 117 104
216.002122791293914 -3.242559730363928 -29.372204484440203 122 120 107
209.881295626039503 -3.354515430227084 -33.537837967672061 124 122 109
209.819096220269813 -2.467194221098671 -33.628074513031436 126 124 111
205.984678025100521 -2.810242586686247 -36.224526219407295 128 126 113
200.505204882105943 -3.716227823651408 -39.912795729155761 128 126 111
200.249893475352138 -2.919678568932204 -40.131431563691251 129 127 112
197.285492904297428 -3.031150411044913 -42.148750488478527 130 128 113
193.643439650301048 -3.388136344317486 -44.615367687112922 130 128 113
189.904233748174647 -3.798831247084176 -47.145813423409692 131 129 114
185.196600048070621 -4.563201186289882 -50.317914915030258 132 129 114
184.360919855909231 -4.013898506241658 -50.921512588288181 133 130 113
186.139861717695823 -2.556490568489401 -49.792094180738133 131 128 111
187.822917433466188 -1.122366181672060 -48.727423385238239 131 128 111
177.534071822241060 -3.108276251998086 -55.646733628540574 129 126 107
176.021297434162989 -2.835799172293306 -56.699574448830390 131 128 109
176.737099405605704 -1.761854916417979 -56.277054111690433 128 125 108
173.965131809752933 -1.961046499799925 -58.163811599004902 130 127 110
173.906580034386252 -1.174211228215857 -58.254758806011125 132 129 114
168.905165360148203 -2.226359715439286 -61.615930892202016 130 127 112
168.750022917836560 -1.490064907800343 -61.771008101762646 130 127 112
167.044072902562789 -1.340258865864168 -62.951889419377210 131 128 111
165.629088614956601 -1.089221476871442 -63.940433114108970 133 130 113
158.298178336902851 -3.115097041121600 -68.837772664406145 132 129 111
160.180554347557973 -1.622606818554031 -67.647339033793202 132 129 110
149.743315293929385 -4.915170167231103 -74.593067209220010 135 132 113
146.483552280025918 -5.452627937223250 -76.797277521375008 134 131 112
149.434102933613360 -3.555006804891719 -74.902577460393928 136 133 114
153.842002366394951 -1.060076213218125 -72.048333192526229 137 134 115
147.088342368169265 -3.013552400977626 -76.557419231674430 133 130 111
143.286732293393470 -3.089932737259724 -79.172311178377868 134 131 112
143.522516971448852 -2.269136852881824 -79.071840854686769 136 133 114
139.484880363275920 -3.209076250709937 -81.786647239449877 135 132 113
138.069622495671808 -3.082948642202870 -82.773774295328565 134 131 112
136.168597841927465 -3.167829512648214 -84.080634594113917 134 131 114
131.157461076068557 -4.573051382916661 -87.433521303297425 136 133 116
131.394237554485869 -3.781866945912042 -87.333220647996455 137 134 117
128.855333398554137 -3.489091327365600 -89.114821181806150 140 137 120
127.342922387599430 -3.458353394211940 -90.165347497991434 139 136 119
123.106780449502850 -4.622504341300470 -93.004599461068636 143 140 123
118.577742041697320 -5.939342298728123 -96.034735727662678 141 138 121
118.524025346851715 -5.306674569953444 -96.126409096651770 139 136 119
116.524212681027635 -5.538651558189271 -97.495354299760436 139 136 119
115.595093229354831 -5.303049440359849 -98.161880758994982 139 136 118
116.126794991975999 -4.414905693586197 -97.871092744860107 139 136 117
115.536688759390955 -3.382136875219764 -98.375430948615616 138 135 116
107.537886387105587 -4.521217976365310 -103.849252510634699 143 140 121
106.857370347291706 -1.076882891212567 -104.667739090323039 145 142 123
101.440282131783533 -3.092660187788778 -108.263570803441638 145 142 123
100.319063661395589 -3.030121764011261 -109.058134088881559 145 142 125
99.393386064284996 -2.877118220980485 -109.725456890916604 144 141 126
92.948431491355819 -4.882530561048048 -114.049115287705462 142 139 122
89.577863694080051 -5.987491782494797 -116.305334258107592 145 142 123
85.717226004384415 -7.359756623452589 -118.878648405959993 142 139 120
86.746626840929011 -6.266421486514601 -118.273775636276341 140 137 118
91.104310486464513 -3.463360822886153 -115.509538930457722 142 139 120
219.666983039989248 -3.280975294193879 -27.910157971935917 120 118 105
213.302241058910880 -4.346257047418044 -32.171008149211389 121 119 106
212.560876658625716 -3.666442847272877 -32.710210709734667 122 120 107
210.074191421657360 -3.548447195741187 -34.404134612462087 123 121 108
204.227630806144589 -3.638430352545178 -38.368625792645645 128 126 113
202.225728488878474 -3.405753665026995 -39.741354227373648 130 128 113
198.477429564715123 -3.762383325409008 -42.268006413796115 130 128 113
197.639823039797307 -3.168365077505931 -42.871142815869433 129 127 112
194.667487360071789 -3.297748390409352 -44.884481240101138 128 126 111
191.403769966968639 -3.542838248889865 -47.089809280587730 132 130 115
187.593778930165627 -3.149891308118772 -49.705522825217372 133 130 113
188.892964486017377 -1.853746341553761 -48.899225109203485 132 129 112
187.862430517233292 -1.367747572294319 -49.630671554513981 131 128 111
180.907867631642944 -2.983966093520658 -54.268835673410734 129 126 107
182.693917843155560 -1.521322899216695 -53.142871765129939 128 125 106
179.137988276048702 -1.969371606640341 -55.538894000564113 130 127 109
173.773943051229367 -2.287200339165853 -59.177579136157988 129 126 109
172.743763006725061 -1.860493987265590 -59.908584570992929 131 128 113
172.880216630060772 -1.006465133030601 -59.871795579776261 127 124 109
163.180107404356477 -2.276769662837653 -66.414968069687404 131 128 111
160.594313267131952 -2.489006622083200 -68.168938249012342 131 128 109
156.743793478583456 -3.203330937416440 -70.753865278443442 132 129 110
154.586953928355911 -2.528475244194011 -72.278741612481468 135 132 113
150.387077620582716 -2.688271985505488 -75.145681251181429 134 131 112
145.505241553232622 -3.169852039726478 -78.459073595615763 133 130 111
142.820532437943143 -3.530156959957025 -80.275057935501621 135 132 113
142.959929555501901 -2.751933455355751 -80.238896799286692 136 133 114
141.249147547768246 -2.733741553020747 -81.416111737814930 135 132 113
139.440933161613771 -2.765457596353973 -82.657060517841046 136 133 114
140.945793512522698 -1.425144869078193 -81.727893789896285 134 131 114
135.239596953608327 -3.104909708037013 -85.521452462295684 135 132 115
132.163897287771789 -3.704731325346744 -87.591358336999320 139 136 119
130.355138305000366 -3.782470557907180 -88.831572844063800 137 134 117
129.521462014016720 -3.452266780777957 -89.433873881702766 139 136 119
129.858478460801450 -2.621218305237044 -89.271079139329089 141 138 121
121.318984159619220 -5.645022083334386 -94.910270678265391 142 139 122
121.753343134164027 -4.792486573948518 -94.683406559422934 142 139 122
117.016201831215170 -6.214263560629735 -97.834624693993504 139 136 119
116.670217130978756 -5.716841199708529 -98.117662557263117 139 136 119
110.745881314331527 -5.174327366974807 -102.273174726908451 137 134 115
106.830141394859609 -4.470768872096604 -105.063213419151310 141 138 119
98.122509194315128 -7.358781508611930 -110.845083899638013 141 138 119
103.849465226197125 -2.784116526604015 -107.312972919235193 141 138 119
99.787638643529689 -4.143663018263041 -110.011887676507115 143 140 121
100.622434261667351 -3.127662856423706 -109.534838159480955 144 141 124
97.296970776768205 -3.556053929635690 -111.819599154734846 145 142 125
92.447944107123263 -5.373278211274842 -115.024080060646753 142 139 122
87.302924557804218 -7.367041376657022 -118.417718438846819 142 139 120
87.256295849951826 -6.817948608886513 -118.511922397459685 142 139 120
220.271768206342728 -3.348789134459330 -28.531363735326181 120 118 106
217.001232990080467 -3.440678430387259 -30.735007122934746 121 119 107
213.730484188384565 -3.551032039122831 -32.938358269556488 122 120 108
214.057644146430675 -2.532767841779684 -32.772775322229108 121 119 107
211.564905862112937 -2.419429537460707 -34.463755527438224 124 122 110
209.169378373613540 -2.288515295476937 -36.090563077191320 128 126 112
203.952692587483966 -3.094516818196277 -39.573001685541101 130 128 113
202.335078898955771 -2.741609228445235 -40.687374540419853 130 128 113
202.371741095538482 -1.846728288916839 -40.714125068657694 127 125 110
198.419034144893885 -2.291427873030311 -43.363800377737022 128 126 111
194.271233985695062 -2.824517851613149 -46.140951687674828 131 129 114
189.538901402858755 -3.580708482293752 -49.301321512188508 131 128 113
190.744288592909641 -2.318340151874118 -48.560662184526052 131 128 111
191.268962291711773 -1.285256573264750 -48.268003907250943 132 129 112
181.976946800064809 -1.206657428577354 -54.576856444177594 129 126 108
173.131038174776563 -1.973745480141855 -60.536125469093633 129 126 111
170.774212480735400 -1.247326657590272 -62.187577652460590 126 123 108
162.275039316732261 -2.873391729213363 -67.860446311883408 131 128 111
160.739769838478338 -1.149000991560626 -69.028329719720347 134 131 112
156.391040669168802 -2.076894082871310 -71.927011143017722 134 131 112
153.840091991255264 -1.572603298604024 -73.705026850653326 132 129 110
143.423487657657063 -3.535352328961515 -80.674315052232572 135 132 113
141.024456853375568 -3.791574132956726 -82.295461641922230 136 133 114
141.751075678748009 -2.778539752258963 -81.877489074681563 135 132 113
129.666566434707249 -5.689578137824498 -89.923697109139908 134 131 114
135.815413046048917 -1.710259085658235 -86.032994516496274 137 134 115
127.390952553318755 -2.576619309093140 -91.749425485407869 140 137 118
116.378526580426410 -6.734943247728300 -98.965368926163819 141 138 121
114.074153046946677 -7.106325973964145 -100.519754935602094 141 138 121
112.589869332588833 -3.935498707884411 -101.837777540857218 137 134 115
106.706454065432624 -5.394686328043577 -105.770543672651087 142 139 120
107.049270589008998 -4.611221141485179 -105.610033868436290 141 138 119
111.269723879480054 -1.361098209458574 -103.006466237495545 141 138 119
105.825357064862686 -3.320785225463822 -106.589825327738708 139 136 117
106.563647997223143 -2.344375944479882 -106.177059655922221 141 138 119
102.000642415053761 -3.923116486315033 -109.188250247860481 141 138 119
99.989703248656326 -4.288273966543390 -110.550501677525176 141 138 119
96.117392791915606 -4.383096388455070 -113.242239855105765 145 142 125
87.420223885626442 -8.113771807004724 -118.909583103445698 143 140 123
86.094836396380430 -8.205755865017204 -119.826599822407161 143 140 121
93.732387423196442 -2.611076899180998 -115.112691641466739 141 138 119
219.964251783561110 -4.627294340932762 -29.701395255435102 120 118 108
218.439636074025117 -4.170247511833987 -30.750471097278478 119 117 105
219.937437987884977 -2.777665775355965 -29.818465668413239 122 120 107
217.340955551642821 -2.666721471322202 -31.570649269219757 121 119 107
214.744402136489526 -2.570321861278517 -33.322649198116636 121 119 107
212.147771995648952 -2.488470044130631 -35.074462673967275 124 122 110
210.623954804921624 -2.073885217064547 -36.123483441753564 127 125 112
208.807657431710510 -1.763229382948485 -37.364089554205350 129 127 113
206.210980723771911 -1.719698367453207 -39.115486297253767 128 126 111
192.759854692891537 -3.589216682291899 -48.070654823447740 130 128 113
192.895027817757807 -2.689010890393851 -48.033728568569160 131 128 113
193.909333000882469 -1.485704276176092 -47.422766081693567 132 129 112
190.238109427537779 -1.899686806241640 -49.874841604935710 131 128 111
188.909935487894671 -1.515886430229239 -50.795422783771443 124 121 104
185.179781220266818 -1.151403953239533 -53.338178081171378 127 124 106
175.822982440370481 -2.049991303284941 -59.605979843571362 129 126 109
172.833704415142392 -2.337059187814402 -61.609589981278504 129 126 111
169.159950189609134 -2.893679515107205 -64.058986606686176 130 127 112
170.373341495303833 -1.652316011413731 -63.321940207278459 127 124 109
166.699266943986686 -2.236501660657708 -65.770899846222619 131 128 111
164.882521965428737 -2.139598841712148 -67.009091558645281 131 128 111
157.756113800451544 -1.038885507728213 -71.925588884136118 132 129 110
153.297092790437034 -2.040731238873832 -74.881604722137070 130 127 108
143.831615080883807 -3.618911919561653 -81.201278346479228 136 133 114
143.972830429359760 -2.840515440534491 -81.165988826215369 133 130 111
136.223211356943295 -4.591592390909827 -86.309283704364532 134 131 112
136.070958373137643 -3.954666960751920 -86.464720362048865 136 133 114
132.488867135074372 -4.751999649028165 -88.844631588292089 133 130 111
134.101594062626759 -3.383140167679650 -87.856502822037783 135 132 113
136.303813029818684 -1.754830755393904 -86.487902365890221 137 134 115
132.721594422027010 -2.581430859547317 -88.867451394677687 139 136 117
126.189670665885060 -3.348278824279856 -93.273112082560033 138 135 116
124.371755227665773 -3.470801762926007 -94.508485191539847 139 136 117
110.524559821924299 -8.279829017216580 -103.576494298977565 139 136 117
111.594798238728700 -5.270289120820677 -103.121741430838881 135 132 113
109.480740182369033 -5.604924192429801 -104.545834204413069 136 133 114
110.807263471930682 -4.364081718420744 -103.752045510162645 138 135 116
107.808396423661520 -5.123243021491774 -105.746208797398907 141 138 119
110.316730981407744 -3.326628172173286 -104.193208788147388 142 139 120
110.859335142899269 -2.439049359432144 -103.907630629112020 143 140 121
105.746594165928315 -3.602688586860709 -107.325255848393482 141 138 119
107.176609384103259 -2.297467669013043 -106.470781132793945 141 138 119
104.767564537542967 -2.832829873632063 -108.084263706610983 141 138 119
103.844521616233820 -1.428500808514343 -108.876586335649847 144 141 122
91.380538087128940 -6.961056661544592 -116.935988346473493 145 142 124
90.939902523548696 -6.598488797491293 -117.283216320994512 144 141 123
87.692382226269203 -7.068021445210615 -119.493982694224158 143 140 121
91.594446372052516 -4.525122892662853 -117.063395626755835 143 140 121
221.615729113442342 -2.509649740679400 -29.737242134500235 124 122 109
212.926350497771580 -2.494316441579190 -35.557730665653537 125 123 110
208.464734858581494 -3.026943531573403 -38.517335145139043 126 124 111
203.806957613916666 -3.648533723774134 -41.603898612889935 126 124 111
208.539983641839655 -1.210891845486357 -38.572027437429455 125 123 108
205.251890524055796 -1.404303308650995 -40.766226166465799 126 124 109
201.082864601239976 -1.910568335889665 -43.533499266544851 127 126 108
195.934701706137332 -2.770296853353880 -46.937307067217631 128 127 109
196.560437393617860 -1.696379265518111 -46.582557938964499 129 126 109
192.292456262587621 -2.295999786308734 -49.412389136551440 131 128 111
189.688224367143476 -2.344627111945984 -51.159222871692577 129 126 109
187.965073818055714 -2.100790440731596 -52.332843417393065 124 121 104
186.731643304585759 -1.694453564628645 -53.188122621152957 126 123 106
185.890189670127256 -1.156049879784228 -53.788846110572933 126 123 106
174.705384779787323 -3.511788380839826 -61.162596755378502 130 127 110
172.393835136970552 -3.547133822457827 -62.717008739288787 128 125 108
171.258122815755428 -3.165573585777107 -63.507922067956798 128 125 108
170.220645524157931 -2.754013610500841 -64.235280615531764 130 127 110
170.653790501409134 -1.802150669237076 -64.008858151699428 127 124 107
168.440572819695802 -1.837458510676244 -65.499453310864880 131 128 111
164.462282261773908 -2.550399171168458 -68.134128369764198 130 127 110
154.024546611819858 -2.005667423187123 -75.229977066253014 133 130 111
148.178442373250817 -3.578575157809828 -79.068563203044789 131 128 109
149.792725365679985 -2.201998087252001 -78.081258293916505 134 131 112
142.712155935957071 -3.600709288967707 -82.772239111040989 136 133 114
140.693513784805219 -3.708573565875953 -84.133453907397524 136 133 114
138.478250868648587 -3.908538237038589 -85.621375737950956 134 131 112
140.095247845163954 -2.533824953782143 -84.635350004607773 137 134 115
131.831234554527754 -4.583172216490339 -90.083784630395797 133 130 111
124.010694721599052 -7.202235475680496 -95.184216640696405 138 135 116
127.792146570946898 -4.927873044747099 -92.804023771757443 139 136 117
123.313321536668056 -6.170903778623627 -95.748082794038794 141 138 119
128.668163287267248 -1.838199689282914 -92.478898531634172 141 138 119
113.996764423833511 -6.975519875947221 -102.036103325335660 140 137 118
109.907316473174632 -8.159957532597243 -104.723606598044455 138 135 116
109.067355568882078 -7.909660054804994 -105.322078582537728 136 133 114
109.851891035767466 -6.302484258987302 -104.937928934132032 134 131 112
109.998964688719980 -5.607043836356968 -104.904588098287121 134 131 112
111.238806044387502 -1.872825953289229 -104.427573284393702 142 139 120
110.008598502343190 -1.822140248674875 -105.280733450464282 141 138 119
104.039395837894830 -4.041794852812139 -109.164631316756271 141 138 119
102.610713825273919 -4.113681420974252 -110.143298048278865 140 137 118
103.365005662563007 -1.910251171333633 -109.861676382686937 144 141 122
95.862566771325433 -4.395437766984154 -114.783088198124062 144 141 122
89.058463967417026 -5.466684140542367 -119.387982691529402 144 141 122
220.457311043006314 -3.124320200701882 -31.504768371829442 124 122 109
217.357261927884110 -3.170015139688489 -33.568729457727017 122 120 107
212.982385462290608 -3.636396229939620 -36.459652678978216 121 119 106
208.312831868789573 -4.221366438957824 -39.540959329694999 125 123 110
202.367761187470990 -5.243343991680454 -43.448730145550286 124 122 109
202.148282678620347 -3.562543841951896 -43.693610354289575 126 124 109
206.993736695209464 -1.084641069974868 -40.605079883919672 127 125 110
202.421403633749946 -1.719008648217009 -43.621529147063995 127 126 108
198.142856822472936 -2.280242710240050 -46.446700890540797 127 126 108
197.200693816381460 -1.734179434625368 -47.110183090710450 128 125 108
193.804881817659520 -2.032124913903635 -49.362632340114629 130 127 110
190.899578790607478 -2.179961522671887 -51.296990121651675 129 126 109
186.168457949935942 -2.146002504761405 -54.466073046733555 126 123 106
185.816085469819313 -1.437573664506419 -54.748227013696265 125 122 105
179.963586073837973 -2.689461408828272 -58.587058149129490 126 123 106
181.870853750996503 -1.189018403959658 -57.408614468433626 126 123 106
170.260794885841847 -3.778937820838312 -65.019950067209493 128 125 108
172.955427746809789 -1.999618332029752 -63.334178727966957 128 125 108
172.211058387946139 -1.478183955842888 -63.870313443515244 129 126 109
167.141340241023670 -2.574728078478833 -67.198352395920864 130 127 110
162.407748899842318 -2.805483913385142 -70.363528599065631 127 124 107
156.197893735582909 -3.656652522840543 -74.478962302908798 132 129 110
150.521509125904117 -3.633570384523637 -78.304311169009566 133 130 111
148.399602387606279 -3.737820520832988 -79.727020627922116 132 129 110
151.003434630693874 -1.969134318061776 -78.108560015489729 134 131 112
144.495315310049818 -3.125598882453900 -82.410739259412168 138 135 116
141.191181786545940 -3.751636760231500 -84.592811072315470 139 136 117
125.647380398727464 -6.748503756735597 -94.863283097859238 139 136 117
123.864546576469664 -6.173925226705485 -96.122614747276089 140 137 118
120.556396515138474 -6.933777248747482 -98.301387646040979 140 137 118
114.820696645504100 -6.847327697102216 -102.209871452633649 143 140 123
118.917472453935190 -4.385809128867575 -99.649878322259070 141 138 121
118.671559891499044 -2.540691313541110 -99.994662859569985 141 138 121
105.624576497872596 -7.226119693169938 -108.449032951729720 141 138 119
106.168534643761546 -6.359350810815378 -108.163888327121526 139 136 117
107.603677014715132 -5.074684742728932 -107.311654842442380 140 137 118
111.620416032860859 -1.304975256538080 -104.948556022076559 140 137 118
101.628109838231239 -4.825152860271389 -111.439642294752559 141 138 119
101.605279642974523 -1.797455392675128 -111.792462673377116 144 141 122
96.305841961717192 -3.821539744072246 -115.222774720279659 144 141 122
86.792172046156765 -7.415493750330528 -121.387785106058871 145 142 123
219.879220592725403 -3.555829161314941 -32.886653417247317 123 121 108
218.147317360348325 -3.174876240599460 -34.057498115701293 124 122 109
209.177450450076776 -4.195065457988218 -39.954860624527953 124 122 109
205.495770661015058 -1.834692234694997 -42.541350652418430 128 126 111
203.567633786953138 -1.592125039280846 -43.838611145374472 129 128 110
193.964162283903363 -3.934614556647525 -50.084401597099287 127 126 108
194.593931492479953 -2.869841048773028 -49.731487966904126 127 124 107
192.271564194216154 -2.808130185901605 -51.281723870827363 128 125 108
187.568800154539872 -1.908724666751059 -54.473281067906612 125 122 105
179.911869802077888 -2.144502445339903 -59.565656762647365 126 123 106
175.224529587861070 -3.021986196956990 -62.635443366140947 126 123 106
174.576489734515008 -2.456538497768656 -63.107255953262523 127 124 107
168.550244161823343 -3.083158508071755 -67.091121478044329 133 130 113
169.677142230604090 -1.880565833739550 -66.423156807868111 128 125 108
156.197609864378592 -4.652445618125821 -75.244588495767687 130 127 108
160.580947416086417 -2.221696623601138 -72.488792139684335 132 129 110
148.915813241700732 -3.779489223136916 -80.195262984053755 132 129 110
145.397297771302789 -3.008134109507706 -82.621735931214687 137 134 115
145.146827690882901 -2.388857862870073 -82.840863079547148 137 134 115
142.822048003198034 -2.619615394710319 -84.386934380530050 135 132 113
143.856925975515196 -1.478699121679611 -83.785171630362498 136 133 114
129.960886333026536 -5.170543477050810 -92.841313547167459 138 135 116
120.407350750139969 -7.233560840112747 -99.113869919211339 140 137 118
126.193605354323694 -4.080152018704344 -95.484638583979830 139 136 117
109.105491467666923 -7.112203175577705 -106.789696794029510 142 139 122
111.236773239597881 -5.518741791409349 -105.497660403482286 140 137 118
111.188346352418620 -4.911000554474496 -105.591607817424489 139 136 117
108.462818795462383 -5.537091251033989 -107.385328888215781 141 138 119
105.538283166892725 -6.270799617636630 -109.304455186790562 143 140 121
110.650169998359701 -3.270293790615473 -106.127046907740834 143 140 121
106.634409980164378 -4.526163537259143 -108.738208063451964 142 139 120
106.895436393889668 -2.543672672180613 -108.772630094526164 140 137 118
101.784723213888952 -4.381996215554937 -112.073421655410698 141 138 119
102.150463136464921 -2.381836718198350 -112.047261257378722 146 143 124
97.291596242613096 -3.571940197035236 -115.253489903221180 144 141 122
95.856390285840277 -3.691723509634392 -116.228542576971961 144 141 122
92.928047253939354 -4.568254714287157 -118.144377279623612 145 142 123
222.176629177745440 -4.949283123768788 -32.308499014009556 121 118 109
221.524091173012437 -4.222601499768445 -32.779819362711009 124 122 109
217.361470681491426 -3.671255439325448 -35.561043321389207 121 119 106
215.033758564260609 -3.490385972204091 -37.109948841612862 122 120 107
203.771372330423532 -5.284758440987449 -44.452363260192328 123 121 108
210.910531205006066 -2.100334548748998 -39.918651555369877 123 121 108
208.681698568908445 -1.930629086806869 -41.403886878803092 123 121 106
203.690729013895691 -2.681840226431419 -44.662294688604760 126 124 109
196.331192826334188 -4.246758634982293 -49.439825680562933 128 127 109
192.562136992107781 -3.805699130074349 -51.964758847662921 128 125 108
193.786706061584596 -2.542906026832111 -51.233280437767917 129 126 109
190.866236383041780 -2.694920578773133 -53.160339539550847 128 125 108
184.021511634428578 -1.751124159471084 -57.766542481587322 125 122 105
176.189819179702795 -1.318475076661576 -63.003910808953464 128 125 108
174.256597939665767 -1.228174401957141 -64.297171602864978 132 129 112
167.479352321027648 -2.947317327161776 -68.686527587122555 129 126 109
167.918305828679081 -2.004424771506648 -68.462791567638305 127 124 107
164.842226222587556 -1.612156019061710 -70.542727764785553 129 126 107
159.545325090615677 -2.867103894918044 -73.982170396295430 130 127 108
158.303721708472267 -2.588377852325230 -74.832226165280730 129 126 107
159.635128406184549 -1.317109167471880 -74.041086869023673 133 130 111
153.491155309087759 -2.221193775215343 -78.076634752099068 134 131 112
147.101771205906175 -4.015590286946427 -82.207332193220907 131 128 109
146.751198868087670 -3.432051341857506 -82.489061787658414 135 132 113
150.164718315832886 -1.334797400898291 -80.374463791982379 135 132 113
147.339318501430228 -1.747225870593131 -82.233464534701113 137 134 115
144.612586335055482 -2.135114327021583 -84.029061259795867 136 133 114
144.858393146953404 -1.316077701502798 -83.933367381646804 136 133 114
133.852485283080711 -4.465330350596073 -91.051957056192236 133 130 111
136.129963212669281 -2.125889305393941 -89.726680264828474 137 134 115
125.366944851083346 -6.008973410169991 -96.621337094132315 138 135 116
121.346831456277030 -7.065452589503078 -99.232468036669388 139 136 117
114.442691876081469 -8.118210774112352 -103.789695587412865 142 139 120
112.353429645052771 -6.510850547975261 -105.356499416927306 143 140 124
118.571796020562275 -1.775086003373896 -101.617700199547528 139 136 117
108.580247543462406 -5.719450199759882 -107.993923711080811 140 137 118
106.098045147149904 -5.631151563773313 -109.689686503112597 142 139 120
104.113987732247324 -5.334950471966963 -111.071605766569405 140 137 118
104.122941058506100 -4.108924615439218 -111.199367992126412 138 135 116
98.598810759510755 -6.149192705302684 -114.743739043375882 142 139 120
95.530666120655098 -5.270603120289550 -116.943336131206649 143 140 121
96.784790270986136 -4.061334922422964 -116.225445811946344 144 141 122
216.766020767974680 -4.105706434347818 -36.934593375260192 122 120 108
213.324452676741828 -2.475142914741625 -39.295863063691684 123 121 108
210.595510072899771 -2.454170354836254 -41.094610934914101 123 121 107
207.965338869797392 -2.416155073600298 -42.829927250062042 123 120 105
204.031858842678162 -1.068582765391413 -45.507249408399389 127 124 107
195.464280626738400 -3.076044206961126 -51.032608536095211 127 124 107
190.696863042870717 -3.002417340114216 -54.184735544743376 130 127 110
190.540472189378249 -2.216829229969423 -54.339722919399804 130 127 110
177.439298582848210 -3.525762897677741 -62.913783440650548 126 123 106
174.608860751055971 -3.738716875362659 -64.772427304272554 127 124 107
178.912282077072689 -1.385145818014294 -62.088463753390670 128 125 108
173.351319295990038 -1.812482419962232 -65.742675870453581 131 128 110
172.305233283117047 -1.406769586641661 -66.465855847709122 130 127 109
166.797783632934056 -2.671962539881755 -70.026185101919452 130 127 110
160.440775869599065 -3.529878277395810 -74.182010940103680 129 126 107
161.874233825768442 -2.224679003733798 -73.329182995765422 129 126 107
159.836322659507857 -2.246110403600964 -74.682069258366141 128 125 106
155.211063279890766 -1.792617834687386 -77.795255528229262 134 131 112
146.964325403050651 -3.591316537162555 -83.143675819387198 132 129 110
149.692661675109491 -1.773505994853646 -81.474424284234885 135 133 114
148.449145359734473 -1.546297314494363 -82.323034618429659 135 133 114
115.317255598006895 -7.331248696724693 -103.994466700385885 142 139 123
108.343062467747927 -7.920292208982443 -108.633813005895661 144 141 125
108.094595346323388 -7.414270134190245 -108.852732580861101 140 137 118
103.267424135764074 -6.574810948258128 -112.205874525940743 139 136 117
102.522306124636216 -6.318697992762093 -112.738920002142777 141 138 119
103.974613206491355 -5.026737417464306 -111.894973142350352 139 136 117
94.347935134181199 -7.835219639815219 -118.124864953879452 144 141 122
97.802020536657338 -5.578013076813058 -116.031320044590245 144 141 122
97.558671001165081 -5.103198416768722 -116.252366621526818 144 141 122
96.315642144579158 -5.119648676903507 -117.098702050457092 143 140 121
93.771914115762144 -5.784571670675206 -118.757277902169832 144 141 122
91.185280702185921 -5.908835384359769 -120.511752127375360 145 142 123
220.744717155744212 -4.955015098831257 -35.281761411144601 118 118 106
220.486145103815858 -4.115917107151176 -35.499275339729337 118 118 106
217.492287176286425 -3.217357400112102 -37.512898728282238 123 119 108
215.747788206458296 -2.858559895787335 -38.677489612283409 123 119 108
214.796618510513383 -2.256279653379651 -39.337241712379637 124 122 109
208.887592767254205 -3.254186272850305 -43.151645192338549 124 122 108
204.366083771644185 -3.834687010560282 -46.082104107904456 123 120 105
190.978539034803134 -3.992396783345457 -54.863592442649605 129 126 109
191.615702276325976 -2.936674510901196 -54.514122923558062 130 127 110
190.069666563124713 -2.628552327322392 -55.551418552879937 131 128 109
187.375206028550963 -1.898456944397936 -57.373961885295728 125 122 105
179.970117976163863 -3.680599520948309 -62.127465023774846 126 123 106
179.615754166585816 -2.997919660149659 -62.408401298368148 128 125 108
176.082869059970278 -3.455721615494227 -64.704488644710665 124 121 104
176.325139267797681 -2.569961216759543 -64.607789688613593 129 126 109
177.760575823460044 -1.248331389750304 -63.756077427430341 130 127 108
171.588674311851008 -1.921610803671061 -67.780640246540202 129 126 107
162.531504658617990 -3.745827924940403 -73.627961159259229 127 124 105
156.739197922526557 -1.441034450049356 -77.643057848293665 133 132 114
149.917390008779194 -3.388068880316055 -82.008749581573284 135 134 116
144.985709002074543 -4.621470924549554 -85.179698511527960 134 133 115
141.490293358695880 -3.189980185348997 -87.624017444373010 137 134 115
135.755935707619756 -3.464869281128072 -91.418565038583893 137 134 115
136.005160581927214 -2.668849825051030 -91.324269422487447 136 133 114
118.694011482849433 -5.439813765491577 -102.636174738213782 145 142 123
110.454713411383153 -7.201556388524839 -107.988534614251904 142 139 120
109.319680699069607 -4.606624527854112 -109.024274181357953 140 137 118
102.776945832875157 -5.826987131439324 -113.309235732324225 142 139 120
90.663709836378302 -10.404652762475136 -120.991968900633950 144 141 122
95.054930938483835 -5.384821838431746 -118.599171383743325 143 140 121
95.314614881864813 -4.670457903520313 -118.509038829141403 143 140 121
94.470768949777181 -4.503680863424034 -119.104792511832088 143 140 121
220.585343974792750 -4.331996689923940 -36.431378603248646 119 119 107
215.496856759061188 -4.089404270989035 -39.764222902617803 123 119 108
213.648366952192617 -3.769675467403403 -40.989521657786895 123 119 108
213.887834830626559 -2.795752973984362 -40.892389573642987 122 120 107
213.133579206449895 -2.139170649329482 -41.425185879478903 124 121 107
204.324422030933079 -4.094313534610299 -47.057230771999826 123 120 105
205.559077161271432 -2.818731445816584 -46.330709142501775 124 121 106
199.019843537221163 -2.379877108040787 -50.634424829205074 130 127 112
192.594070339293069 -3.691611023807937 -54.752682140700614 128 125 108
188.840328701323472 -2.467584555718027 -57.293001039078064 125 122 103
186.295082998945503 -2.524633906042412 -58.957107989742866 123 120 103
179.865752476451632 -3.962064459154936 -63.072369630726939 125 122 105
179.510847655184989 -3.281343219611779 -63.353026926110374 125 122 105
179.654519670527606 -2.424126925754122 -63.319723998804562 128 125 108
177.208363320568935 -2.498710491317229 -64.920195582610489 128 125 108
172.061880337497541 -1.995093010743060 -68.338840652684752 126 123 104
169.316291733785533 -2.228563638451827 -70.127006023075694 129 126 107
167.268414164277829 -2.216033061916062 -71.475473980209102 132 129 110
159.822351074297501 -1.236764807313683 -76.459517159893892 132 129 110
157.475032544770045 -1.400821258587178 -77.995492543926048 133 130 113
153.578613038237904 -1.450892874387701 -80.565298792333067 136 133 116
146.936169087843922 -3.368207549101669 -84.795385781405656 134 131 114
144.185897717898911 -2.332063888419021 -86.705238595072274 137 134 115
142.536755780615920 -2.297370744054111 -87.801252902672871 137 134 115
123.848615665144976 -2.091203666131489 -100.258797699968710 141 138 119
118.198891862530004 -2.673675264534683 -103.979808851046613 139 136 117
99.014544304695903 -7.238256293381553 -116.372579771732603 140 137 118
96.055763269576744 -8.055469275542574 -118.274463630240447 144 141 122
95.709691635024981 -7.636313252080496 -118.556654269702463 144 141 122
98.682351605577153 -5.617613429701404 -116.784636438874770 145 142 123
95.019218045428829 -6.801778334050858 -119.121795437694473 144 141 122
214.285000254800991 -4.712663058260468 -41.506095972410407 123 119 108
211.036209182687173 -4.837429149720459 -43.608944381754100 124 120 109
211.974295202538940 -3.651257745777456 -43.072201412019268 124 122 109
213.454030429014040 -1.390463200133158 -42.251348777354423 125 122 107
198.021888966186339 -3.815107385821346 -52.137693165445484 127 124 109
195.313536872727070 -3.020076451392985 -53.954259237959207 127 124 107
193.760058518849434 -2.701221830116391 -54.988104807865483 130 127 110
191.408184060070994 -2.664262014288981 -56.523969812379477 127 124 105
185.362425146137412 -3.915826312021097 -60.381208471181310 124 121 103
183.908429606238542 -3.602394662991249 -61.351731571998386 125 122 105
188.146738770365687 -1.299153896726895 -58.746959396004939 124 121 104
177.605072817293376 -4.200196926077711 -65.425042446172142 125 122 105
178.148879422044786 -3.207542260939909 -65.141121130404940 127 124 107
179.492733439709298 -1.924036707187954 -64.356062549585999 127 124 107
