ply
format ascii 1.0
element vertex 677
property double x
property double y
property double z
property uchar red
property uchar green
property uchar blue
end_header
74.505408267516131 -2.695623267586036 -99.927320654010003 137 134 115
74.014450789390395 -2.383605723967763 -100.360813342179512 139 136 117
71.875684381791771 -3.012293616861990 -102.102635546566603 140 137 118
71.818798209757006 -2.462761180778516 -102.191936895201138 139 136 117
70.547550736142171 -2.612291635685974 -103.245120543012519 139 136 117
69.276320940265464 -2.769685081219712 -104.298231710080671 138 135 116
216.436244789653301 -3.767996532231360 15.434228902261310 131 132 126
216.538059571544864 -2.713728775895087 15.485527836882113 136 137 131
206.812125116305708 -3.801433290082169 7.622523835522145 142 142 134
206.223388366560300 -3.000904815925799 7.119921042400847 141 141 131
204.080373622632976 -2.714465237397861 5.370711360767359 141 141 129
199.173746375085472 -3.357851447351170 1.405691274485037 143 143 131
197.030656502043826 -3.107025503998345 -0.343115876600024 148 146 133
194.110239499647548 -3.132296677689265 -2.714940351415521 146 144 131
191.189768289222883 -3.175926114804157 -5.086549922468208 146 144 131
189.046683306937894 -2.970291343552955 -6.834894237837943 147 145 132
185.607812626449686 -3.228232939933342 -9.621450566143238 147 145 132
184.328629367708913 -2.750694161883572 -10.677292500179362 149 147 134
183.222363562265457 -2.219949466236435 -11.594687456558745 147 147 135
178.660141594676304 -2.929442989715993 -15.280353832781202 148 146 133
175.480173899108081 -3.169983915201858 -17.858370920712503 146 144 131
173.423465243664054 -3.022525388429084 -19.536579652539558 145 143 130
171.971709464866507 -2.666299803429935 -20.730332516711997 144 141 126
169.137273730746813 -2.830072666509015 -23.031005583165268 141 139 126
167.339911535859443 -2.625116628275833 -24.501299968765665 140 138 125
166.579820585195250 -2.041508042739178 -25.141412403976631 139 137 122
164.091107880165794 -2.117770257508076 -27.164943433890016 140 138 123
159.700535260735421 -2.936536498922869 -30.709883701086369 139 138 120
158.421939349793888 -2.583685457353977 -31.764723146787048 140 139 121
158.008043280787973 -1.902800808173360 -32.128019798435076 140 138 123
155.605708303415554 -2.003261912008868 -34.081765660939396 139 137 122
152.252156749501410 -2.494394871937600 -36.795879126177510 135 133 118
149.157852198616581 -2.903422361396232 -39.302283967132837 141 139 124
149.263271896786875 -2.048101749327746 -39.250661749204681 140 138 123
148.504117011071514 -1.541559307760901 -39.890428714144065 140 137 122
146.361217382816477 -1.603613316478400 -41.636106247158892 139 136 120
142.920756129668234 -2.212034145324174 -44.418293992150211 141 135 119
140.345167139232785 -2.484121540316834 -46.509106862878667 140 133 117
137.336899662916636 -2.952831424516523 -48.945198319605851 140 133 115
135.366746021525444 -3.004170460887028 -50.551909465364787 139 134 117
134.002302266467154 -2.811345250364766 -51.674891255353231 136 133 116
132.378336646349425 -2.737702774933771 -53.005068521660576 137 134 117
130.235145459977730 -2.897334329220218 -54.749602159576511 136 133 116
127.745697829186184 -3.220300110082764 -56.770242159785425 134 131 114
125.775504544825893 -3.332411002422877 -58.376308785241207 137 134 117
124.151562589977900 -3.304719795472962 -59.706024373442091 139 136 117
123.739725428828095 -2.750771304406204 -60.068999381908384 139 136 117
122.375720351358353 -2.623597753420711 -61.191515248239369 138 135 116
119.106765972783904 -3.359971573693411 -63.832716439890703 136 133 114
116.357134151942205 -3.882167395790478 -66.059411095278762 137 134 115
113.888905661857379 -3.588884297876954 -68.096545618954735 138 135 118
112.438375048839958 -3.553588194567605 -69.287581109860668 138 135 118
112.720599309516714 -2.721895359156925 -69.098580606184669 139 136 119
110.577202421190279 -3.023347494477156 -70.841556006505385 141 138 121
107.827141943894219 -3.624080453054777 -73.067237171915565 139 136 118
106.116801870298815 -3.748887512540763 -74.464909339911117 139 136 117
106.053212527530448 -3.097908268640371 -74.552048157598648 140 137 118
106.943463710428745 -1.988493115724385 -73.880772190258028 139 136 117
105.580317857577668 -1.963691887505626 -75.002645336955737 137 134 115
105.517746436542495 -1.313737720747541 -75.090260573277220 137 134 115
103.201059279745621 -1.769241251761042 -76.970466544587310 138 135 116
101.231094714989879 -2.068156332293747 -78.574719719366527 137 134 115
98.480464509782237 -2.767203202586375 -80.799116334414691 138 135 116
95.816296301481557 -3.440349122685181 -82.954283798987603 139 136 117
93.672372812100562 -3.868501746505197 -84.695703083391919 141 138 119
92.916508457615379 -3.607222875455161 -85.334519606051572 141 138 119
91.813743126669806 -3.527268726946291 -86.248948963872664 141 138 119
94.356058920160663 -1.584919469363727 -84.270270039116554 140 137 118
90.389699404692536 -2.984429608272330 -87.457880087887645 139 136 117
86.249077791495395 -4.499577270617037 -90.782651201146592 139 136 117
88.011475063621191 -2.957121474819275 -89.424475589099217 139 136 117
87.169809048455306 -2.771819840969857 -90.132321704443029 139 136 117
85.112508822994087 -3.234503192916423 -91.803966934335023 139 136 117
83.489319204357216 -3.479115871471803 -93.131239476913208 140 137 118
82.561022902572830 -3.361872581068918 -93.907800286284328 138 135 116
79.373974122638145 -4.466649926953886 -96.473533788096347 137 134 115
76.707765660669764 -5.309469374283017 -98.625978667455627 136 133 114
78.299594098704347 -3.848654189906948 -97.407080911854877 137 134 115
80.153081675303426 -2.233777495378926 -95.982369169007455 140 137 118
78.704109987836219 -2.427626103986595 -97.171791742920874 139 136 117
74.125040452591307 -4.366593437023568 -100.836742708969098 137 134 115
76.936596768053960 -2.211660650445283 -98.656479101340324 134 131 112
73.487328266463962 -3.551257518680860 -101.426927126581091 137 134 115
71.777152074322942 -3.931330051861633 -102.822050119147605 142 139 120
73.894993820457572 -2.149319030010944 -101.192948247706482 142 139 120
73.577495002914688 -1.743383580062952 -101.488671938881510 140 137 118
71.606721393699644 -2.288229227071552 -103.090006582698834 139 136 117
69.374581541677017 -2.996358505323898 -104.897200406163989 139 136 117
222.382265448376756 -3.244777237000667 19.014102566719885 125 126 121
217.116123862183201 -3.848473348756609 14.777228817932610 129 130 124
213.668175897213530 -3.912708667131829 11.993021115379690 134 135 129
214.809798397987720 -2.538903053433575 12.873897056807436 137 137 129
209.196856852992340 -3.327281125662476 8.361396704093607 140 140 130
206.874633856219077 -3.083608733762411 6.476642090642571 141 141 131
203.859544169129492 -3.081362722548878 4.038966570545455 139 139 128
200.497937659737090 -3.212574524712230 1.325001719112294 144 144 132
198.955250498120961 -2.757717706597536 0.062875971042644 146 144 131
194.987174321134830 -3.129680784796365 -3.134489890833720 145 143 130
191.538703557091054 -3.349821202032786 -5.916842678598897 145 143 130
188.956456309511964 -3.294250262628481 -8.007843013769872 146 144 131
187.847049741760600 -2.744643026242034 -8.923929601834288 147 145 132
184.485039981305960 -2.989305970324799 -11.636533729744713 149 147 134
180.083119495628665 -3.621824592776248 -15.177962356930493 147 147 135
176.114221600837112 -4.127880331232883 -18.373554828710951 147 145 132
176.911401858331544 -2.947741079645413 -17.769340933274435 146 144 131
174.935677635694930 -2.766696440539554 -19.375779173971154 146 144 131
172.439966073802850 -2.787941655339537 -21.396528292370448 144 141 126
170.377602499156325 -2.665111181306270 -23.071778221315554 141 139 126
167.361761603366006 -2.909500822285308 -25.506555621078036 140 138 124
164.605876134382527 -3.075349601091150 -27.733926611760779 139 137 122
163.497084329540201 -2.635918869631043 -28.649173198180534 138 136 121
161.694842954774458 -2.467615976354634 -30.116756111617605 138 137 119
157.985137721002161 -3.043524133427738 -33.103049783194450 140 138 123
157.049969011806439 -2.567761559417757 -33.880013275507395 138 136 123
156.201684793693914 -2.063804343511899 -34.587973347231667 137 135 122
153.185489618899737 -2.418662249000762 -37.021444155792068 137 135 122
149.822237005969612 -2.930168928514856 -39.730706950718798 141 139 126
147.586364886233127 -3.011727070154987 -41.542564881574151 139 137 124
146.998582768043121 -2.442668875758708 -42.043241727289086 139 136 121
145.283272679974687 -2.335379271824684 -43.440925344948482 139 136 119
142.873954707634709 -2.523002417295462 -45.390433363915037 142 136 120
140.551333776614740 -2.689902835767589 -47.270771374795260 140 133 117
137.968343629918650 -2.979603508124343 -49.357862255425573 139 132 114
136.079472331390889 -2.994582353853365 -50.892973984185460 138 134 116
134.537748433102593 -2.874748554129919 -52.152111993900007 136 133 116
133.603635601112643 -2.505999286126203 -52.928479072531331 136 133 116
133.016889957484921 -1.994090173334141 -53.429063499917874 137 134 117
128.871256838961898 -3.022222987682032 -56.756450214692592 135 132 115
126.982421317532939 -3.094913549668124 -58.290985003406632 137 134 117
125.267224807953426 -3.103300112594004 -59.687532243729635 138 135 116
124.333531690126335 -2.777502364279009 -60.463657990608596 138 135 116
122.531608394688391 -2.843279951550842 -61.928983564127634 138 135 116
121.511315469207148 -2.570404106360691 -62.773994393050117 137 134 115
117.798629318759325 -3.517474205053386 -65.755041447986258 138 135 116
116.778368916351141 -3.265632430641897 -66.599851321578313 140 137 120
113.760165384928598 -3.933383197722736 -69.029140575803495 140 137 120
113.435049796062145 -3.380394322711058 -69.322734124462897 140 137 120
112.241307903756081 -3.231839331041416 -70.305205635031911 139 136 119
110.873872378795369 -3.171690454078855 -71.425390468401758 139 136 119
108.550501694026863 -3.569154264222909 -73.302996494843029 138 135 117
107.878450373448004 -3.199996688870257 -73.872160450412963 138 135 116
107.641257525290328 -2.627764152923607 -74.097155136602254 139 136 117
106.882751266532395 -2.306706845913114 -74.735323110784975 139 136 117
105.863602322678503 -2.116002863930969 -75.580035380329178 138 135 116
104.670679957720537 -2.015941818827088 -76.562399777419188 139 136 117
103.303923131567487 -2.008214815483192 -77.682369693292571 139 136 117
100.110679960489136 -2.907888281674941 -80.247251056883101 138 135 116
98.221886629678252 -3.181474484914093 -81.779738109687457 137 134 115
96.333017081923330 -3.466875006569747 -83.312067089852547 138 135 116
93.312932450594161 -4.331656887334525 -85.738428292097154 139 136 117
91.771836547572633 -4.468621947783724 -86.995223372922311 142 139 120
92.406544306304383 -3.509491915926088 -86.532726001903626 144 141 122
94.608594791847935 -1.744520922427184 -84.832875016259834 140 137 118
93.068251489330223 -1.890830792224794 -86.089933947769225 139 136 117
83.953086239366286 -5.968665870098288 -93.327477848022824 139 136 117
89.639230564873500 -2.393569836292778 -88.878682542493124 138 135 116
87.402085800913852 -2.934893274153346 -90.685199049554200 139 136 117
83.422668143653453 -4.409088604168931 -93.865793355860745 140 137 118
83.972531742082793 -3.505285324438361 -93.472996208241909 140 137 118
83.651687148110497 -3.062406112727387 -93.767499572140252 138 135 116
81.326929624009310 -3.697389241601674 -95.641997233731217 136 133 114
77.607442589156634 -5.100457212772045 -98.615096953704580 139 136 117
77.199599582264256 -4.727386502844330 -98.978120886010345 137 134 115
80.366449399881020 -2.402408307743396 -96.526143295099388 138 135 116
78.826239625881755 -2.645051368020117 -97.782274500271114 138 135 116
74.320917001575140 -4.537304506031270 -101.372127703485091 135 132 113
74.088457911578175 -4.081075714282706 -101.598192918538103 136 133 114
73.943597259920992 -3.576958945310079 -101.755798976316612 137 134 115
71.007115063277624 -4.644516309654338 -104.109209141911123 138 135 116
70.949846356684972 -4.100949843476601 -104.198266076599083 143 140 121
72.114928160697062 -2.861530692347847 -103.327229678059382 139 136 117
72.757096733853899 -1.913545483630012 -102.868186815824913 139 136 117
70.169461652186854 -2.820510434866665 -104.946701764177192 139 136 117
215.103249941660806 -4.765406221102861 11.980417165342629 128 129 124
214.424445954158728 -3.966139320903045 11.410056331133546 129 130 124
217.914548964463478 -1.848976956424149 14.152965395105952 133 133 125
212.459427371311079 -2.574613293837412 9.786036456037664 139 139 129
209.175437288979083 -2.632256936471833 7.145041782842696 138 138 128
206.499399127502357 -2.511897377417463 4.987384912662549 138 138 128
202.172876798871187 -2.952387489601736 1.518768304586615 142 142 130
199.757320448496500 -2.783919600951942 -0.431420719610514 146 144 131
196.559882149868884 -2.893208290419369 -3.002430976123236 146 144 131
192.667309188195304 -3.258208692719418 -6.125130102801990 146 144 131
190.338512134791557 -3.112333869576589 -8.005733030590477 146 144 131
186.271900813683658 -3.581230169479135 -11.265821119843594 146 144 131
182.813359964186390 -3.863626651100872 -14.042715580299785 146 144 131
180.918905942177332 -3.617557345784569 -15.577843653040190 145 143 130
179.545940087941233 -3.198222420173719 -16.699080078279394 145 143 130
177.564702885903216 -3.005141867848508 -18.303004820228495 145 143 130
176.191923811768675 -2.604649099594843 -19.424136648636875 144 142 129
173.080798206021996 -2.845903920417730 -21.924221322964087 143 141 128
171.012703149207169 -2.723350938788285 -23.596726474117077 140 138 123
168.075284637719477 -2.935822170462371 -25.958490541021433 138 136 121
165.833288771022296 -2.906736030306490 -27.768557809496741 138 136 121
165.156313508722093 -2.301788261734157 -28.337793275134686 140 138 123
163.349166213146788 -2.130442913714042 -29.803060530387597 139 137 122
160.063778128516674 -2.536752979631997 -32.439797405425281 131 129 114
157.039119337796450 -2.862872476360103 -34.869515068015744 140 137 122
156.101625323008420 -2.394969382861176 -35.645285240522639 139 136 119
154.468483538907549 -2.205940240528002 -36.972260394361456 139 136 120
150.747800409609056 -2.853261820242370 -39.952567184113320 140 137 120
147.983757857805301 -3.142225465057882 -42.174768571171597 138 135 118
146.524557183992215 -2.923768824049624 -43.363541698137823 138 135 118
144.804431258668046 -2.820075937870033 -44.758884412938727 139 136 119
142.388262792346211 -3.011322906404196 -46.705077877234658 138 134 117
140.320094918018469 -3.074406077628876 -48.375637346562144 137 133 117
139.035134366958772 -2.825537888168196 -49.426361622513213 139 133 116
137.054024983774298 -2.875497533277761 -51.027845777718596 135 132 114
135.769224557590405 -2.644595145119831 -52.078461725843283 135 132 114
134.745674208248488 -2.310783181852248 -52.922541460431432 134 131 113
133.635222700038355 -2.020370415655882 -53.835460133672427 138 135 117
131.131907036106526 -2.336432594592649 -55.849536776605333 136 133 115
128.367266092879333 -2.781446265425816 -58.069845593947093 138 135 118
127.082793962821157 -2.597113412027463 -59.120139234197268 137 134 115
125.101730225043653 -2.727200839413471 -60.720820430493148 137 134 115
123.120635749885096 -2.869617227139633 -62.321360013949061 136 133 114
121.313713511755878 -2.946607610055721 -63.784178691481003 136 133 114
121.423250649709516 -2.173323955041620 -63.733681795021113 137 134 115
119.877869075094765 -2.148271890042476 -64.990094348908769 138 135 118
115.892906224763379 -3.244879491712413 -68.171922554029180 139 136 119
113.737391617848147 -3.526740656567239 -69.909302539013737 139 136 119
112.627556391833693 -3.338713125407332 -70.821462136886481 138 135 118
111.779316662045900 -3.035737616978008 -71.527374685993323 138 135 118
110.756925591738508 -2.819490481596259 -72.370798861864955 139 136 118
108.514217979668189 -3.185131515026272 -74.176462508701775 139 136 117
108.625389433711959 -2.446893764367735 -74.126386718358333 140 137 118
106.993052959723514 -2.541219577599692 -75.450830414891584 140 137 118
104.227051467811066 -3.191239454865727 -77.668378118536765 140 137 118
102.943448336787554 -3.140443148257155 -78.717712926187346 142 139 120
101.659922254272900 -3.097498653289726 -79.767003770938800 140 137 118
99.853054177313282 -3.319301885244941 -81.228357727585802 140 137 118
98.133378828282090 -3.509253627557934 -82.620893364865339 140 137 118
97.198985151193753 -3.319448204189625 -83.395284129277769 140 137 118
95.217523464383675 -3.659220660367642 -84.993616554782506 139 136 117
89.919317864683990 -5.681490180576001 -89.200548900691473 140 137 118
92.738207566671690 -3.623973547876004 -87.022790806629985 142 139 120
94.510599532635084 -2.081807086375249 -85.669393643592315 139 136 117
90.521124742211100 -3.484594766298238 -88.845911686680893 139 136 117
89.500066692216848 -3.379888027426742 -89.688825433566763 140 137 118
89.701870438242850 -2.646085403259739 -89.571203283140647 138 135 116
87.458331440300441 -3.188897055226640 -91.374645491646561 139 136 117
85.564024366900625 -3.562067572850645 -92.903469717521062 140 137 118
84.630719677890824 -3.438545809468475 -93.677699159087183 138 135 116
85.008386047073245 -2.622801504747044 -93.423334781813423 137 134 115
80.841725179491547 -4.237923171411474 -96.734619722380785 137 134 115
79.384084749775639 -4.419966664073186 -97.920016715705231 139 136 117
81.510966601799453 -2.668391303244982 -96.294926310386131 138 135 116
78.829661388963828 -3.524028983783481 -98.440017011364091 138 135 116
77.984510637042277 -3.389635894485857 -99.145672013365328 136 133 114
75.565082502793516 -4.128660631363688 -101.084667511948737 136 133 114
75.244916289055396 -3.718200999123683 -101.379161699608119 137 134 115
74.050109529047475 -3.797497260457019 -102.358778393708832 135 132 113
71.105098849333316 -4.866400488996179 -104.708094708579210 135 132 113
71.748169611224441 -3.928549184469353 -104.249379136976074 143 140 121
72.917171575336482 -2.687595630450437 -103.380233923970792 140 137 118
72.423440776734395 -2.387987471630043 -103.812272129098915 141 138 119
70.528825071187896 -2.895480424397908 -105.339566058109540 141 138 119
224.031129868420777 -3.323432544133091 17.893524463833018 117 118 113
216.764784686521210 -2.508238135072828 12.049181553016240 130 130 122
215.039530887609374 -2.044098465147643 10.652581735544800 136 136 126
205.735903582540345 -4.034525917552122 3.261992931306139 137 137 127
206.710929633908108 -2.736279503024669 4.001628042038931 136 136 126
201.326705146384626 -3.522389070596569 -0.287736463089601 141 141 129
199.165706853154063 -3.272399902350929 -2.027967673994738 144 142 129
197.178993773626530 -2.977447102934752 -3.630321397138061 145 143 130
194.930930349778833 -2.783201010339641 -5.439186041430105 145 143 130
190.678712396670051 -3.286915320926690 -8.831839924706173 144 142 129
186.426273366632984 -3.817243365606878 -12.224114097002911 144 142 129
184.178015580482793 -3.677539515638796 -14.032324328332635 144 142 129
183.585683236629677 -2.971076573783901 -14.532238737778954 144 142 129
181.163223722239991 -2.915751942576896 -16.477960671586203 144 142 129
178.915076595580985 -2.813261991347998 -18.285840780682832 144 142 129
176.492592606903258 -2.787517315466179 -20.231246524734701 144 142 129
173.285506020334878 -3.061837735007829 -22.795942318865627 145 143 130
170.775742521375605 -3.100651359828226 -24.809788198267967 138 136 121
168.527500589049794 -3.058431656389750 -26.617002560720806 139 137 122
167.848727843316652 -2.445281939035048 -27.185462543224816 137 135 120
166.734165570928099 -2.000010009882615 -28.098008684132225 138 136 121
164.573287003091139 -1.958081146575388 -29.836155502015998 136 134 119
161.627503656136440 -2.229472841966837 -32.193311362373066 136 134 119
158.856038822048504 -2.452056080947142 -34.412645241891909 139 136 121
156.695047176942353 -2.454793328525674 -36.150278193279973 139 136 119
152.963889634653754 -3.085705005914332 -39.125742975128986 139 136 119
150.889991836377675 -3.085832418342453 -40.794209303731691 140 137 120
149.339554374922841 -2.890583819146786 -42.049955057111021 139 136 117
147.876442294704731 -2.669892224931688 -43.236879986156453 137 134 117
145.628094973265974 -2.775543397192460 -45.042521821611416 138 135 118
143.292441647909840 -2.930713578946623 -46.916745924931803 137 134 117
141.044001524560628 -3.064603859556526 -48.722052684942526 135 132 115
140.017427252755056 -2.707146783861686 -49.564929176409720 139 136 119
138.292711515692048 -2.646877196811842 -50.957629163175369 136 133 114
136.829914507749208 -2.487302721876576 -52.144075712505924 137 134 115
136.065614230942145 -2.041268697081563 -52.780758296453257 134 131 112
134.690345949447220 -1.860213895463074 -53.898440511365976 137 134 115
132.092719842417125 -2.212396607049393 -55.977886439722340 136 133 114
129.407635191934077 -2.618571231559430 -58.125795619711170 139 136 117
128.993082685338663 -2.052360255291475 -58.487597840144048 138 135 116
126.307896322029265 -2.484859983502334 -60.635187383548384 139 136 117
123.273140884750035 -3.088575397056268 -63.057217410809301 138 135 116
122.858926155828740 -2.544822236027685 -63.418950053349619 136 133 114
122.532350785526674 -1.964165173297348 -63.712130050129446 137 134 115
121.244921369941764 -1.819081707647421 -64.760604921455013 138 135 116
117.860328896853034 -2.635228572726136 -67.456522985960675 139 136 117
112.989681339908529 -4.152771246931698 -71.318898616353948 140 137 118
113.712240534338321 -3.122917503071654 -70.788298180819396 139 136 117
113.036699330673287 -2.737061725554076 -71.355964471266560 140 135 116
110.700338584598981 -3.131229528265363 -73.227390024365604 139 135 116
108.014100938296735 -3.704520308761079 -75.373027404561100 140 137 118
107.426258801716699 -3.300815631525951 -75.871973470865328 139 136 117
107.188468309363770 -2.733683288826199 -76.096629747268963 140 137 118
103.102632545047072 -4.014535508551836 -79.339163058612456 140 137 118
101.902834178294086 -3.926813957086607 -80.318110983405830 140 137 118
100.703130388340341 -3.846383203347652 -81.297029105572193 141 138 119
100.203475042018212 -3.430655623724249 -81.727428302910397 141 138 119
98.128990874341000 -3.793602258788176 -83.391879433878131 142 139 120
96.579476064090684 -3.909164149228446 -84.644867251923557 141 138 119
96.430398258840484 -3.335500884229316 -84.801171714899112 140 137 118
95.406292028539710 -3.201886394670256 -85.642924784774465 139 136 117
94.557419118160610 -2.985932363427623 -86.347638666676204 139 136 117
89.418194330910637 -4.956810498109332 -90.409438115827584 137 134 115
89.357262358775330 -4.361516149133081 -90.497275017920089 139 136 117
88.683617892131821 -4.081778754460181 -91.064756371032956 139 136 117
88.710979320636739 -3.442838388495672 -91.084422918805529 136 135 115
87.512217007652211 -3.442544022191071 -92.062966556233960 136 135 115
87.715498092955784 -2.714247662263472 -91.945994481110404 137 136 116
87.130539376931338 -2.400238679829421 -92.445396683079053 139 138 118
84.091669266374893 -3.392295829980911 -94.861460868167171 138 137 117
81.139979898434262 -4.356877671153230 -97.208655953929394 138 135 116
78.100145647021250 -5.387351246834862 -99.623863457769772 140 137 118
80.145765024334949 -3.688488557168196 -98.070213650009435 139 136 117
80.613808762495978 -2.833826673846958 -97.748627209533936 139 136 117
78.538654241127674 -3.366575452780495 -99.411009786825531 137 134 115
77.077393019900441 -3.574579683084424 -100.594407378987881 138 135 116
76.054828469325201 -3.548867089584241 -101.435787294738077 136 133 114
73.979251295664227 -4.115330477508950 -103.097620635214497 133 130 111
76.643285998934246 -2.041986639609932 -101.067661127779928 132 129 110
75.709293730512869 -1.976509684323141 -101.840964149343506 142 139 120
74.160805611088733 -2.264528897222768 -103.092667942905791 141 138 119
73.139169957534833 -2.262148947736525 -103.934252065180885 141 138 121
69.658204165181843 -3.674090904525276 -106.688791530830258 141 138 120
214.730267612675704 -3.442594948815258 9.262903264171342 129 129 121
206.535841219539975 -5.045964250002043 2.778857865660683 134 134 124
204.805471344206069 -4.621856369845591 1.385117628935490 135 135 125
204.210926285503035 -3.839663730178952 0.885482250865863 134 134 124
200.733376558478881 -4.006145447033235 -1.883511596642762 138 138 126
198.304207965987189 -3.847299306252729 -3.827089529385603 143 141 129
196.574076049145589 -3.469995417022021 -5.220461827647000 143 141 129
195.717870436014067 -2.808704773885049 -5.926251843150510 144 142 129
192.327531646194245 -3.015044640821698 -8.625697939201331 143 141 128
187.888326943601214 -3.602684238729286 -12.149751887159169 143 141 126
185.284281500794037 -3.581944591077590 -14.229965504467174 143 141 126
184.865351988834590 -2.813223142478503 -14.591758322561247 144 142 129
182.261369164096607 -2.817933368869348 -16.671739927800445 144 142 129
179.045426391355818 -3.056629454698361 -19.232565651986050 145 143 130
176.266475124653653 -3.158390193419338 -21.449561734494750 143 141 128
173.487453585070710 -3.277424896737973 -23.666346389102870 143 141 128
171.582702119172239 -3.094292930217382 -25.195900354338050 139 137 122
169.852871886523076 -2.858479001855043 -26.587960550037366 139 137 122
168.997569205593749 -2.308353685449265 -27.293038244658703 133 131 116
168.229904149825359 -1.730582060097851 -27.929467171186275 135 133 118
166.500391437763909 -1.520919169173448 -29.321410081880856 139 137 122
163.721358797004712 -1.721810318192872 -31.537346836207576 137 134 119
159.630158227662633 -2.444020930940387 -34.783064021913987 138 135 120
157.725616609221618 -2.344846016376843 -36.311854165341344 141 138 121
153.983921600132931 -2.974703918673185 -39.282288706228996 138 135 118
152.166782989184810 -2.870425764824025 -40.742085794133686 140 137 119
150.612174669589109 -2.673220629671770 -41.995856362882449 139 136 117
148.357597862904697 -2.765457120683675 -43.798656118001816 139 136 119
144.965318835416866 -3.330121024055400 -46.493485601689287 139 136 119
142.798085120484416 -3.418384114919085 -48.227252007799052 138 135 118
142.031249718696756 -2.946943629979559 -48.862983318102778 135 132 115
140.914476445825784 -2.624434078730226 -49.773208069131726 135 132 115
139.797844586101462 -2.308679910921240 -50.683430935169980 137 134 115
135.091817073553528 -3.502548837460968 -54.406174197175773 138 135 116
135.288511909233080 -2.657705517973251 -54.287250959210809 135 132 113
133.121315681253094 -2.815994131758324 -56.020314491064909 140 137 118
132.705535004967203 -2.237891375275261 -56.381651567395380 135 132 113
131.501788636013686 -2.002003526145157 -57.360235931602858 135 132 113
126.794567681766324 -3.295409237322065 -61.081383673063158 138 135 116
125.941122685779575 -2.931976466263633 -61.785428357637926 139 136 117
124.649828416748917 -2.766652214152735 -62.832262644905796 138 135 116
122.832939862157360 -2.842518372809087 -64.290325043009005 136 133 114
122.943782534270483 -2.067884033193657 -64.240466612891055 137 134 115
119.900204767393404 -2.712307482776768 -66.657857039648036 139 134 115
116.418147312400322 -3.574449074931719 -69.417533628981545 142 137 118
115.389972706241736 -3.338186711295113 -70.258397007925481 142 137 118
114.537266579759461 -3.027512440706844 -70.962252095389573 142 137 118
114.298440505763764 -2.437873156160024 -71.186644628343942 140 137 118
111.604880590095021 -2.993242748757423 -73.328963531763037 138 135 116
108.998784087047454 -3.524337249853214 -75.402515622771745 140 137 118
107.269475976263934 -3.657564298832961 -76.791026875611806 139 136 117
106.329542326530188 -3.426169745633500 -77.563195433906088 140 137 118
104.775723432995619 -3.494243915026855 -78.814613008229969 140 137 118
102.870993455290076 -3.740924606079125 -80.339752975739287 140 137 118
101.229415804476574 -3.871775745280732 -81.659399751426633 141 138 119
100.465352833506330 -3.584439081747813 -82.294562310010633 141 138 119
98.911616641758926 -3.689582841134365 -83.545637872674092 142 139 120
96.831232128069445 -4.064668717439073 -85.207141343025967 141 138 119
97.998805800261749 -2.836491076588666 -84.337181331169745 140 137 118
96.708745946727632 -2.831301341717380 -85.382957813549382 141 138 119
92.784464475992920 -4.161481986222376 -88.480552613083034 141 138 119
89.913391506344752 -4.982176433982417 -90.756936527761212 139 136 117
88.710776547720684 -4.969399566871338 -91.733765561372905 139 136 117
88.738076012120160 -4.332426502981471 -91.753382215301315 139 136 117
89.644377169838307 -3.240821011993835 -91.089601177102764 137 135 115
88.706070745925388 -3.102013081863831 -91.861595154029260 137 136 116
87.855800272290892 -2.922801485729068 -92.565262238117668 138 137 117
86.742018138263290 -2.887329250669295 -93.473963320425895 141 139 119
85.540425326721490 -2.905099220821331 -94.450966911756694 140 139 119
82.316669760934801 -4.007152031154661 -96.999168058050600 139 136 117
81.642523855781036 -3.763413365721924 -97.566038971694695 139 136 117
82.024012650499969 -2.954673450877721 -97.313431129991727 139 136 117
80.294914897153944 -3.287413606020955 -98.699989328480342 138 135 116
78.741665449014164 -3.534940734113137 -99.949832124075925 137 134 115
78.596251740103682 -3.019755037712900 -100.107287539190708 137 134 115
76.867099600525293 -3.378964590475667 -101.493547256685360 136 133 114
77.338396424355551 -2.527704865705084 -101.173482061116346 135 132 113
77.017975348402871 -2.114947490082970 -101.467877975392781 132 129 110
75.641271484841226 -2.296819323439222 -102.581137626593090 134 131 112
74.792970258751879 -2.188799165911074 -103.285013982715981 138 135 116
72.535485091736248 -2.885947984103305 -105.080195721756468 143 140 123
69.749053870400189 -3.899227707159437 -107.284230696793884 140 137 120
223.315383574450237 -4.122144087872615 14.918390029039273 113 114 109
211.102627749210541 -4.872415290643723 5.248409583538148 128 128 120
207.177391577286187 -5.126762155249850 2.140197412232169 131 131 121
206.493649201662834 -4.366094418581893 1.572596406553686 133 133 123
203.532057768358300 -4.347048963646185 -0.779986534970618 134 134 124
201.359005833788558 -4.088589956175378 -2.514538509485476 136 136 124
199.974625376551501 -3.583298318071666 -3.631199023397642 142 140 128
198.152202881575477 -3.232430581298003 -5.091006589748019 141 139 127
196.066936143941689 -2.981175571818539 -6.756621662283834 144 142 129
193.543492297674049 -2.891490546169434 -8.765245611587630 143 141 128
189.354719520875761 -3.387738357653425 -12.077469421244388 143 141 126
187.532358387451097 -3.092173969291593 -13.536737077603362 143 141 126
184.745812283524742 -3.144062453205012 -15.750613176189376 144 142 129
181.520882197868616 -3.367436132105403 -18.307297121913962 144 142 129
178.383499691225808 -3.579719110444128 -20.795118806582423 146 144 131
175.947408095625548 -3.560326202622673 -22.733949336186043 143 141 128
175.001879126048806 -3.017606264577219 -23.506645741229192 143 141 128
172.039704578580910 -3.215341271758196 -25.856718292738805 142 140 125
170.042056992839633 -3.077012283871261 -27.452228778016746 138 136 121
169.096834585094371 -2.561008044845978 -28.224796843078423 135 133 118
168.941142087849784 -1.755704264090910 -28.380321252272012 136 134 119
166.943775507011026 -1.645180413710918 -29.975679957083685 135 133 118
164.156960623798255 -1.846916484790675 -32.187885016088700 137 135 120
160.580518102626485 -2.368385301487419 -35.016773714224797 138 135 120
156.828388727730498 -2.979893394165816 -37.982405374084777 139 136 119
156.234607385424511 -2.385067147690255 -38.480477455051073 138 135 118
154.588104089107361 -2.206917881990636 -39.800948515209257 137 134 116
151.800876884981392 -2.490137254907627 -42.012117572743193 138 135 116
148.135927474843129 -3.140573409281654 -44.908196237900114 138 135 118
145.523912817504765 -3.390648280700145 -46.981809780402244 138 135 118
143.877312909058219 -3.265917013364226 -48.301684763356803 138 135 118
143.459714198488712 -2.649737131377621 -48.662544045298830 135 132 115
142.954589024684367 -2.071966472543386 -49.091994486736297 134 131 114
141.044958494992386 -2.079147706184776 -50.617255335202316 138 135 116
138.959721901237458 -2.171407854881276 -52.279348854376082 136 133 114
134.503503216406273 -3.273874621465242 -55.789963996876082 133 130 111
134.086584492550742 -2.692293882551311 -56.150792435770455 136 133 114
134.372569179145415 -1.813027114526401 -55.964080609351498 136 133 114
130.091405319317914 -2.895882009875555 -59.336925485097339 136 133 114
127.039619387453357 -3.472824579023312 -61.751083768461314 138 135 116
124.866139082673953 -3.685466292358998 -63.480581535756301 136 133 114
124.537713558223189 -3.100667694957668 -63.772919056030048 134 131 112
123.858091133444589 -2.673145308743704 -64.339061799620595 136 133 114
121.772593497992943 -2.876345314295818 -65.999888477663461 137 134 115
119.335467859374617 -3.250265040053407 -67.934175760110890 141 135 116
116.810296736595333 -3.679070211573566 -69.936636306185534 142 137 118
115.251953135204545 -3.683414850105081 -71.186545275856560 140 135 116
115.891605529034763 -2.689866994600551 -70.726767681268996 140 135 116
114.949063627751855 -2.422213400352234 -71.498061693486960 138 135 116
112.247926694425246 -2.977362587837243 -73.636758046370915 138 135 116
108.491179198459420 -4.043082011970959 -76.595504987529893 140 137 118
106.932905520606909 -4.096842011702938 -77.844938751244968 139 136 117
105.990429513313657 -3.868206401214572 -78.615862655213903 140 137 118
105.312051754396222 -3.519199160011387 -79.181792646855826 140 137 118
105.073848234268596 -2.962727518653884 -79.406141596233340 140 137 118
102.547961036883962 -3.513741913502788 -81.407001613742977 141 138 119
101.077981515368933 -3.566479028377368 -82.587826643350070 141 138 119
100.048142568492466 -3.412592772104895 -83.427045868744131 142 139 120
99.634679750371888 -2.961014329329731 -83.788189422154545 141 138 119
97.460599567480102 -3.385403331668026 -85.515220588598339 140 137 118
94.846065057268703 -4.043202772103209 -87.583431728311240 141 138 119
92.759652893705010 -4.451841259809413 -89.241706217739818 140 137 118
93.051278204558983 -3.670769109726668 -89.056682080100785 138 135 116
90.348215449968848 -4.411494360036285 -91.192546899053383 140 137 118
90.111778504421039 -3.905982893968901 -91.417216412970106 139 136 117
90.228168176292485 -3.219860522052284 -91.369100550374981 138 135 116
90.345016710010114 -2.532431585469952 -91.321217654840638 139 136 117
89.933463982284266 -2.119528599560685 -91.682876883042240 139 136 117
87.141967605517976 -2.957797165248005 -93.886290182844618 141 138 119
86.201657395651608 -2.836153442910674 -94.657148875626007 140 137 118
84.908760028166697 -2.907407924260704 -95.700781022337907 139 136 117
82.998513573393268 -3.316389442524112 -97.221611282179367 139 136 117
82.058446651369422 -3.215717662255309 -97.992370488295592 139 136 117
80.677392729393276 -3.359104929413914 -99.103945227434025 139 136 117
78.413927831890078 -3.990843759191783 -100.896939581775882 139 136 117
77.120982875790176 -4.105725054168873 -101.940099889548605 137 134 115
76.887309944289541 -3.645623060160839 -102.165624275803623 137 134 115
75.859444155021720 -3.626174829325431 -103.004403614902600 136 133 114
75.008290484993438 -3.514546096490517 -103.706952516500905 138 135 116
73.715722213171858 -3.655092547556720 -104.750028844396525 137 134 115
73.129828027851332 -3.405629438684214 -105.248319117958772 138 135 116
72.985943199269400 -2.909231238933193 -105.406312555041154 143 140 121
69.838072533101879 -4.123971731265902 -107.878797941360489 141 138 119
221.734847422583073 -3.867780871199424 12.456987155403908 118 119 113
218.501813602610468 -3.849155587564080 9.901688991507825 122 123 117
215.268705216129945 -3.850533107296517 7.346632398877119 127 127 119
212.123378129641992 -3.844096394039192 4.860359982313867 129 129 119
208.538657279110424 -3.997582681300581 2.031643779533681 132 132 122
205.393157563875775 -4.031434865313940 -0.454131338169759 133 133 123
200.402217476540471 -4.686246537207384 -4.378698842878549 134 134 122
201.562538260658016 -3.347827158150106 -3.506403847820195 139 136 127
200.526162991640348 -2.731741579342739 -4.347253768922400 140 138 126
196.677474940751267 -3.064886101611955 -7.380416310151389 143 141 128
192.301237808739529 -3.600356872407565 -10.824271843064878 143 141 128
190.649672414249949 -3.232434947005371 -12.144274638128678 143 141 126
187.064255632972674 -3.541084395688040 -14.971060737657837 143 141 126
185.764384241198911 -3.077160425327734 -16.016865395708891 144 142 129
180.508352268167357 -4.009159896323865 -20.144337272457506 144 142 129
178.680937637787679 -3.760166397444138 -21.600707975634464 145 143 130
176.853578071633933 -3.522381807921689 -23.056989642413583 142 140 127
174.850402081419645 -3.359149863678643 -24.650111696581348 144 142 129
172.055783053392133 -3.495766470807952 -26.859253586813026 142 140 125
170.756186409472832 -3.101842395343100 -27.904469139212807 137 135 120
169.720575318101027 -2.618303930121233 -28.744320266255386 137 135 120
168.685127237970931 -2.140992543077410 -29.584185278873292 136 134 119
167.034077364139648 -1.901284044080193 -30.903114932046122 135 133 118
163.975530328200819 -2.204965388430962 -33.316851541457567 137 135 120
161.092801637628384 -2.460382109805515 -35.593478086806840 137 134 119
158.561899200219500 -2.598107240512968 -37.596193024694173 139 136 119
156.910861382222095 -2.409846270721625 -38.914598870073434 138 135 118
155.523890127236371 -2.128359117329848 -40.027716223232318 136 133 115
152.376871964709608 -2.549637551376015 -42.508776947938287 136 133 114
149.053640768681447 -3.060433961669353 -45.126334277766404 136 133 116
146.962501085148858 -3.098063991831025 -46.786166114278586 138 135 118
145.223461164293468 -3.006365442222712 -48.172336974717297 139 136 119
144.452869611739231 -2.531203695925160 -48.806309660181824 135 132 115
142.537898773528923 -2.529956487099562 -50.329102481550052 132 129 112
141.591512925104240 -2.140233857462811 -51.099814080534799 136 133 114
140.293059971956723 -1.902799056467839 -52.143965947964034 135 132 113
137.321411647878961 -2.375131853713301 -54.486679704217579 132 129 110
135.934950307417608 -2.195933868366545 -55.598988084944750 137 134 115
134.284325259655759 -2.137653625748886 -56.916253441268367 137 134 115
131.136145869989946 -2.731725156832283 -59.394979992739792 137 134 115
127.459098203479030 -3.573749702095476 -62.283298777964148 138 135 116
125.632016821193488 -3.633608944600909 -63.736649729465711 133 130 111
124.069288182367004 -3.588828706467682 -64.984966579291921 133 130 111
123.123505974127781 -3.281291250499894 -65.755120984393415 136 133 114
122.089754733458363 -3.018548195489980 -66.593589099561569 136 133 114
119.822090445402566 -3.314423688801190 -68.388031689902846 141 132 115
117.906940984667187 -3.465364505371617 -69.909172511069301 141 134 116
115.639083616973750 -3.788182930883008 -71.703245395637737 140 134 115
115.310978268229405 -3.238363533295597 -71.995376028396265 140 135 116
115.512293647724448 -2.446695761986387 -71.878115880124170 138 135 116
113.068154030222729 -2.879305904904056 -73.808443569168361 139 136 117
110.182806283211818 -3.532837837653952 -76.079719167028315 140 137 118
108.002904057844702 -3.872929861957544 -77.804832799450253 141 138 119
106.969825249232940 -3.684247594130878 -78.642860258922468 140 137 118
105.936887679845242 -3.501722755322445 -79.480891905245187 140 137 118
104.904091103980193 -3.325352390720224 -80.318927651291119 140 137 118
103.077098052499252 -3.538196299176017 -81.770746111927338 141 138 119
102.044481979929827 -3.376678030140622 -82.608715330050444 141 138 119
101.806544296235060 -2.833139234318455 -82.833058330390287 140 137 118
98.125496337467538 -3.983777418222449 -85.716286674294253 140 137 118
96.474910556144337 -4.152556879717737 -87.031233575948136 139 136 117
93.941118527193609 -4.771298964615215 -89.027614793994815 139 136 117
97.678433991492184 -2.262846152026135 -86.185281299948571 140 137 118
95.851677071247622 -2.536590542556315 -87.636585845703109 139 136 117
95.438498380522418 -2.104182875788485 -87.997667990257554 139 136 117
91.049129748557903 -3.704521040047022 -91.424280243580284 140 137 118
92.315211071202157 -2.426429365713167 -90.491100859345181 141 138 119
91.283890431788492 -2.327711256727622 -91.329043374654162 141 138 119
89.280237892375240 -2.740948840844224 -92.916003558869818 142 139 120
87.718516452736964 -2.935269943672933 -94.162341059118518 141 138 119
86.952653882971390 -2.720132146457535 -94.795899516606795 141 138 119
86.098552693661020 -2.556239107526312 -95.497576317841833 140 137 118
84.271565123429340 -2.915808164222177 -96.947887085029663 139 136 117
81.736645766947206 -3.666089025901895 -98.942374998740689 139 136 117
80.617185190887895 -3.668903673175216 -99.847965427731452 139 136 117
75.780640959137187 -5.694548444975063 -103.610566936941439 140 137 118
76.608142308127682 -4.660505381714731 -103.019354706285782 138 135 116
76.285439285323463 -4.251993245398531 -103.312615246629491 138 135 116
74.192099378699439 -4.822437173592133 -104.965909982841310 138 135 116
73.604097788076317 -4.570193267666571 -105.463220705071365 138 135 116
73.990746491284241 -3.777147582069832 -105.212919797317113 138 135 116
72.694669140775702 -3.926105580472123 -106.254230809714670 137 134 115
73.348089597526183 -2.982047383398285 -105.800530387319498 141 138 119
72.406903935643228 -2.938985598405137 -106.570161383499681 143 140 121
222.854654053793581 -3.811182188442959 12.142410672575295 117 118 112
219.348340584703948 -3.873548702263985 9.386105590589153 120 121 115
216.370562290476755 -3.792296731409585 7.040626064928063 125 125 117
216.740977197896768 -2.672260029682484 7.295327282147269 129 129 119
212.529648616934793 -3.010604259670386 3.992268710999269 132 132 122
208.494367421496520 -3.318261651906951 0.826391568860913 132 132 122
202.520113497981441 -4.281043765245670 -3.844039606797480 135 135 123
205.006118677297934 -2.504663566819620 -1.947572359255815 135 135 125
202.557018826537785 -2.347406890335761 -3.881598885207126 138 137 126
191.841025029567390 -4.041217177745308 -12.262452904201382 145 143 131
189.391539967800213 -3.947316886306602 -14.195642987428556 144 140 128
188.881543735046080 -3.201982090130579 -14.624487952803719 143 139 127
185.109671652473139 -3.590720690418984 -17.582967847278354 142 140 127
181.954800903916237 -3.786869277719643 -20.062589296351973 144 142 129
179.857932534870457 -3.629027231546932 -21.721692641629403 143 141 128
178.025632101887084 -3.389851971907081 -23.175624929519188 142 140 127
175.576063507067630 -3.383606454478543 -25.107872776197610 141 139 126
172.509095516297094 -3.616089807792624 -27.518313706370691 140 138 123
170.941425891553195 -3.319650265696474 -28.766857261108782 138 136 121
169.462050651870669 -3.000253438291715 -29.947017972962300 132 130 115
168.600274350294910 -2.460385024404086 -30.648893130205835 136 134 117
167.209364017821088 -2.123973900949879 -31.760691402211734 135 134 116
165.465656056950195 -1.929330324514826 -33.145688753183975 135 134 116
162.045553241454883 -2.383940393260417 -35.828340271466800 136 135 117
159.331174698874918 -2.588620626078493 -37.964309436883241 138 136 118
157.499177906867629 -2.468392460994488 -39.417162603377051 137 135 118
155.755472721356966 -2.324922582089121 -40.801634525496013 135 133 115
153.835290834179489 -2.261539354609233 -42.322573996154830 136 133 115
151.208966051538766 -2.489897996612174 -44.389565159821984 138 135 118
149.641866928636176 -2.311146166175694 -45.637170221948026 138 135 118
148.251410268377839 -2.070819753307318 -46.748196480991851 137 134 117
145.271784309617857 -2.483896960551988 -49.087703711713885 135 132 115
142.733480781196732 -2.734860055413169 -51.085712377778833 135 132 115
140.901537690533701 -2.710369206792161 -52.537605762518950 136 133 114
138.539709329468167 -2.917093838800664 -54.398777142621299 136 133 114
138.650893034061625 -2.103852957809451 -54.349479257797611 133 130 111
136.289120677454747 -2.331875134522019 -56.210458203914413 138 135 116
134.015597075425433 -2.536949643855696 -58.003032378677460 138 135 116
131.476941215954753 -2.869382966604712 -60.000033876793196 137 134 115
128.849787507329125 -3.255567164761761 -62.065003907376223 138 135 116
126.664310707800780 -3.466280131921048 -63.788782446257159 135 132 113
125.892785980576306 -3.072454642135254 -64.421471469209990 135 132 113
123.530518440030548 -3.383414055922382 -66.281359806382426 137 134 115
122.494057516182679 -3.121174928866537 -67.118526431222392 138 135 116
122.695417112437951 -2.312576140267820 -67.001461715563295 141 132 115
119.449032032363846 -3.052424184787388 -69.542565335400155 143 134 117
116.290738418478341 -3.772463283616151 -72.015156629218012 140 134 116
115.342973934812889 -3.504422960840460 -72.783956156716670 140 135 116
113.510934866730707 -3.647900183454889 -74.234074646451319 138 135 116
113.624855814897685 -2.903393958942661 -74.185378729222322 139 136 117
112.235291311899331 -2.857358739693803 -75.294831856381819 140 137 118
111.288166743820796 -2.612545446744023 -76.063698429817521 141 138 119
108.659977551527049 -3.166012604569534 -78.126451161023510 140 137 118
107.005009610984672 -3.273771906429965 -79.439929763884663 140 137 118
105.261523473613423 -3.433932008523536 -80.821381061957652 140 137 118
103.252443752067805 -3.732486597895126 -82.406925390520740 139 136 117
103.013861987009250 -3.186350063122407 -82.630987004375868 139 136 117
101.358955954832098 -3.331458091844236 -83.944110774778807 137 134 115
99.704025514604140 -3.486688922879667 -85.257118669364388 138 135 116
98.846155824450236 -3.258683707276428 -85.957652571554917 138 135 116
94.711100690754293 -4.663377247607719 -89.175364744371706 138 135 116
95.093404036733631 -3.836045760125263 -88.923337953596416 139 136 117
96.893870328176561 -2.292725478162664 -87.583383328491095 140 137 118
93.910071790699845 -3.159060819017440 -89.916228798190872 140 137 118
93.850559922415172 -2.554676931772481 -90.004838636281363 141 138 119
91.575447240038855 -3.085644966060531 -91.793298014686115 142 137 118
90.186636613510387 -3.173692473069761 -92.901731612905991 142 137 118
88.088508493467600 -3.638124167225209 -94.553826921411769 144 139 120
87.320395688435042 -3.421349052239899 -95.186325727795804 144 139 120
85.931625716284927 -3.534968137008799 -96.294515553834998 144 139 120
85.341246627935803 -3.235295458632714 -96.791177097483370 140 137 118
85.017300809874968 -2.797423864510528 -97.084145300484380 140 137 118
82.918955592442259 -3.309769188190470 -98.735643551284568 140 137 118
78.867829067842109 -4.885129665696465 -101.880891237569102 138 135 116
78.987865192694272 -4.229615884591354 -101.834204755979300 141 138 119
77.332756853968590 -4.538792162078195 -103.145542906717480 138 135 116
76.153738865237685 -4.014466222006958 -104.138926281430628 138 135 116
76.186430552997777 -3.412884121125752 -104.160758259570571 138 135 116
75.064626617892358 -3.453526079343749 -105.064838258111649 138 135 116
75.098097412452006 -2.853970282473053 -105.087022100508875 138 135 115
72.910119412969280 -3.504863937004354 -106.805073072962102 142 140 119
68.588334324828992 -5.377823347506527 -110.150351949632181 143 141 120
217.721333583685805 -4.661167855783969 6.957659859882227 118 119 113
218.181189164500495 -3.513318840436339 7.280145564331150 120 120 112
216.874094579267307 -2.918813451906964 6.236452317136269 126 126 116
217.157783341249171 -1.826506413903336 6.422069575499165 130 130 120
203.938915166381975 -4.104594219059386 -3.859452436011878 134 134 122
203.427298041227345 -3.309502784221564 -4.288034142095881 133 133 123
