ply
format ascii 1.0
element vertex 680
property double x
property double y
property double z
property uchar red
property uchar green
property uchar blue
end_header
135.137054011396344 -1.759008943768715 -17.751471616508553 144 140 128
133.425860775955357 -1.650301789892197 -19.372857083748187 143 139 127
130.150330511422169 -2.230370493750072 -22.455956860863154 142 140 127
128.830290334728488 -1.980073336137458 -23.711631643081802 143 139 127
127.040977068699888 -1.945198315824466 -25.405743649140987 144 141 126
125.877540927126773 -1.645277006077303 -26.515130301453638 142 139 124
124.323037701707918 -1.528017395291048 -27.989845997293827 148 142 126
123.316249905008263 -1.174899723549808 -28.953002487884930 145 143 128
120.666539577198023 -1.573966447114946 -31.450484442543910 143 141 126
117.860303203821331 -2.062912346970397 -34.093877471858264 144 142 127
115.992973196279749 -2.138806821182649 -35.860385215064156 145 143 128
113.969169950578063 -2.300194954730387 -37.772874438136739 143 141 126
111.084577508610224 -2.878034910372714 -40.488726046566910 143 143 129
109.999853750684252 -2.627985540019697 -41.524396191566666 132 133 119
109.071756528922066 -2.311025251235086 -42.413966912451997 145 143 128
107.204579058296943 -2.449302539014416 -44.179905491157399 145 143 128
105.259150643930823 -2.638129032415537 -46.018747643152153 144 142 126
103.705105915302426 -2.650543541493752 -47.492347881426866 143 140 123
102.072831778397074 -2.711856358035033 -49.038878989007202 141 138 121
100.362313804567648 -2.822892420151328 -50.658325571775464 140 137 122
99.434705493197029 -2.557782150471851 -51.547596467422409 139 136 121
98.272337709254330 -2.416116272519317 -52.655865215703216 143 140 125
96.405385830473037 -2.636423918238431 -54.421067337090619 144 140 128
95.243157378243950 -2.513031415535304 -55.529214644154479 145 142 127
94.002711862899332 -2.437425010874876 -56.710310174937121 142 139 122
92.292475698293387 -2.611281176841384 -58.329244935384907 143 140 123
89.877408019677560 -3.160911996490148 -60.604852642491494 145 142 125
88.010517574915838 -3.442216639434664 -62.369456280968592 146 143 126
87.710159289345270 -2.916393486351429 -62.674614008241150 146 143 126
87.175004809260813 -2.516194013383812 -63.198729587986264 144 141 122
85.464956070405663 -2.742747359060221 -64.817211573727235 144 141 122
83.128169880599458 -3.315706129743298 -67.019169865514442 143 140 121
82.123228243173486 -3.189023188463642 -67.980878745942249 140 137 118
81.431808249129219 -2.899563909460707 -68.650815304835845 141 138 119
80.113656112809196 -2.955955519131992 -69.904236417548702 143 140 123
78.482095705978494 -3.193097710629284 -71.449299071064729 143 140 123
77.085658537259562 -3.311789645636427 -72.775486488991447 143 140 123
76.943314905138578 -2.744052173523232 -72.934951560146118 142 139 122
76.957978385576496 -2.089387988350331 -72.948705306258432 143 140 123
75.875435763454178 -2.051003007545162 -73.983240131257730 144 141 124
73.146637687682485 -2.950946259935931 -76.548589889572554 145 142 125
72.456154837916657 -2.709960815759725 -77.218475809543548 144 141 124
71.922645633115536 -2.383698594828556 -77.742617410066629 143 140 123
70.448306884404417 -2.602896989478657 -79.141361300590603 141 138 121
69.366105529920731 -2.604928736360116 -80.175643357176682 141 138 121
68.127124087328738 -2.705724420154396 -81.355623500032522 142 139 122
66.339124678512093 -3.137032162443628 -83.045565397512803 142 139 122
65.963102323936809 -2.747394529970022 -83.423982752471289 140 137 120
66.685640796672530 -1.707947573081500 -82.782612266589751 134 131 114
65.996306611702551 -1.506270935012473 -83.452643078573516 136 133 116
64.443972325069126 -1.827580228724278 -84.923881977242075 139 136 119
63.205529035056088 -1.969877189622539 -86.103692376953347 139 136 119
62.516522611569272 -1.786677936176374 -86.773689791905014 138 135 118
61.356715528345418 -1.895842699758534 -87.880601644832581 134 131 114
60.589470812192815 -1.771524654929111 -88.623422919812185 135 132 115
59.508327603585116 -1.846422921424312 -89.657461138066935 139 136 117
58.113183251995920 -2.123931709057081 -90.982632253630271 141 138 119
57.660358938427237 -1.821600570843648 -91.434268009977444 142 139 120
57.207743072626315 -1.522011035314021 -91.885975266328558 142 139 120
56.362614549707402 -1.473573914592676 -92.701614999563759 142 139 120
54.417854098588421 -2.130261571426375 -94.535960772897909 142 137 118
51.373069845078632 -3.504032373057620 -97.388702021579832 144 137 119
50.920765482288090 -3.231584840639417 -97.840278913630385 145 138 120
208.279360382059480 -2.742069045219356 49.922946294439924 175 174 170
204.131814444531386 -3.007789939277883 46.034332352219764 172 171 167
200.062599147287216 -3.276288528722730 42.219132777317355 173 169 166
197.090877599000805 -3.205979370720299 39.427432825347012 174 171 166
194.903133233758126 -2.891374780216786 37.366755069851905 175 172 167
191.853008910276742 -2.886209513537328 34.502374410670996 173 170 163
189.743701891298315 -2.577787884205796 32.515095026829698 171 168 159
187.477618033557036 -2.338530217886545 30.381811314841798 172 169 160
184.113864115220338 -2.500950833222642 27.225759484797067 171 168 159
181.142120952844351 -2.547409212626974 24.435271819854506 170 167 158
177.543075843850204 -2.839356773898345 21.060539120071411 169 166 157
175.512244901540555 -2.588392948373771 19.147167377104608 168 165 156
173.403035438618389 -2.380096164841520 17.160871958116672 166 163 154
171.058605550196944 -2.273151608166412 14.955571799043952 164 161 152
168.714194470723470 -2.182385486564167 12.750429174594558 163 161 149
166.840335792752853 -1.930913697787370 10.983674979543878 162 160 148
163.790152692982957 -2.138639025669963 8.121513828574791 157 155 143
161.759496456618706 -1.977111797099184 6.208979122704136 155 153 141
158.787720453434702 -2.193152477630412 3.420252764507950 154 151 142
156.129648425739248 -2.307442003593525 0.923839663657844 152 149 140
153.706874582901833 -2.347550371705519 -1.353326211455453 153 149 140
152.146920738145411 -2.062088299405002 -2.827165742121764 152 148 137
150.979233715925830 -1.630385380198381 -3.935875282011438 151 147 135
148.321225613890363 -1.808243783282614 -6.431664618291734 151 147 135
146.447663152594203 -1.685092104686675 -8.197239659027559 151 147 136
145.672424331497723 -1.123901731620438 -8.940733527943820 148 144 132
143.642086870572598 -1.087652555892302 -10.852131184959717 147 143 131
140.670327747767914 -1.458435634117553 -13.639272777436105 146 142 130
136.992409310047208 -2.147004298942869 -17.083049011767883 146 142 130
134.412838129134201 -2.394798333968788 -19.504783534741165 145 141 129
133.324060354654023 -2.022457172215415 -20.539773062960364 144 140 128
130.666045869363700 -2.334498073935324 -23.034178137647501 142 140 127
128.792705640687416 -2.323656900462236 -24.798703425257713 143 139 127
127.233295633416603 -2.188100556508257 -26.271260070944976 144 141 126
125.987855677379116 -1.924541386400610 -27.451900970653782 142 139 124
124.585544369374787 -1.739355123075840 -28.778406191431884 148 142 128
123.811180883878905 -1.281999518926668 -29.521249994460533 144 145 129
121.467198470863849 -1.539680855999310 -31.723010946737134 143 141 126
118.887729746465382 -1.920814954126154 -34.143421948302006 142 140 125
116.465213445210054 -2.247666758904727 -36.417759436184241 145 143 128
113.964172294986568 -2.627538277401314 -38.764844031853130 143 141 126
112.405127866116601 -2.585583704841349 -40.236612078939800 143 143 129
111.160165617555492 -2.406834875530435 -41.416608516824994 131 132 118
109.679757347513316 -2.347969676117653 -42.815311017409556 142 140 125
107.885350730475380 -2.448874031670981 -44.505588736478899 144 142 127
105.933932716896905 -2.637467611170006 -46.341567882240952 145 142 127
104.453663745975831 -2.611683196684429 -47.739996505909915 147 144 127
102.973452856928020 -2.596006401595120 -49.138348872943936 144 141 124
101.807428467207416 -2.436373671014158 -50.245053255394311 141 138 123
100.091737951592052 -2.556178784831379 -51.861935047647790 139 136 121
99.240031835525500 -2.258006117910160 -52.676998736300703 143 140 125
97.445899411679207 -2.437634123579724 -54.366597286375082 146 142 130
97.065701336564615 -1.916433547330066 -54.744371234412597 146 143 126
95.664463630123009 -1.916233356137587 -56.069485907928822 144 141 124
93.556237702793581 -2.287117981855967 -58.050290041771973 144 141 124
91.212281416878000 -2.793865136715154 -60.249499733581018 145 142 125
89.103972019237787 -3.194622007009484 -62.229956445493599 146 143 126
88.410001248280551 -2.871885473937284 -62.899015260948488 148 145 128
86.773196232158881 -3.049045642178901 -64.442186336454569 145 142 123
84.900647831305349 -3.362077407669436 -66.203756644920503 145 142 123
83.499640812233281 -3.436984518574571 -67.528208561292416 146 143 124
82.255879052777431 -3.437215049665119 -68.706936984582512 143 140 121
82.112650292436200 -2.852448824460862 -68.866153898940667 142 139 120
80.554666423920921 -3.036315697900240 -70.336104820879058 141 138 121
79.468401495564237 -2.973172079341587 -71.369113760430935 142 139 122
78.460850078525539 -2.874120534615728 -72.329289707392064 142 139 122
78.554205039945813 -2.172815877318451 -72.270310397163769 142 139 122
77.311041835266991 -2.214707703077203 -73.448896326372676 142 139 122
75.517451697575041 -2.573427174347751 -75.136910825861236 144 141 124
74.038425415573712 -2.767124768644430 -76.533674709075171 142 139 122
72.874039270502735 -2.792452337942070 -77.639258932867762 141 138 121
72.024372310280938 -2.646056525639506 -78.453735831276447 140 137 120
72.118855866067847 -1.963169732390758 -78.395106852397618 139 136 119
70.640120437210868 -2.188303442545777 -79.791686291026224 140 137 120
69.476129611493533 -2.240588218799910 -80.897182150169186 142 139 122
67.525304642439266 -2.760898007405825 -82.730030484818514 142 139 122
66.754862906075928 -2.600210929761022 -83.471696681012759 140 137 120
66.535497571796000 -2.118517611066470 -83.704288023087344 135 132 115
65.450537169582887 -2.153389795024859 -84.736912117580488 137 134 117
65.074142342886930 -1.771274252868411 -85.115073854498775 140 137 120
64.540510309123931 -1.486220059362162 -85.638732519140120 140 137 120
63.062225390980515 -1.776970171811041 -87.034852057958147 138 135 118
61.977659741762693 -1.837885118796031 -88.067396929688556 138 135 118
60.814414180012747 -1.954353777631652 -89.172588643612357 138 135 118
59.021126486815589 -2.467103150605240 -90.859162324354259 139 136 117
58.330544057077944 -2.308511589307818 -91.528152483980506 141 138 119
58.427913861172328 -1.663158193298768 -91.470517926285851 142 139 120
57.816521500221967 -1.461214232363866 -92.066979706486478 143 140 121
57.599294390212137 -1.014691080734994 -92.300231943525091 144 141 122
54.466473924018217 -2.418218063298937 -95.221409559423762 142 139 120
52.594291904342469 -3.039694565546217 -96.979980166764506 142 135 117
51.983195690235490 -2.865453251187374 -97.576298465342092 145 138 120
212.328223498329805 -2.866583393180222 52.310762258590017 153 152 148
208.089234779167668 -3.132521576004879 48.355037581406037 170 169 165
206.445264166194363 -2.580726663766317 46.807791002033213 172 171 167
201.105225231221539 -3.259354886099609 41.831028611016478 173 169 166
197.967059761386565 -3.240963146399047 38.897771502819666 174 170 167
195.615322781192503 -2.979385605828704 36.694375316420206 175 172 167
194.207367018215962 -2.412946317473556 35.366645954641513 173 170 165
190.440015849013434 -2.666983826013401 31.850322300099066 171 168 161
187.616421547312115 -2.619420923513792 29.209710689575701 171 168 159
185.264740152254262 -2.425885569946427 27.006988303849852 170 167 158
182.283837707816247 -2.471289305449793 24.220871552070946 170 167 158
178.752318949019525 -2.734049547193547 20.924392922992524 170 167 158
176.715284519646417 -2.481780899497278 19.013975475782956 168 165 156
174.756948860035834 -2.214853663094816 17.176616803578952 166 163 154
172.641326674399522 -2.019248228868149 15.193519847590437 163 160 151
169.817738443056442 -2.101039120578258 12.554236836614024 160 157 150
166.286119078604997 -2.467583254668169 9.258874636676381 161 158 149
164.013185421471661 -2.382459762158730 7.130454425719932 158 155 146
162.054968199682548 -2.192867585687027 5.293835141889758 152 149 140
158.759292272722433 -2.531761404403339 2.217890446377652 155 153 141
157.351865382864787 -2.159704527456821 0.891908949321618 153 151 139
154.764289841384056 -2.259901175813357 -1.527515609040250 150 148 136
152.648817049355387 -2.191209774655807 -3.509377644520100 149 147 135
151.084182188129205 -1.917327822127713 -4.980858592962306 150 148 136
149.519613819767130 -1.654148104034942 -6.452261187887359 148 146 134
147.561648127680002 -1.561339124399727 -8.288004564600016 149 147 135
145.525024555871141 -1.514165503788399 -10.196507418515239 147 145 133
144.196720870208594 -1.188637383144491 -11.449003356463407 146 143 131
141.294466791556545 -1.527242050312131 -14.158868267448696 146 143 131
137.919945223415823 -2.083995342131455 -17.305709826400857 145 142 130
135.568548861768591 -2.231102275041505 -19.505062168954623 145 141 129
134.476532833636298 -1.857172679253334 -20.538518878275966 144 141 128
132.518760190183826 -1.862973100323583 -22.373339572695187 142 140 127
130.797171837485678 -1.779825283052169 -23.989488956378864 143 139 127
128.288420268437335 -2.052409107909241 -26.333989280238399 144 140 128
126.488171324059039 -2.030215391633956 -28.022739160226479 142 139 124
124.530506274517748 -2.090227978906312 -29.857053294143384 147 143 128
124.147505517800013 -1.459296522220224 -30.234615963985135 143 144 128
122.347434042926395 -1.469667391719975 -31.923115541135502 141 142 126
119.366309529320304 -2.028848228893085 -34.703837489978611 144 142 127
116.463850110079377 -2.572533389213117 -37.411493170190369 145 143 128
114.585028763861061 -2.664118013514635 -39.172341989765386 145 142 127
113.021235924503230 -2.622205145580328 -40.641837984264185 143 142 128
112.481315472073334 -2.111713398087976 -41.164808832963445 135 136 122
110.760165952010794 -2.161833614646518 -42.779796357855446 140 138 123
109.511634618885196 -1.999224986194369 -43.957919218723220 143 141 126
107.711814865269247 -2.108903244520770 -45.645516997619467 145 142 126
104.887980806477572 -2.724437361579773 -48.279188318438997 146 143 126
103.718365206901055 -2.556387936693298 -49.384261315666606 145 142 125
103.021530211159245 -2.165143454931900 -50.052655082533562 143 140 125
101.300626524180245 -2.282783055914615 -51.667065202187359 141 138 123
99.737331054819336 -2.334043836007654 -53.135840053622303 143 140 125
99.119625430711977 -1.923834311675201 -53.731425372436320 145 141 129
98.738481261079613 -1.398791141079522 -54.108786265853496 145 142 126
97.884696663656598 -1.115485700216913 -54.922702580323374 146 143 126
95.297214586455297 -1.721644484867740 -57.336963729233787 146 143 126
92.552006732223163 -2.426537951077605 -59.896470851214929 146 143 126
90.673708261861663 -2.702398457958759 -61.655672968575942 146 143 126
89.504837801229954 -2.622100674160701 -62.760199165996227 146 143 126
87.311239746473632 -3.086319575411825 -64.810059715044787 145 142 123
86.063631160418936 -3.066941461759741 -65.987149671306696 145 142 123
84.579565429437409 -3.181499805631689 -67.382317319463084 145 142 123
83.647478409839209 -3.011371165118785 -68.268467922821941 144 141 122
82.005814905538031 -3.228959928938109 -69.808898562392613 141 138 119
81.152768356242206 -3.031078813448899 -70.622288641062170 140 137 120
79.826648340697062 -3.096521132830815 -71.871804784163686 141 138 121
79.683679630217711 -2.522579382886357 -72.031034683722766 140 137 120
79.540953192743331 -1.949262573614724 -72.190374053028734 142 139 122
78.372954732960210 -1.945726634227175 -73.294527264439608 141 138 121
75.706075974653700 -2.787210578523627 -75.779241878093359 142 139 122
74.222508348248184 -2.982061890235352 -77.173821321917842 140 137 120
74.238174473194690 -2.339236138793646 -77.187932870780770 140 137 120
73.228251316519760 -2.279574510019554 -78.146568725436964 140 137 120
72.928708637190098 -1.820036200070431 -78.451434332750438 139 136 119
71.919049693307784 -1.771327066731123 -79.410083846363335 138 135 118
70.435883421937831 -2.003789983197803 -80.804468141918932 140 137 120
69.031668924703098 -2.200329911493748 -82.126133584039678 143 140 123
68.969618233965150 -1.619279250372839 -82.213288677552782 139 136 119
67.170789144673890 -2.063032082091579 -83.897921589457667 135 132 115
65.371899927456511 -2.519137719468676 -85.582398582734641 138 135 118
64.915487173064221 -2.186118261603368 -86.032633531582604 140 137 120
65.328072405064418 -1.334166143143508 -85.684488038884638 141 138 121
64.714184162571073 -1.099008934290945 -86.280097678555961 139 136 119
62.757510513271541 -1.683623084728306 -88.109486107523480 138 135 118
60.563705667273283 -2.426566873406803 -90.156378673065035 138 135 118
59.871015273630960 -2.262097324219785 -90.824420895066993 139 136 117
59.652624840705244 -1.809021961937894 -91.057184047605972 140 137 118
58.328039948573291 -2.044756586186462 -92.305681684244831 140 137 118
59.058558668099153 -1.004800582374766 -91.668134160949421 144 141 122
57.418032060723533 -1.449892148066927 -93.206766887484946 143 140 121
53.484679304401766 -3.355660158935065 -96.848391629777751 142 137 118
53.029792100615566 -3.077575042852491 -97.298790930029867 144 137 119
52.496036778055583 -2.852762115351425 -97.821770520119742 147 140 122
217.106122983735816 -2.788831869887347 55.345457662735100 124 125 120
213.564033338806894 -2.800787899805240 52.051454455602737 147 146 142
211.441802366424554 -2.380051972782546 50.069201739282221 166 165 161
208.688523184820042 -2.179203142897505 47.504232652190240 172 171 167
205.383037075727145 -2.178831940435162 44.429488888888841 172 168 165
197.896414568772741 -3.590241117073997 37.493997710462821 174 170 167
196.405258857035648 -3.040698059160468 36.095385955452997 175 172 167
195.071953116621501 -2.447857926820197 34.842531406530043 173 170 165
190.582920964152208 -2.945135610207188 30.676231289695835 173 170 163
187.435045884828185 -3.009251669823763 27.748468519623515 169 166 159
184.366046343969629 -3.067433246729004 24.893769760620813 168 166 157
183.111760595349068 -2.506339389715289 23.714297983761952 167 167 157
180.831807682463591 -2.319290266263777 21.588186588975049 168 168 158
178.236254266335379 -2.261425613121355 19.170951614119048 166 166 156
174.457080402199949 -2.651264196477240 15.661681764991442 164 164 154
172.650607569604915 -2.343797991758880 13.972972918760433 160 160 150
169.265922805502100 -2.632778962320532 10.828237082900017 159 156 149
165.960106439870685 -2.915545747410540 7.756565794736815 159 156 147
163.522344781526101 -2.893784457165499 5.485933183714081 158 155 146
162.031640585421826 -2.528472910114491 4.089001812664463 153 150 141
160.225314148307120 -2.294511312352244 2.400979551182473 153 151 139
158.182260245280872 -2.164602365582780 0.494701309405428 152 150 138
155.113167830034058 -2.449608296616206 -2.357618201784476 150 148 136
152.280831572370744 -2.662351267187637 -4.991368231422598 149 147 135
150.711419583196488 -2.392344951591427 -6.460523924351151 150 148 136
149.378884869233673 -2.038060341989946 -7.711291757850091 148 146 134
146.862332939049026 -2.171832773929451 -10.053489271079570 147 145 133
145.214149455697850 -1.968587971777300 -11.595132626324443 147 145 133
143.723918152323677 -1.711623630773525 -12.991174955414351 145 143 131
142.233759193432945 -1.464802940465463 -14.387147480164884 146 144 132
139.006720574438361 -1.954708114991773 -17.383514707871285 145 143 130
136.095435061251692 -2.333586679773840 -20.088644452072373 145 143 130
134.842239369502238 -2.027402770352849 -21.266013792255535 144 142 128
133.036398464117042 -1.966644194627873 -22.952485464737208 143 141 126
130.993703747054781 -2.020572099377405 -24.857043214783801 143 141 126
128.714122942779397 -2.191649999647258 -26.979646243691604 143 141 126
126.434540635460451 -2.378335414179456 -29.102087897563678 142 140 125
124.075978198251661 -2.615571996911320 -31.297084264369119 144 142 127
123.849863299134810 -1.918090956105291 -31.528667849187485 144 142 127
122.755113668149747 -1.612365716377263 -32.560114750574229 145 143 128
120.238692101860750 -1.957808314973425 -34.900195802085165 143 141 126
116.695345674824210 -2.789034764247589 -38.185164606972592 143 141 126
115.679715211393486 -2.482563591370140 -39.143610640263688 142 140 125
113.874200482589032 -2.548813275719843 -40.828930994679069 143 140 125
113.174768207349359 -2.111264895299279 -41.496558861226958 142 139 123
112.791514200770280 -1.529768881956862 -41.873491513350530 140 137 120
110.907208941332627 -1.661566047605837 -43.631302919749572 143 140 123
108.390788421737113 -2.107743730024666 -45.970347555172367 145 142 125
105.795291227844515 -2.609150934695004 -48.381852560366525 143 140 123
104.227059293855092 -2.631240990509049 -49.848566092963068 144 141 124
103.844329643245587 -2.086234923332614 -50.225373985838246 143 140 124
101.723015701988146 -2.397048443746504 -52.200535200744241 143 140 124
100.550158485290950 -2.253555166425852 -53.303804650689784 144 141 126
99.614527980102622 -1.999920496595116 -54.189119632198015 145 142 127
99.706667022767959 -1.237447795788770 -54.130188264005255 142 139 124
97.980798236756272 -1.391652498542053 -55.741846714339545 145 142 125
95.622469120230690 -1.878999354662736 -57.934380190271526 145 142 125
93.501269569614763 -2.261175489287742 -59.908861558030651 144 141 124
91.300960103832850 -2.698603072112530 -61.955787167548749 146 143 126
89.258748902835350 -3.069104101103274 -63.857317583822891 147 144 127
87.770074114716436 -3.164612579156438 -65.250476364681930 145 142 123
86.914138649995152 -2.937748467364239 -66.062782732655137 145 142 123
85.979239666642982 -2.758378051302550 -66.947683232431132 143 140 121
84.807161497108169 -2.711558676178181 -68.050330262828766 145 142 123
83.081429306310511 -2.969356485849713 -69.660987723954975 141 138 119
81.672138484030626 -3.068238168980627 -70.981229914951143 141 138 121
80.421125324617506 -3.090763328513693 -72.156259803546959 142 139 122
80.040540939740239 -2.646217406894955 -72.533059897450016 141 138 121
79.422771861098454 -2.334482447536260 -73.127601211665649 143 140 123
77.618118207156229 -2.683478486652246 -74.810423051074451 142 139 122
75.259429253796824 -3.353250904844923 -77.000906584345358 142 139 122
73.771265468414853 -3.551491131413816 -78.393252357666796 141 138 121
73.866264765294829 -2.867374236295274 -78.334882769615604 142 139 122
73.961559404031561 -2.182167037053629 -78.276665695144430 141 138 121
73.344609798108436 -1.902503474679494 -78.871268915299282 139 136 119
72.015223391652100 -2.035940193822287 -80.118522527670876 137 134 117
70.448318542229003 -2.315584131812643 -81.583219801481874 136 133 116
69.990120454643375 -1.961544823003806 -82.032817020934999 144 141 124
69.532126859768482 -1.610300136141405 -82.482483302552396 141 138 121
67.648570853182662 -2.100410172625788 -84.236964854567077 135 132 115
66.002588519720319 -2.462832241989021 -85.773838539098790 136 133 116
64.594247227498613 -2.695036565691058 -87.093162625105066 140 137 120
63.185915680489813 -2.936786999515688 -88.412393110280732 141 138 121
64.630305009320807 -1.470337780256444 -87.123018984167373 140 137 120
61.795779407451064 -2.584973841051364 -89.746438000391720 139 136 119
60.942428213480525 -2.512318182450072 -90.558393329557589 139 136 119
60.723344093913099 -2.056733635783872 -90.790850453080310 137 134 115
60.266694284445251 -1.748738033902428 -91.240714412472158 140 137 118
60.206689352453509 -1.197820453508968 -91.328538015019689 142 139 120
59.274742875736166 -1.190370184527989 -92.213081323410279 146 143 124
57.232632931179481 -1.884870316117971 -94.111325094892408 138 135 116
54.873100475724470 -2.793428247267195 -96.298947160411672 142 138 119
54.099802762526366 -2.712970383395368 -97.038421227476505 144 137 119
54.595988403882544 -1.828602244900594 -96.619744673514418 147 140 122
217.563370744172317 -2.972367251351078 54.352588928894761 117 118 113
213.773010564500026 -3.061334440524725 50.845573554371384 143 142 138
214.888601603032953 -1.602123629492378 51.848882624427318 164 163 159
209.753035339279734 -2.162475214690351 47.105660382291092 172 170 166
205.883479396839846 -2.343127885227172 43.526616869013367 174 170 167
201.380787507697733 -2.759970935542556 39.366023569296715 173 169 166
196.324045662235164 -3.393057608205901 34.696699579352469 175 172 167
194.907582703638525 -2.830314960252790 33.373078082174857 172 169 164
191.750081391256288 -2.871737039560753 30.449686868461811 173 170 165
188.275982238929998 -3.043976160591830 27.235666002016899 171 168 163
185.118422997406753 -3.129757928005173 24.312759117960411 165 164 155
183.622943948055877 -2.652532407254979 22.916960033585156 165 165 155
182.127533449660660 -2.185497566573597 21.521233052456950 165 165 155
179.998972071143953 -1.955729259360018 19.543974506376884 165 165 155
175.020864741557091 -2.772173263660011 14.949778307620079 163 163 153
171.229976129098191 -3.188832835535316 11.446388835844147 162 162 152
169.180531738483666 -2.989024511061108 9.542448272015463 158 155 148
166.339498387458946 -3.097963295806418 6.911790393398832 157 154 145
163.815108339134440 -3.107355858599973 4.572062304544488 157 154 145
162.557402442710213 -2.653678108265676 3.395332402618891 159 156 147
161.537294396877712 -2.117650249261137 2.436665487111242 152 150 138
159.408869201420771 -2.016444057477727 0.460665145960434 152 150 138
156.488714943306263 -2.238161322256724 -2.241839561278624 150 148 136
153.172639040559034 -2.635428177949632 -5.307424115305793 149 147 135
150.885862362776265 -2.647399190795320 -7.428222430113749 150 148 136
148.757467706134378 -2.611669562279653 -9.403563397770682 147 145 133
147.262596244138194 -2.335006326913203 -10.797588661496576 146 144 132
145.530225182981241 -2.165107839124152 -12.409472602644996 147 145 133
144.431456180804844 -1.747164981788057 -13.440151762942435 145 143 131
141.748856065464963 -1.991674716506116 -15.923490288712941 146 144 132
139.779031494500884 -1.957297930792084 -17.752958946493891 147 145 132
136.462783375327660 -2.502431851248391 -20.816939042793535 145 143 130
135.364238471283159 -2.130244283177241 -21.847254428691173 144 142 128
133.156856920848838 -2.239309578810983 -23.894176775129722 144 142 127
131.503977963569753 -2.124590138329117 -25.432662595723230 143 141 126
128.900548872786828 -2.433833036696234 -27.842351052373260 142 140 125
127.406178313482016 -2.275512559568863 -29.235397784768821 143 141 126
124.644284480410164 -2.686406078738355 -31.789948680815598 143 141 126
123.783815645149375 -2.270983669819077 -32.602027225137675 144 142 127
122.844242628224990 -1.896784953278840 -33.486697148844144 145 143 128
121.904790997082046 -1.528862349480065 -34.371360539911109 143 141 126
118.271301843960160 -2.392598212449186 -37.723729622816649 140 138 123
116.618761147872846 -2.373393921277299 -39.261394080990300 143 141 126
115.124764097770509 -2.292222261472856 -40.653825367375163 145 142 125
114.344101990743823 -1.889375368425808 -41.393094845907115 143 140 123
112.533241777237166 -1.974512126952263 -43.075663524621206 141 138 121
111.197975345374928 -1.847464689744937 -44.322785447270974 140 137 120
109.545725142998577 -1.880185698260502 -45.860054383445544 145 142 125
107.655706185733351 -2.038011887093120 -47.614864446577286 144 141 124
105.210775852543549 -2.476390463134128 -49.877331137328071 143 140 123
103.400025604773063 -2.623347921277314 -51.559316071756228 140 137 120
101.351438674385506 -2.898995723015561 -53.458772732862542 140 137 120
100.016439862383436 -2.836984465398912 -54.705353233868237 143 140 123
99.553749506698011 -2.351168528468397 -55.154157810692737 144 141 124
99.011942354587362 -1.907891622503366 -55.675534192602157 141 138 123
97.201436523580753 -2.106453270223631 -57.357104867325319 143 140 125
95.311627972925763 -2.357498958593837 -59.111056033119951 145 142 125
94.056334893632027 -2.297793452304791 -60.284884864267667 145 142 124
91.611309131500832 -2.857455337124639 -62.546057472115280 144 141 122
89.721477222610744 -3.146822125478280 -64.299603005077358 146 143 123
87.672965124886133 -3.531626155111621 -66.197971865984101 145 142 123
88.321894715316546 -2.517346725964896 -65.631986966032173 145 142 123
87.304960877451251 -2.376780591357140 -66.588101725558886 144 141 122
86.526184297175476 -2.116626436701194 -67.326804425586488 144 141 122
83.525590190060711 -3.048604473179111 -70.094374798781615 142 139 120
81.715223274756127 -3.361159976368818 -71.774838534280462 141 138 121
80.063571362188796 -3.600138813519515 -73.310270574803752 142 139 122
79.681916552312842 -3.158656110908887 -73.686527049804454 143 140 123
78.586036630774814 -3.111043766148821 -74.714776338372275 143 140 123
77.728410066456775 -2.939377041105078 -75.525705515664413 143 140 123
76.156359031156185 -3.169944235265761 -76.988446043369578 144 141 124
75.457732163248338 -2.923358451154641 -77.654493540089135 141 138 121
75.394532303948679 -2.324269019611060 -77.741284557427150 141 138 121
74.934524574062522 -1.949732492715436 -78.190227038369386 139 136 119
72.806830967554149 -2.526925247996065 -80.159594268005009 140 137 120
70.520169075838112 -3.209637478754583 -82.273543219766424 137 134 117
70.457634938640979 -2.627131448538892 -82.360482014995767 135 132 116
70.077596925807782 -2.228732379307564 -82.737068478678111 140 137 121
69.300511355522119 -2.064113802126654 -83.475596756396811 142 139 123
68.126261224150596 -2.137490055363024 -84.575967493712767 135 132 116
66.872604626262060 -2.265590865709084 -85.748646027192450 135 132 115
65.380558935880828 -2.543572772574728 -87.138313889294153 139 136 119
64.285937724471992 -2.594477383556128 -88.166151255957203 141 138 121
63.111895472983889 -2.700390098505046 -89.266286528151454 140 137 120
63.448476409901076 -1.902097798808712 -88.992087378656208 140 137 120
61.400072868882233 -2.549485817848103 -90.887805263805063 140 137 120
60.544346108690320 -2.482413053256815 -91.698566662700756 138 135 116
58.893437003619240 -2.909458972132543 -93.232418190835062 140 137 118
58.435560748404129 -2.610700773609106 -93.681600337552027 141 138 119
58.693841229007944 -1.869877676025503 -93.480209843701118 143 140 121
57.361335037198018 -2.120796925752478 -94.724761654747823 141 138 119
56.665381737946319 -1.980768787822691 -95.390991326166130 141 135 116
54.855490521051891 -2.549054158826339 -97.069050278156823 144 137 119
54.876012635927253 -1.966803424798109 -97.084861386872291 147 140 122
209.857877246928808 -3.540612262251014 45.850242495861721 164 163 159
209.548363808743773 -2.556098502923531 45.544743029382261 172 170 166
206.460704542512758 -2.481254064661486 42.697601715436832 175 171 168
197.903833858447854 -3.189145919107633 34.825706435256450 174 170 166
194.974827889361904 -3.132255381269910 32.124568506132164 172 168 164
193.871726785297767 -2.473884148645049 31.093486958480895 174 170 166
189.910679051031593 -2.805548549510596 27.448908359486865 171 168 163
184.996853859140032 -3.495083448984122 22.933512352148199 164 163 156
183.735045507747742 -2.937680877192146 21.757677358923104 165 165 155
182.314526272237771 -2.445053868607452 20.436718106216233 165 165 155
179.941291001073182 -2.302665452432065 18.244833502059976 165 165 155
174.947817869083167 -3.122095418397716 13.658018986506704 164 164 154
172.653939091417328 -2.992129215376184 11.539157260872770 162 162 152
170.677707117145474 -2.760989294957968 9.710728501080723 159 156 149
168.860333889670699 -2.484348574487466 8.027551668591514 157 154 145
165.295949300260020 -2.874485351509854 4.748107090890187 156 153 144
163.796277144653629 -2.508472866124758 3.355458745816435 157 154 145
161.899590240313159 -2.304087513987471 1.600110180359025 151 149 137
160.082368211212696 -2.082028707756596 -0.082577145851360 150 148 136
156.994429243063337 -2.365725716692980 -2.925894004126008 148 146 134
154.462428893598229 -2.452722688694685 -5.261182529831558 149 147 135
151.692138368771225 -2.651129333762958 -7.813903711463439 150 148 136
149.954437731283804 -2.456880073116336 -9.423488656301515 148 146 134
148.375660600757953 -2.210558077877101 -10.887920303101026 147 145 133
147.273577498663087 -1.781702909638682 -11.917126335255176 146 144 132
145.377187108268942 -1.685035630065909 -13.671507955734370 145 143 130
142.527504450117874 -1.994260695906649 -16.295966388162554 146 144 131
139.121648364630232 -2.554101206993064 -19.427785843122962 147 145 130
136.589664630547702 -2.770929180667376 -21.761745901848883 147 145 130
135.567298225031493 -2.367133135516862 -22.717971297337243 143 141 126
133.988837391632330 -2.207108704409849 -24.181665955418254 143 141 126
132.172054704150554 -2.160123423368024 -25.862761341408884 142 140 125
129.799056151727598 -2.366218994903303 -28.051172070250885 141 139 124
128.538610612713285 -2.103111748126847 -29.224629698624540 144 142 127
126.880892500531715 -2.023196971358548 -30.760442222211992 143 141 126
125.461656929847621 -1.848849391110869 -32.078739365725824 144 142 127
123.963016412373918 -1.719563580419538 -33.469444496362229 145 143 128
122.623412196084544 -1.528862046444217 -34.715146461405880 143 141 126
119.694119760260733 -2.067993697719380 -37.410012190016346 140 138 123
117.718656841069347 -2.191342011329481 -39.235159937650366 143 141 126
116.061195268039555 -2.181739020204972 -40.770371434157397 144 141 124
114.006273256789356 -2.367675100720473 -42.667720862107814 142 139 122
112.110363201148445 -2.493291086889905 -44.420044199766664 140 137 120
110.691529865151210 -2.407271956130251 -45.737624561872934 141 138 121
109.829367811515098 -2.066969110647824 -46.548119832924868 144 141 124
109.126377159601489 -1.656429252620826 -47.213767371980140 143 140 123
107.787346618087867 -1.556420621876549 -48.458810233456887 142 139 122
104.380641943778386 -2.466890919873125 -51.586614517895669 141 138 121
101.450961046419806 -3.167939645184194 -54.279627714056261 141 138 121
99.873312986530095 -3.224829492773523 -55.741478392559230 143 140 123
98.772968348427042 -3.056293736160976 -56.768836501451034 143 140 123
97.831822432352055 -2.815849686890880 -57.651377151612508 141 138 123
96.015699926238852 -3.020533121403775 -59.330197813590189 142 139 124
94.756499309452764 -2.956293587786342 -60.502203963216516 145 142 125
93.736071869750049 -2.779131688832950 -61.457024094185840 146 143 125
92.556612855364165 -2.690204852117400 -62.556573586961207 144 141 122
90.581476045656984 -3.019235871089677 -64.379760148842223 144 141 122
89.720462367895365 -2.783699298655475 -65.189726387097664 144 141 122
88.143286981868414 -2.927884709965177 -66.650904614065468 144 141 122
87.839643306391466 -2.413272148763148 -66.954375225814232 142 139 120
86.660613834781259 -2.363722353480731 -68.053724882712345 142 139 120
84.287569935141477 -2.957994060334252 -70.238118225637464 140 137 118
82.630934377736239 -3.184408188619232 -71.771295442413077 140 137 120
80.655824120635359 -3.593849364699957 -73.593667004828262 141 138 121
79.795422878473644 -3.411479696806391 -74.403378956518196 143 140 123
79.014783397246731 -3.191236195371660 -75.140779630713297 143 140 123
78.075008256214872 -3.063649607085046 -76.022814356416148 143 140 123
77.294641523986044 -2.854111399927248 -76.760235317825135 141 138 121
76.355112034226465 -2.738339838537372 -77.642265944247413 144 141 124
77.407209716266067 -1.513007500651810 -76.717033326387934 140 137 120
76.547761265977485 -1.357684222705538 -77.526922688365460 139 136 119
73.377866070222993 -2.518486446474625 -80.432862368600638 140 137 120
71.402907010219124 -3.019107594580271 -82.254367701931784 138 135 118
71.181050949421476 -2.526665135306115 -82.485878135281723 136 133 118
70.959447335149250 -2.035334106116172 -82.717497897675855 136 133 118
70.180156249066798 -1.869304149017641 -83.454985592239780 141 138 123
68.285011427231865 -2.360650981803802 -85.203910363796780 135 132 117
67.107284313108593 -2.443022620700029 -86.302525130458889 131 128 113
65.610694349487929 -2.721886670563464 -87.690009947478302 139 136 117
66.187317524373157 -1.777359627167062 -87.199574794748543 142 139 120
64.770677647974821 -2.021375324054147 -88.514807286132225 145 142 123
63.274285201248588 -2.322945961583843 -89.902152864243249 142 139 120
62.416001554716999 -2.248299836111511 -90.711769013886340 140 137 118
60.520769368190003 -2.810715435471895 -92.459920443957884 143 136 118
57.588227147679603 -4.021265742537107 -95.146320237197870 143 136 118
57.448090165291958 -3.532152601922971 -95.306031642279606 144 137 119
56.989030029356400 -3.241215446072128 -95.754566918596765 144 137 119
57.567751713851337 -2.306736540129585 -95.265032255144689 143 136 118
58.146947583255283 -1.367562868999687 -94.775772765704204 142 137 118
57.768632466088135 -1.027084630789516 -95.152587248556955 142 139 120
55.953388381880330 -1.598998755126742 -96.828048054592045 145 142 123
215.140875587206438 -2.178429828054229 49.295232356084341 163 162 158
209.177429110267553 -3.000758505279097 43.842172982809728 171 170 166
207.433963238295121 -2.489494115951176 42.232082910413538 174 172 169
202.903586359275209 -2.907146330920417 38.084742344096469 172 169 164
195.267553842304380 -4.388198044454178 31.110586383024810 174 170 167
196.868552360643150 -2.818759974352136 32.545696863551143 171 167 164
190.037086629970844 -3.085475297314868 26.282727984444819 173 169 166
186.860207574918036 -3.171044093685114 23.369061440740182 166 165 158
184.638992242235389 -2.944208883057284 21.325299535658075 165 167 156
182.417803407929853 -2.732465392011400 19.281680300494287 164 166 155
180.435578998525955 -2.450666720650757 17.455596845156919 164 166 155
176.940074619432210 -2.726747890666620 14.252885064202474 162 164 153
175.117186789486027 -2.419176330184079 12.572028011958565 160 162 151
173.055389250736312 -2.211559443213683 10.673916774398236 159 156 149
170.754658576663701 -2.106349333912028 8.558587799428096 158 155 146
167.020085881452644 -2.552176251135383 5.139416104934099 157 154 145
164.639682183323714 -2.513143553896736 2.952024744002784 156 153 144
162.577947913789046 -2.369115005022678 1.054537785374890 154 152 140
160.356912089933331 -2.300197076628483 -0.987684474197806 149 147 135
157.896886550027773 -2.338863331679020 -3.247044109515997 148 146 134
156.233595607335786 -2.083137501543099 -4.782000321581535 148 146 134
155.207775760610900 -1.587589129910295 -5.737518055421987 150 148 136
151.712007955970620 -2.080269484571427 -8.937874250280260 148 146 134
149.969171635167669 -1.894301086229176 -10.544917062748112 147 145 133
147.588904454442627 -1.977745855387085 -12.731113011048535 145 143 130
145.686772445336914 -1.882486900414787 -14.482733364224117 144 142 129
143.465911504540315 -1.931105678460404 -16.523829422888099 144 142 129
140.129324585403822 -2.457128041291088 -19.578276231864294 144 142 127
137.669340882957499 -2.639598797315019 -21.836175630109949 144 142 127
136.484584309698192 -2.301624131179044 -22.935754363297804 145 143 128
135.140514236849526 -2.039281543657998 -24.180057315224701 144 142 127
133.238560798006120 -2.024811196047828 -25.930931498081378 141 139 124
130.938073190735054 -2.195178523246600 -28.043540098384142 142 140 125
129.913055442648556 -1.826461345689693 -28.998136016268717 142 140 125
128.170662776587392 -1.779058331077220 -30.603964748540363 143 141 126
126.826940437506821 -1.567335842907980 -31.847912996997934 144 142 127
124.686011956282044 -1.719548715708595 -33.815323239356502 144 142 127
122.465352913808744 -1.922037096955196 -35.854932028363095 144 142 127
120.483897523203751 -2.031461588059358 -37.677356323113145 141 139 124
118.821422682141289 -2.009033330850860 -39.210301506284054 142 140 125
116.281790791050042 -2.400316379537983 -41.538806959186900 145 142 125
113.662357663721636 -2.845728086474297 -43.939437485658772 143 140 123
112.398690307634723 -2.677553882419138 -45.110376614289407 143 140 123
110.257757818294834 -2.929420192489596 -47.076759156288063 140 137 120
109.393032023319321 -2.592727142222790 -47.885990784835371 144 141 124
108.767744750658906 -2.147827411042837 -48.478306152695296 140 137 120
108.062846534476222 -1.745208755216056 -49.142959582629345 143 140 123
105.842313578084855 -2.079044436244558 -51.181276667045410 143 140 123
102.664345783388001 -2.893495575055226 -54.086919609326429 142 139 122
100.603256343341357 -3.182641921040713 -55.980256165369923 143 140 123
99.100700270263616 -3.210321897830958 -57.367472379923385 143 140 123
98.156785087592112 -2.970731050122958 -58.248679440005048 141 138 121
97.292796220004689 -2.697466698198346 -59.057610708632950 142 139 123
96.508750531488431 -2.389694398816385 -59.794282842824288 144 141 124
95.405588406922504 -2.248854890856101 -60.820007984449006 145 142 124
94.621811345778028 -1.952410159854942 -61.556692028702400 146 143 125
93.918007860310098 -1.620058431788223 -62.221145881271411 146 143 124
91.058878819911996 -2.407006944814713 -64.836167749382582 143 140 121
89.956039463956571 -2.299059040773104 -65.861708732601727 143 140 121
87.655624657724260 -2.826071313735685 -67.970681035082180 142 139 120
86.233482730332213 -2.905408710074544 -69.284976480604684 142 139 120
84.891242667343874 -2.951887234937335 -70.526976052127765 140 137 118
83.948377303076072 -2.793960197520477 -71.407844735111581 139 136 119
82.286797241411819 -3.028838201374375 -72.938569395074893 141 138 121
80.784970397167513 -3.188458597155983 -74.324776341188851 142 139 122
79.522818149444078 -3.227634545896503 -75.494305933180669 143 140 123
78.740072493597310 -3.012471615513219 -76.230646723786919 143 140 123
77.158492871418332 -3.243112749802511 -77.688828047087810 141 138 121
77.175015189586418 -2.597349306928705 -77.703379434986857 140 137 120
77.671301180301654 -1.683248376980296 -77.285056942372961 138 135 118
76.969174804551699 -1.438938425044094 -77.949406860252310 139 136 119
75.308085090190190 -1.741444036547315 -79.479669975745736 140 137 120
73.007496333913963 -2.418967930413780 -81.587009769396929 138 135 118
72.625384287443126 -2.014071672377436 -81.962670901324486 138 135 118
72.243497496478639 -1.611404715128681 -82.338416847401277 136 133 116
71.302127166819872 -1.535189260143981 -83.219159651451150 138 135 118
69.481235315231515 -1.977736567584195 -84.893250222564944 135 132 115
67.180422143576536 -2.713940019603998 -86.999878638497933 132 129 112
67.358930449302804 -2.003788761503121 -86.870868573890192 135 132 113
66.657872914917007 -1.813804506801095 -87.535170620121960 137 134 115
65.316968565067199 -2.010118308235791 -88.776266862459522 144 141 122
65.016217498913718 -1.591235588012113 -89.080135893249860 139 136 117
63.275373303654050 -2.043314520498167 -90.681563990045476 139 136 117
61.934595833598351 -2.264308875567865 -91.922466881904711 143 136 118
58.432806410531711 -3.813651180955537 -95.109065602867929 142 135 117
58.212457570473973 -3.372206712973651 -95.340772137509902 144 137 119
57.832267984759852 -3.030658012802262 -95.716700899837718 143 136 118
55.931040692709587 -3.635940379653476 -97.461543042804180 142 135 117
58.513992433873298 -1.453928687174506 -95.172194527203459 146 141 122
57.494007057903914 -1.516007401412778 -96.124763516131765 144 141 122
56.794494096075709 -1.382480563946355 -96.789223336023355 141 138 119
209.748595584546450 -4.217646660988926 43.027160515805974 158 159 154
212.871853110454992 -2.136689980005634 45.835081000440397 170 171 166
208.407602601124523 -2.497515172419831 41.766379741356047 173 174 168
204.103007339235631 -2.836291099778983 37.842790764827157 169 168 163
199.159316035047539 -3.416109394263510 33.340553235106597 172 169 164
195.413676085183170 -3.628374783411750 29.924271911163657 170 167 160
193.585113581430619 -3.217675687296854 28.245068059886449 171 168 159
191.117536310218327 -3.037666975935617 25.987070215658065 173 169 160
187.132148021058470 -3.398068931015882 22.354431864774739 169 166 156
185.063988862995842 -3.117521249078845 20.458613290778061 165 163 151
182.516523331157487 -3.019617682293233 18.128819981177855 165 163 151
179.889170646328409 -2.967363339875376 15.726855417216342 164 162 150
178.540144375860535 -2.474481071296330 14.482550432491792 165 163 151
177.031404367463836 -2.048533914773350 13.093623179432257 164 162 150
173.685021877686978 -2.304313894324614 10.041080797264783 161 157 148
170.897912495594539 -2.376516151255827 7.495106614131657 160 157 148
168.190694693020248 -2.437873134690911 5.021659822274728 157 154 145
165.483466293690270 -2.517582112978199 2.548407006171658 156 153 144
163.095872869763724 -2.494483448819830 0.364619202424592 155 153 142
160.388629971978617 -2.609802274051562 -2.108260127623822 149 147 135
158.800219027189002 -2.311767785834246 -3.568615293369902 145 143 131
158.011082315862211 -1.713341598918761 -4.305843746175611 146 144 132
155.783446610333613 -1.685030982035417 -6.344490653521774 150 148 136
153.395975190254148 -1.735098909643945 -8.527583683006213 148 146 134
150.289136765164329 -2.088689416043898 -11.361139656981607 147 145 133
148.221376203296813 -2.044726207360529 -13.254713635198698 146 144 131
145.833895569045239 -2.144638698432214 -15.437289181523369 144 142 129
143.286533315552305 -2.326209606250202 -17.764255127967004 145 143 128
142.577855506855457 -1.765487642932138 -18.428727850565849 145 143 128
139.550854876173133 -2.175052787675062 -21.189042891732498 145 143 128
137.803000910701769 -2.068013280003236 -22.792872825467953 144 142 127
135.815333260656757 -2.074283705321679 -24.613387013214947 144 142 127
133.267985635182242 -2.332807819539221 -26.939567839641001 143 141 126
131.200380520990052 -2.402223096378137 -28.832049121785190 142 140 125
130.572172468957660 -1.861575357063455 -29.423952781152565 142 140 125
128.584635876805805 -1.919036148066629 -31.244002738396659 141 139 124
126.996987898246388 -1.813824010746625 -32.702738087248548 142 140 125
125.489377210728094 -1.683786055796556 -34.089159661481489 142 140 125
123.501942518049745 -1.778461372073686 -35.908875299280766 143 141 126
121.194579137572376 -2.030712517370784 -38.017351681975299 142 140 125
119.527118267253400 -2.008043820620280 -39.547914040805580 142 140 125
116.739776230359581 -2.508864831720758 -42.089364934522877 143 140 123
114.752346876764051 -2.659935460792707 -43.908502621235925 142 139 122
112.924931340690463 -2.750135187453184 -45.583099174706462 138 135 118
111.177546537270501 -2.815229297013869 -47.185381696164427 140 137 120
109.430191363417350 -2.892084057927015 -48.787557334013172 140 137 120
108.563062973419321 -2.563043344151389 -49.595560799993450 142 139 122
107.696068520668561 -2.239693790220554 -50.403569759126469 144 141 124
105.868872745130034 -2.384278236616386 -52.077711636042892 144 141 124
103.881624155829357 -2.618766208972136 -53.896077143155310 144 141 124
102.134480659078164 -2.749450889263952 -55.497799948202044 144 141 124
100.467399504468020 -2.852545086405201 -57.027249421081194 145 142 125
98.960443441600702 -2.887593400616542 -58.412284849602656 142 139 122
97.613643185167504 -2.852935467927018 -59.652938018529767 143 140 123
96.907390860703373 -2.505829430660261 -60.316372228433465 143 140 123
96.121230150517917 -2.203736608346548 -61.051974081797340 144 141 124
95.415288002817348 -1.866014773468627 -61.715460082892093 145 142 125
94.949737865182897 -1.409802957938921 -62.162591819741323 145 142 124
92.962799844828737 -1.740965630188537 -63.980110780721958 144 141 122
90.255023258583108 -2.459659181107681 -66.446523956879247 144 141 122
87.467002120050765 -3.238631108779118 -68.984786823585210 143 140 121
86.280853651109908 -3.194130054510111 -70.080678807334721 142 139 120
