ply
format ascii 1.0
element vertex 692
property double x
property double y
property double z
property uchar red
property uchar green
property uchar blue
end_header
-117.939862967045897 -163.707154941211257 -2.879023414197576 92 80 67
-117.891555020686951 -150.711063552978487 2.507035178539041 41 51 43
-117.798151646945300 -149.761585930114649 0.567976830904200 47 53 49
-117.788068961158416 -149.169650517346298 0.557060220017888 61 66 62
-117.719593694672767 -148.335452548685367 -0.814591550557481 59 61 58
-117.680615739849088 -147.627532602791348 -1.505678755694305 50 52 49
-117.627225666024785 -146.864079771386258 -2.536808951809689 45 47 44
-117.569189571637992 -146.086312175735003 -3.681168022216951 45 47 44
-117.506516498615582 -145.295046417122904 -4.938743235601919 47 49 46
-117.497491379016694 -144.717071659795209 -4.949010206409270 46 48 45
-117.512858150284089 -144.232005618946715 -4.392357399540145 44 49 45
-117.538008463415949 -143.780889085402265 -3.608956950603869 44 49 45
-117.509945976156658 -143.127947711318143 -4.072538541573465 42 47 43
-117.433642810759011 -142.299943903703536 -5.669589162386188 43 48 44
-117.376917871577703 -141.549560871465474 -6.813039097569344 48 53 49
-117.397703376128717 -141.079785781044507 -6.142777704916483 56 58 53
-117.413732522371802 -140.589917298011869 -5.585857454079388 55 57 52
-117.405718596058591 -140.014202908827286 -5.595617406380143 67 72 65
-117.349614023514235 -139.274893617710063 -6.738656572710283 56 61 54
-117.341864954229607 -138.702107007544726 -6.748259681216183 66 73 63
-117.310160476301533 -138.050299265094509 -7.324430803918631 78 86 76
-117.302648862342835 -137.479062473661173 -7.333904361547752 76 81 75
-117.266407608597689 -136.816254528569573 -8.023217977782622 61 66 60
-117.283141784592232 -136.321847145986453 -7.466007164302283 40 45 39
-117.227957461033469 -135.603836764996345 -8.608386846290472 45 50 44
-117.264061937285703 -135.166057176878240 -7.597890909545015 43 48 42
-117.242696854522862 -134.553229980909862 -7.946996684852877 44 49 43
-117.250184558040019 -134.025585294450934 -7.616269250218181 55 60 54
-117.195533229435753 -133.319077129335426 -8.758275551160892 87 92 86
-117.179302428776751 -132.725023519884189 -8.993872972631550 87 92 86
-117.191854430479196 -132.210687531542334 -8.549726917068085 73 78 72
-117.218802248814882 -131.732696478750285 -7.765743180730823 58 63 57
-117.255343977354897 -131.276046563114221 -6.755232305750468 46 51 47
-117.215596068584304 -130.618160982555537 -7.557031710279261 36 41 37
-117.185512730026943 -129.988159345802075 -8.132202824263118 71 76 72
-117.184131338365091 -129.431318877820388 -8.027736631048271 56 61 57
-117.187590477114455 -128.885447813428641 -7.809982946174387 58 63 59
-117.195880337206461 -128.349726528807224 -7.478954899066082 55 60 56
-117.156678339371496 -127.703314062710803 -8.280375043143721 52 57 53
-117.155620164438346 -127.145878853327488 -8.175760346125770 52 54 51
-117.145135840110044 -126.567218212521666 -8.297591340537593 51 53 50
-117.158472892144118 -126.039619306759278 -7.853206241458111 50 51 48
-117.133907441326869 -125.431321783963526 -8.314655320592237 49 49 47
-117.123665911934339 -124.853896006933482 -8.436357451665856 44 46 41
-117.108765063782485 -124.267784421826434 -8.671236877169520 44 46 41
-117.093948382769071 -123.682806231699288 -8.906064370798731 42 44 39
-117.069745658575997 -123.081497851568969 -9.367267980002651 42 44 39
-117.055098482026963 -122.499326505984456 -9.601985491016251 41 43 38
-117.040531642416383 -121.918283818694363 -9.836652951266984 43 45 41
-117.021316879975259 -121.330454480179213 -10.184472705198999 43 45 42
-117.021083590155129 -120.774861375320441 -10.079444424263158 42 44 41
-117.035079861557605 -120.240865822315030 -9.634809800800923 41 43 40
-117.020804120254681 -119.662144528375975 -9.869314105351179 41 43 40
-117.011321004855205 -119.091369332544957 -9.990584955996894 42 44 41
-116.983045648133938 -118.494961059223229 -10.564545344301990 41 43 40
-116.992561982375193 -117.951544705102876 -10.233009765380700 40 42 39
-116.978573317416377 -117.376485099476056 -10.467339041994705 41 43 40
-116.983490839667041 -116.825483495230074 -10.248940482676801 40 42 39
-116.969634808422967 -116.251566545259422 -10.483194545847624 42 44 41
-116.960552673303866 -115.683954537800489 -10.604241008614679 39 44 38
-116.937427619063854 -115.102154782881357 -11.064728252127424 39 44 38
-116.937880337252366 -114.545788038561895 -10.959379750771291 40 45 39
-116.919594415541013 -113.971401360005970 -11.306616778429969 40 45 39
-116.910771333070755 -113.406872691623391 -11.427507572939788 46 51 45
-116.892621016023995 -112.835248026470538 -11.774651297000219 42 47 41
-116.893308921747419 -112.279506032437084 -11.669183851865029 44 49 45
-116.875287407837376 -111.710094663910681 -12.016243174372420 44 49 45
-116.871398880017253 -111.151373114546573 -12.023854634338022 39 44 40
-116.858192244822803 -110.587184335990386 -12.257697891709171 42 47 43
-116.859102489411612 -110.031506197459365 -12.152123423126113 39 44 40
-116.846014346559059 -109.468706055457716 -12.385895700233476 36 41 37
-116.847031250091405 -108.912781822770057 -12.280272739548167 41 46 42
-116.834059754716748 -108.351366413451686 -12.513974959152819 44 49 45
-116.821148563080428 -107.791050101250192 -12.747637016096917 43 48 44
-116.794269012461044 -107.228506047973795 -13.320581074118451 42 47 43
-116.795505293782611 -106.673710950066265 -13.214841541099275 38 43 39
-116.801463295457097 -106.118943939299371 -12.995983979212411 37 42 36
-116.812137976919701 -105.563387838608463 -12.664019211460868 32 37 31
-116.794838065312618 -105.006083801530906 -13.010608695055140 30 35 29
-116.791603244738155 -104.449661929932603 -13.017883751976626 29 34 28
-116.774421045705935 -103.894816136147867 -13.364391618345394 27 32 26
-116.771294043399081 -103.339218182184979 -13.371606614379118 31 34 29
-116.754228501514831 -102.786827035850976 -13.718033405448892 39 41 36
-116.760532333651184 -102.229369070380343 -13.499038098803084 44 46 43
-116.743579698197777 -101.678884852012899 -13.845391246855826 45 47 44
-116.754640582974091 -101.118726868137159 -13.513289090258212 36 38 35
-116.756429177111428 -100.561248225289887 -13.407312955757220 37 39 38
-116.772234825723871 -99.995937938797255 -12.962135070722752 34 39 35
-116.764807063642010 -99.441951192965902 -13.082249835436869 38 43 39
-116.771394023621994 -98.879586844001111 -12.863169585271180 38 43 39
-116.759418843664747 -98.329108676942056 -13.096282588466238 39 44 40
-116.756802511975891 -97.772679633914308 -13.103261836243973 40 45 41
-116.740289363904367 -97.227611110351347 -13.449348988572382 38 42 38
-116.737781097864072 -96.671984667957645 -13.456268276542772 42 44 41
-116.735325284939179 -96.116350017636591 -13.463162555610865 39 41 38
-116.728276160688367 -95.565311517468501 -13.583065833510801 28 30 27
-116.702702840071709 -95.034316754404188 -14.155060242883224 27 29 26
-116.686481561041703 -94.495733151409155 -14.500941013517547 34 36 33
-116.688890984552486 -93.937083833623646 -14.394679926717572 35 41 37
-116.714559955775442 -93.349408573508455 -13.723295906022628 32 38 34
-116.735630059133314 -92.764419742792043 -13.164943200103835 13 18 14
-116.770663318901185 -92.157980477202003 -12.267554713360710 3 8 7
-116.777904943519502 -91.586232082470019 -12.048257868573273 5 11 9
-116.808386586082051 -90.979466287485067 -11.263909105951114 10 15 15
-116.811092003226904 -90.411199278623243 -11.157605416536938 11 16 19
-116.804581530141050 -89.857022199905728 -11.277283312531608 11 16 19
-116.765686922647362 -89.356561554311114 -12.187912931635765 9 14 17
-116.759302335183762 -88.805337162067175 -12.307500210895000 9 14 17
-116.739078810868065 -88.279064805391585 -12.766027801032891 8 13 16
-116.737450602647328 -87.721284733867208 -12.772548240745493 8 14 14
-116.708092852783082 -87.215606715234500 -13.456951395050027 8 14 14
-116.701958989167863 -86.668370011375544 -13.576377681599837 8 14 14
-116.700517975032326 -86.112418846469950 -13.582789742449137 8 14 14
-116.703768436112711 -85.546935257101779 -13.476196654749430 9 15 15
-116.693193857782774 -85.010208438569379 -13.708498065388369 10 16 16
-116.705826442825526 -84.424294886345393 -13.375909127774094 9 18 17
-116.686126390879267 -83.908965889585232 -13.834073645023665 10 18 20
-116.685004401464980 -83.353407581719310 -13.840329041665001 8 18 20
-116.674695304810456 -82.819547355685700 -14.072473939503737 8 18 20
-116.710715987948078 -82.175356300451170 -13.175001670940787 10 19 24
-116.728294700110581 -81.572413755732143 -12.729362926120331 7 17 19
-116.713562558277417 -81.049036539236965 -13.074374771648678 8 18 20
-116.698902870913173 -80.527254032331641 -13.419335540060530 9 19 21
-116.712063267284648 -79.933696153675641 -13.086572786207938 15 25 27
-116.739166301810442 -79.300959063937086 -12.414966558593875 17 27 29
-116.738595792795635 -78.741546459619272 -12.420997803112044 22 31 36
-116.770465347972134 -78.090768835089150 -11.636438103723862 21 30 37
-116.765420040941748 -77.542673320845338 -11.755352468701432 24 33 40
-116.769698651343461 -76.967892338122994 -11.648363220631012 29 38 45
-116.760185705104547 -76.434105126221851 -11.880126491268754 31 40 47
-116.792360091947586 -75.774133017997627 -11.095515604895780 34 43 50
-116.884713458873776 -74.922979431291438 -8.842917723760451 26 36 38
-116.986394452602696 -74.031501040390452 -6.364554851561195 26 35 37
-117.041930638062851 -73.277504318577442 -5.015441178786546 3 10 9
-117.042077782091837 -72.699620080246362 -5.021319238356682 0 3 3
-117.051559667230450 -72.090673971381491 -4.801333555373446 0 2 1
-117.047261822555313 -71.527887755742810 -4.920041555691796 1 4 2
-117.070796196761435 -70.869310552089900 -4.361267433136277 0 4 1
-117.080554274571710 -70.256888805332906 -4.141185397012407 0 4 0
-117.085783824402426 -69.659894591217778 -4.033969874728371 1 6 2
-117.091110071158042 -69.062280782202478 -3.926714470768445 0 5 1
-117.105784289620559 -68.429772180222670 -3.593628448978762 0 5 1
-117.125185534281911 -67.778137988778511 -3.147619018438235 1 8 1
-117.135440221467334 -67.159603890910162 -2.927362323592121 1 8 1
-117.141173671345527 -66.557849926460378 -2.819954731753853 0 7 0
-117.147012925633121 -65.955464156453701 -2.712503026940766 0 7 0
-117.120568179203943 -65.481956269232199 -3.395181467063452 1 8 1
-117.121991947745698 -64.898986361130198 -3.400501143196408 2 9 2
-117.137411714278684 -64.258779091157550 -3.067137700022471 3 10 3
-117.194613442990203 -63.442943884959718 -1.717863771650116 4 11 4
-117.163971555712081 -62.992750955268342 -2.513169001918499 3 9 5
-117.179745768084715 -62.347602540019409 -2.179686854760376 2 8 5
-117.158585707292929 -61.861841859751742 -2.749104358622134 2 8 5
-117.174600652343486 -61.215389063764789 -2.415520472422230 5 10 4
-117.158303702077689 -60.712005123075272 -2.871934001029928 2 7 1
-117.169933217281582 -60.084924766770733 -2.651107564103654 2 7 1
-117.190965534562750 -59.414163216906339 -2.204514721521605 2 7 1
-117.207497305321112 -58.762603108570325 -1.870736159806370 4 9 3
-117.233444404443816 -58.065712603679280 -1.311202175977456 4 10 4
-117.254896605770540 -57.388015887379808 -0.864479849459343 6 12 8
-117.267211053988902 -56.752661096844683 -0.643410915834920 9 15 11
-117.284311446334442 -56.093473755166329 -0.309438838445828 10 16 12
-117.264402484207622 -55.615535643925519 -0.878177299361965 7 13 9
-117.281789773859828 -54.954977337314901 -0.544082083315487 7 13 9
-117.290034704690015 -54.339485294808320 -0.435614420537263 9 15 11
-117.289129798936642 -53.770700360673125 -0.552760998328466 9 15 11
-117.279066799051975 -53.250264123815143 -0.895508869372350 9 15 11
-117.297063784140974 -52.585823148197591 -0.561161943381364 8 14 10
-117.315225482413794 -51.919578521705454 -0.226754785052350 7 13 9
-117.370813776960631 -51.053139141732210 1.010367502843451 7 13 11
-117.417287539966622 -50.230640078590348 2.021863960006101 8 14 12
-117.431330770807662 -49.580459788707365 2.243607330998969 9 15 13
-117.412901076914537 -49.108360600280548 1.675636649901094 11 17 15
-117.417946735962047 -48.509344781930707 1.671884505156385 10 16 14
-117.441836562766028 -47.805458185965108 2.119503397759274 9 15 13
-117.484602887138877 -46.993397075160438 3.018474787154361 10 16 14
-117.513565029461702 -46.256908073715536 3.579043550097879 8 14 12
-117.547408796752308 -45.490472944162832 4.252498300073341 6 12 8
-117.529999351863850 -45.020525697673065 3.685037853621594 6 12 7
-117.526792681794632 -44.470480909215446 3.456124136484732 4 10 6
-117.476916478043691 -44.199553752920110 2.099168123204038 1 9 4
-117.516223731810499 -43.401152364712360 2.885766426544166 4 15 9
-117.555766538760750 -42.598671306671989 3.672435423628798 11 22 20
-117.623712498212399 -41.620205167783602 5.136034198190600 50 60 60
-117.724821924669499 -40.431856292545767 7.389350027695031 13 24 26
-117.680557450492827 -40.137475718373572 6.145696113715587 5 15 16
-117.627019119315889 -39.907875944782155 4.676554669817790 13 18 19
-117.568893149915482 -39.714958456369118 3.094737219787504 18 24 23
-117.614519781837231 -38.868863099034726 3.994726638912795 21 27 27
-117.575557116266111 -38.563599437959063 2.864355951836899 19 25 24
-117.560329618620614 -38.110685811624897 2.298114677076285 15 21 19
-117.540561954274992 -37.691127212515234 1.619185857259623 9 18 15
-117.620225047696323 -36.620753715883041 3.309161789786913 9 18 15
-117.714430498477284 -35.447553169211758 5.337612940507597 10 19 16
-117.709589922314535 -34.929582633736615 4.997388839774317 12 21 18
-117.818699357935373 -33.645763123292355 7.364408003952889 10 19 16
-117.823877745593649 -33.059373261938624 7.249990436518232 5 14 11
-117.867278358972243 -32.213049101348183 8.038053695895314 12 21 18
-117.806432918220139 -32.084108855492666 6.344734925068508 11 20 19
-117.726668081139991 -32.095481504590076 4.200373951321609 14 23 22
-117.746985387332970 -31.416622988789605 4.424823619070992 16 25 24
-117.796185626836262 -30.534516896358745 5.326151963227431 16 24 26
-117.807549007257336 -29.918906695130701 5.325251380413192 17 27 28
-117.795289750908694 -29.473892481626123 4.760511414739341 15 25 25
-117.807163630831170 -28.858962702585085 4.759862057064140 13 23 23
-117.804945193700107 -28.347907113857641 4.420963557676288 14 24 24
-117.846120379446205 -27.522919561971051 5.097322923613604 14 24 23
-117.906846759001851 -26.552984098796820 6.224979031668994 13 23 22
-117.871856763499778 -26.288752407983644 5.096931219019552 16 26 25
-117.914030960524727 -25.455896560294839 5.773687516206991 16 26 25
-117.961391877496766 -24.583137356144761 6.563373262065227 15 25 24
-117.999491613786603 -23.778891546506017 7.127615963776663 11 21 20
-117.994482539933941 -23.301743425814159 6.676872575028398 11 21 20
-117.994568545075936 -22.789419112159305 6.339063453302003 13 23 22
-117.951330873741966 -22.613700221230484 4.986263317678578 7 17 16
-117.981012033133041 -21.881111912107187 5.325498437867594 8 18 17
-117.933328022511006 -21.751568288385371 3.860187609070863 7 17 16
-117.973356674842819 -20.942970583819044 4.425308301364339 8 18 16
-118.091745457041498 -19.516907947618130 6.795302493188586 9 18 13
-118.279098633899039 -17.537196908457521 10.744614422773367 9 18 13
-118.198515331157054 -17.679482959513987 8.490350570350500 10 19 14
-118.103288715916278 -17.950219438233553 5.897826957439662 8 17 12
-118.297335662209036 -15.902135826752396 9.960496255064129 7 16 11
-118.266404826284983 -15.663789581159477 8.834656782334605 9 15 11
-118.363580019310191 -14.388522473920823 10.641760255342746 7 14 9
-118.293848554914746 -14.475918178643221 8.613840641119424 6 13 6
-118.377213477952125 -13.312978448213471 10.082916915659553 6 13 6
-118.233711418325527 -14.024744086247665 6.363249381115082 10 17 10
-118.298076663324224 -13.023789596769845 7.381468130584551 9 17 11
-118.328250994294564 -12.307596344228045 7.610249059999774 5 16 12
-118.309133378347056 -12.007447229732485 6.711142593078932 5 16 12
-118.280301434057094 -11.795356855899012 5.586577487790549 5 15 11
-118.226724661521885 -11.800070784549490 3.898111792484116 1 11 6
-118.223273579134229 -11.386372401027742 3.337907976610950 0 9 4
-118.280267316160817 -10.459870493604846 4.131648829921915 5 15 7
-118.310400782615716 -9.332208561246382 3.801880331465128 6 13 6
-118.479848716795033 -7.433506005450483 7.078307005818345 2 9 2
-118.428022994474759 -7.456209847057099 5.390864186144000 6 11 5
-118.320611201247402 -7.974634781962514 2.462484152797799 2 10 3
-118.329796164415669 -7.480647802938263 2.129216696799858 1 10 3
-118.293584915042487 -7.391963846874357 0.780673871665016 3 13 5
-118.308532520246160 -6.857337832725399 0.560603810780719 8 18 10
-118.380101246856128 -5.822625889944756 1.581921198736410 2 12 4
-118.406255281959119 -5.194043659517673 1.587962886810800 6 13 6
-118.468822276074633 -4.242146738123001 2.384108563573420 7 14 7
-118.470286369773603 -3.841789780709939 1.826393481093419 4 11 3
-118.513386689119500 -3.070275679428615 2.171647598674497 0 5 0
-118.541543324996042 -2.437030230373951 2.178599323242651 0 6 0
-118.616869558097889 -1.377824913392403 3.201462166819397 0 4 0
-118.656556262653254 -0.645209917681518 3.434624745899896 31 37 23
-118.479593087280421 -0.859181209637298 -2.966787757088440 35 37 26
-118.146386094520409 -1.785772235659972 -14.756837890026446 74 78 63
-118.219152650411729 -0.529699738354064 -14.624097119401796 83 86 72
-118.167126930638688 -0.751770090602033 -16.420442322445325 87 89 76
-117.492294473506888 -177.878465113542347 -12.259412566031273 75 77 61
-117.615492526665008 -177.890516354765140 -8.542007787832432 40 37 20
-117.305491047966811 -175.285909150642652 -15.146937288427381 40 36 19
-117.191065951058278 -174.063036189688574 -17.320584321766745 36 30 14
-117.300860830007579 -174.394878977873532 -14.382311995568159 36 28 10
-117.350945306735824 -174.304273130864516 -12.807260016189645 33 21 5
-117.396103946411174 -174.172480602887276 -11.345847380490994 35 23 7
-117.342511776632747 -173.364530126330180 -12.155814525392401 29 19 5
-117.180856927170140 -171.830824840882968 -15.463844512933093 23 16 0
-117.147962349649333 -171.169222464854698 -15.818968026444281 21 12 0
-117.139953957061081 -170.672785650184380 -15.606191517688899 21 13 1
-117.210639583637345 -170.693134085109762 -13.576706370993520 17 9 0
-117.261695584415264 -170.575521200090577 -12.001467614849133 49 40 29
-117.127071797660108 -169.242459992518008 -14.740206279754489 58 49 38
-117.119949505019989 -168.742383777565777 -14.527043325996601 78 66 56
-117.064342336719008 -167.929198539295584 -15.448887208236897 88 71 61
-117.145255502475067 -167.987504235282614 -13.192400758857758 90 70 59
-117.172696061369166 -167.697565143832350 -12.184527813978093 109 85 73
-117.161466222480669 -167.159748302152110 -12.084577264416566 121 94 83
-117.126267432342871 -166.471078266084447 -12.551940611288444 125 95 85
-117.101028132886341 -165.844614244349998 -12.792181284360538 127 97 87
-117.104992446426252 -165.396946519611589 -12.351457299449351 123 93 83
-117.041700872325649 -164.537309024348190 -13.499173301341983 124 91 82
-117.041295667492577 -164.060641472791957 -13.171697073749215 123 91 80
-117.007457421451036 -163.381445478543696 -13.638312019917151 116 84 73
-116.988277986624183 -162.790104672695264 -13.764433248695894 104 76 65
-116.969327356025019 -162.199579181041543 -13.890436625877811 96 76 62
-117.031874290819317 -162.084231485279389 -12.087959559715756 95 77 63
-117.099187057725516 -161.987913979137090 -10.172147763585116 98 82 67
-117.137876326896944 -161.718339845487122 -8.936966077684048 96 80 65
-117.133779999030253 -161.199257681080013 -8.722551150536248 82 70 54
-117.148878259715417 -160.786505683024956 -8.054423548518884 58 48 33
-117.368260318111496 -161.511153499314958 -2.509927398652877 43 32 18
-117.321694508971717 -160.739170035528048 -3.316162930178365 42 35 22
-117.166499530113299 -159.373945233428202 -6.730227168432663 59 55 43
-117.163205255793628 -158.847736902779133 -6.515501894826144 63 62 50
-117.226204305704869 -158.676518513827688 -4.713383643453909 47 45 32
-117.308071637624252 -158.597272857851920 -2.457856609418485 50 47 34
-117.354432154108636 -151.327446019585722 2.367281059564277 81 86 79
-117.260657378121081 -150.352036273831914 0.316919217079516 70 77 69
-117.236711720457009 -149.697870820294924 -0.033846611867318 56 63 56
-117.162017119883160 -148.820280555643421 -1.630638119094414 43 48 44
-117.110718569268286 -148.051505950128387 -2.660822517369866 46 48 45
-117.078123718398047 -147.367505174364595 -3.237750970500173 44 46 43
-117.027247119595614 -146.607768431883642 -4.267640477210449 43 45 42
-117.018090512084356 -146.027496644346513 -4.277993995870276 41 43 40
-116.986029760310458 -145.351828321337962 -4.854581167701582 41 43 40
-116.981762178916370 -144.792005854704428 -4.751526412971685 44 46 43
-116.977615160599882 -144.231755970859098 -4.648418380898846 47 52 48
-116.964396560528101 -143.634508582195764 -4.771748766186903 48 53 49
-116.919173107713902 -142.911851992143824 -5.687693257676898 52 57 53
-116.869548529495020 -142.175945963089845 -6.716738500526787 55 60 56
-116.820114384015639 -141.445069842043495 -7.745640865636886 51 56 52
-116.834978638767424 -140.959874966866892 -7.189229787102846 44 46 41
-116.831617891680168 -140.404382532756586 -7.085696634748928 36 38 33
-116.842078936254708 -139.898371370994880 -6.642465194286245 63 68 61
-116.784099650546352 -139.144724156004031 -7.897407689341748 27 32 25
-116.771955957563506 -138.558146932661117 -8.020114009391051 27 34 24
-116.755366280281137 -137.956383586247767 -8.255962476403852 33 40 31
-116.757126499999785 -137.418002035014382 -8.038944455249492 51 56 50
-116.745315057967460 -136.832782614058260 -8.161477851040956 57 62 56
-116.729062466153124 -136.233188826998116 -8.397142725156897 44 49 43
-116.685641227170663 -135.546381955767487 -9.311856024562076 54 59 53
-116.696898279171847 -135.037518690884525 -8.868273135005154 65 70 64
-116.699144993752554 -134.498178028993152 -8.651032248984222 59 64 58
-116.728698182691417 -134.041293658227914 -7.754725965679228 62 67 61
-116.676680460019753 -133.334606858070373 -8.895474197351263 97 102 96
-116.642942520669578 -132.686913470643930 -9.583434654825254 59 64 58
-116.627444254528555 -132.094936860905364 -9.818660254691991 25 30 24
-116.666344944529826 -131.657969074145171 -8.695959377673972 33 38 32
-116.678142322973244 -131.140321065676517 -8.252208423577940 31 36 32
-116.658371055568466 -130.534625051569236 -8.600478318244313 23 28 24
-116.616123635275216 -129.870611483569263 -9.514395443891573 62 67 63
-116.623649011224060 -129.340051286124407 -9.183679997713938 28 33 29
-116.631239536569240 -128.807912061180133 -8.852949638011637 36 41 37
-116.643401521528403 -128.285377282971126 -8.409074559384123 39 44 40
-116.633098725879648 -127.706153293172463 -8.530824509932074 42 47 43
-116.622880234480945 -127.127526230662355 -8.652527985143308 45 47 44
-116.617243741979991 -126.559861718309477 -8.661067719831294 54 56 53
-116.620676295885445 -126.012435419513821 -8.443342761864670 56 56 54
-116.597210990434647 -125.405031975241300 -8.904256332027103 59 59 57
-116.591805075477950 -124.838053264977006 -8.912678699902841 54 56 51
-116.573006190576152 -124.243285981237591 -9.260370915201065 53 55 50
-116.567752305811211 -123.677210744746674 -9.268711252444803 54 56 51
-116.540151137825532 -123.067513032466778 -9.842485906040963 49 51 46
-116.530568430148350 -122.494419699531804 -9.963828263040682 47 49 44
-116.516580197921328 -121.913721116244972 -10.198215377467079 45 47 43
-116.502668821128012 -121.334148488895323 -10.432554134487333 44 46 43
-116.497780971989471 -120.770986941232678 -10.440689369479259 43 45 42
-116.497429965690230 -120.215230269890071 -10.335719087375480 43 45 42
-116.483730895907115 -119.637665603923281 -10.569935608494546 43 45 42
-116.470104434371791 -119.061221432868550 -10.804105860259767 43 45 42
-116.456549555405559 -118.485896443687167 -11.038230346868005 44 46 43
-116.469840602139868 -117.949380761803027 -10.593959041422266 42 44 41
-116.465333601812418 -117.386676251854396 -10.601907375129599 41 43 40
-116.465345083041143 -116.829735797236680 -10.496775865510898 41 43 40
-116.447587433196261 -116.250415428049777 -10.843810954675604 44 46 43
-116.434355199433384 -115.677945644345741 -11.077751698860169 40 45 39
-116.425641250355170 -115.111508695160381 -11.198609927222265 39 44 38
-116.430338460417389 -114.559584297141214 -10.980326263280034 40 45 39
-116.412844879378639 -113.984709684959014 -11.327189260422841 39 44 38
-116.399865284249898 -113.415592413994901 -11.560974634053025 41 46 40
-116.369173224289739 -112.832253803319347 -12.246815517221080 40 45 39
-116.374095439288922 -112.280679527693664 -12.028420607702600 41 46 42
-116.361303811949966 -111.714881809763426 -12.262081888359518 45 50 46
-116.361888241067874 -111.159236072898139 -12.156662955254319 42 47 43
-116.358085880730869 -110.600317366894103 -12.164235222423656 42 47 43
-116.354336417516990 -110.041412705877605 -12.171782039218556 40 45 41
-116.341773910862614 -109.478122093854566 -12.405307902424710 34 39 35
-116.338132596658468 -108.919786902346758 -12.412797119268276 39 44 40
-116.325684502724513 -108.358152263861484 -12.646251202053719 44 49 45
-116.304439648521722 -107.794849766140089 -13.105648562752862 45 50 46
-116.274407781582696 -107.231510950227104 -13.790967743908055 43 48 44
-116.275415681742260 -106.677319334820211 -13.685331255705393 38 43 39
-116.280893042742733 -106.123158240449214 -13.466697393667573 35 40 34
-116.286413974801121 -105.567915626968414 -13.248053820004600 32 37 31
-116.278720628751500 -105.011521907143589 -13.368320415370988 32 37 31
-116.275497941792011 -104.455428186365538 -13.375586289791443 32 37 31
-116.272324906438968 -103.899338627392169 -13.382828368213978 28 33 27
-116.273616022032670 -103.342459105203190 -13.277084058693191 29 33 27
-116.266127370522298 -102.787168564597721 -13.397241373315751 37 39 34
-116.258691099225416 -102.232423730231844 -13.517368012195249 40 42 39
-116.242486760522709 -101.681442617119217 -13.863368292434643 48 50 47
-116.248384047184615 -101.122686272281925 -13.644580840621330 38 40 38
-116.232288324470048 -100.573608471109537 -13.990509567598338 38 40 39
-116.247091929811376 -100.009181967151520 -13.545801959412444 33 38 34
-116.239911092235374 -99.456064632852062 -13.665789646999627 34 39 35
-116.241589017289996 -98.897548436991528 -13.559877136262969 37 42 38
-116.230108168293384 -98.348209068589810 -13.792741930994197 37 42 38
-116.236284966162259 -97.785897294867965 -13.573857359793152 33 38 34
-116.242506713539825 -97.222491112799148 -13.354962550196149 36 40 36
-116.239977441731725 -96.666105598007164 -13.361899700767395 38 40 37
-116.224307856003207 -96.122702353692077 -13.707566154206518 35 37 34
-116.199904665107823 -95.590127057560608 -14.279017046752074 30 32 29
-116.175564105839328 -95.060262902341634 -14.850410069406621 24 26 23
-116.173253430137578 -94.507377479757594 -14.857206616142435 32 34 31
-116.184171217842717 -93.938225352608029 -14.525265497928132 32 37 31
-116.199525526984303 -93.361737707458857 -14.080418586317109 38 43 39
-116.197362777184637 -92.806910318311793 -14.087164355445850 17 22 18
-116.217198639213393 -92.220894925422641 -13.529412673268411 7 11 9
-116.241465785588431 -91.625636152908157 -12.858777341678433 8 12 11
-116.265774958090091 -91.027095496922485 -12.188155687008702 13 18 19
-116.263809800509790 -90.467578553876706 -12.194855200631054 12 17 20
-116.257514512778926 -89.915366445637062 -12.314409926261192 11 16 19
-116.233739182270085 -89.394060896410281 -12.885444447383605 10 15 18
-116.223179423233489 -88.851853720047131 -13.117795180599643 9 14 17
-116.208297127680325 -88.318853502636756 -13.462977913535582 7 12 15
-116.202240773022154 -87.770639908000959 -13.582377175693523 6 11 14
-116.191862839376071 -87.231631224850815 -13.814608000568512 6 11 14
-116.194687408771259 -86.666817511097818 -13.708211762624927 6 11 14
-116.188810593201922 -86.119890675282946 -13.827511888643215 7 12 15
-116.191752890779512 -85.554479599291483 -13.721065478890296 9 14 17
-116.194754557270514 -84.988495809856829 -13.614596562479903 11 17 19
-116.193438929377294 -84.431983415764464 -13.620954415994646 12 21 21
-116.170301028265200 -83.927028535440868 -14.191515687429643 10 18 20
-116.169113931286489 -83.371815033931227 -14.197798682041565 7 17 19
-116.150487586202857 -82.860017401379679 -14.655413191502646 10 20 22
-116.175683038317061 -82.239018220915938 -13.984598720578873 10 20 24
-116.165939942055175 -81.705970590422197 -14.216464481315768 8 18 20
-116.156265445183536 -81.173975287201543 -14.448286592206244 9 19 21
-116.142286407540496 -80.654982716075807 -14.792893021914011 9 19 21
-116.150245978544163 -80.076464320198866 -14.573322401059528 8 18 20
-116.162646871780353 -79.484318490406778 -14.240908455975188 6 16 18
-116.148879374885155 -78.967108942272588 -14.585395331762953 9 19 22
-116.200774096500311 -78.255868642000692 -13.237583609483949 8 17 22
-116.204640126581992 -77.684495784553491 -13.130756656878816 10 19 24
-116.195463818023441 -77.153289542071349 -13.362332313989384 10 19 24
-116.168876070625629 -76.678560024336534 -14.045091740141885 12 21 26
-116.199200236463625 -76.023340671316191 -13.261317070658777 23 32 37
-116.264574465184353 -75.249019884172867 -11.575129462763158 20 30 32
-116.347512781329726 -74.407759541967934 -9.437792758434227 17 26 29
-116.421788206389493 -73.585981133920100 -7.526117584012439 18 26 28
-116.443687715300854 -72.937537573630152 -6.968021264728264 17 23 25
-116.478788213407157 -72.239821734152827 -6.071540167022903 23 28 29
-116.483374508793034 -71.648051274421405 -5.964578604732338 20 25 26
-116.479305792956126 -71.087750359197670 -6.083151408154208 12 19 17
-116.497187522053366 -70.446362571668885 -5.637763437268205 2 9 7
-116.523907381006566 -69.769551094172513 -4.966794199348925 0 5 3
-116.546351119159283 -69.106252352788374 -4.408590434502713 0 3 1
-116.582011982162541 -68.388755917481433 -3.512044871761248 0 4 2
-116.609028871189935 -67.701625264646282 -2.841039756128282 0 6 1
-116.601159623580529 -67.152559938576729 -3.072173952279996 0 6 0
-116.597763502539920 -66.586554693701089 -3.190483706187536 0 6 0
-116.594468713936323 -66.021011806287433 -3.308740223726858 0 6 0
-116.595652069008068 -65.437432382762552 -3.314181186888192 1 8 1
-116.596941105270432 -64.853764455830827 -3.319572503540229 2 9 2
-116.611467112297859 -64.212876813113482 -2.986643635268678 2 9 2
-116.639238221268258 -63.512307998648211 -2.315416029148651 3 10 3
-116.627727878728749 -62.984668143577814 -2.658930454418538 3 10 3
-116.660113856295013 -62.259942125081423 -1.874884888296862 2 8 4
-116.653210227450742 -61.712511586980263 -2.105540308047381 1 7 3
-116.655181444337714 -61.125250849575352 -2.110642254429990 3 8 2
-116.639745757130186 -60.620613902384505 -2.566656655568153 2 7 1
-116.655100989067449 -59.971359762541866 -2.233417209499947 3 8 2
-116.670585730343888 -59.320350961350549 -1.900133868218546 3 8 2
-116.690587335424965 -58.646080465604548 -1.454070234162742 3 8 2
-116.697568015451438 -58.034832491279509 -1.346163698309681 3 8 3
-116.726617334256076 -57.312659362653079 -0.674546985045055 3 9 5
-116.711928627206220 -56.810321439990972 -1.130180368421776 5 11 7
-116.714923250642613 -56.219650055166923 -1.134827828126362 9 15 11
-116.709271478903602 -55.674590402778442 -1.364859959011056 9 15 11
-116.747681816593186 -54.899026057102652 -0.467596779176262 9 15 11
-116.742312997482543 -54.353141645478416 -0.697502036154646 7 13 9
-116.759062122367496 -53.689737025794052 -0.363741414475754 4 10 6
-116.758375821960897 -53.120414730290214 -0.480788943548845 6 12 8
-116.779832747450584 -52.430274940093618 -0.034192439817815 7 13 9
-116.792652187699161 -51.786820125556495 0.187034702646685 7 13 9
-116.814439687094861 -51.092525414683323 0.633746583115453 7 13 10
-116.845210120137523 -50.345739717027861 1.305933321994786 7 13 11
-116.854126651819485 -49.722195085811627 1.414639386977569 9 15 13
-116.876438299931039 -49.021083548250530 1.861531849373819 8 14 12
-116.894520317205831 -48.343488061888877 2.195784048483631 8 14 12
-116.926026057443593 -47.585569035907078 2.868207954863351 8 14 12
-116.935647834323120 -46.956363879332322 2.977193140100127 8 14 12
-116.941028984568106 -46.353132904807985 2.973558104474279 6 12 10
-116.942164883427552 -45.776696442924141 2.857309079595666 4 10 6
-116.939050456599233 -45.227875279030961 2.628452086691368 3 10 3
-116.927253319710701 -44.735030526539170 2.174299738537826 2 9 2
-116.893470227372546 -44.383255384591322 1.156787060425046 0 10 2
-116.908579970382306 -43.727228094043255 1.378980461068579 2 13 7
-116.994857845777304 -42.616024110390299 3.404277248665579 16 26 26
-117.076998951027491 -41.523317355246867 5.316926535949733 31 41 42
-117.066169194731430 -41.028272679719095 4.863214334442802 20 31 33
-117.131077423693768 -40.038913047265375 6.325247736949336 17 28 30
-117.049486559455431 -40.014620734092595 4.068787195775428 20 29 30
-117.021386624571946 -39.644179358646639 3.164660064710660 19 27 29
-117.033536002824476 -39.007712625242071 3.274779698722170 18 27 29
-117.036987349797073 -38.431032519766461 3.159635868338285 17 26 28
-117.000485372447599 -38.129809739560287 2.030483960889882 15 24 26
-117.053449465098851 -37.216838287819492 3.155012976683054 10 19 18
-117.062011716435308 -36.609333870759407 3.152855780224627 10 19 18
-117.137910286827463 -35.530490269291334 4.840943590794382 10 19 18
-117.151466152451746 -34.886586428410048 4.951659529660219 10 19 18
-117.156299285235207 -34.305750573473212 4.837133963654992 10 19 18
-117.197254662436677 -33.467288178077887 5.624108355525095 8 17 16
-117.256477207085695 -32.494587387834308 6.861875454135628 9 17 19
-117.262096495803803 -31.908946582943912 6.747676522671156 9 17 19
-117.222953104248674 -31.654212760883993 5.506880621000533 10 18 20
-117.251534645604849 -30.905082635295663 5.956278299384564 12 20 22
-117.257861286792817 -30.321510210973152 5.842439053797364 13 21 23
-117.241863252585290 -29.907657263770631 5.165372343258838 14 22 24
-117.280308594130744 -29.086642002106625 5.840466649866499 14 22 24
-117.246678718258579 -28.813253538499044 4.712975258523556 14 22 24
-117.226805294174056 -28.440863184059445 3.923622485127510 13 21 23
-117.247954816330633 -27.756870861701945 4.148417437291414 11 19 21
-117.337530617096434 -26.541980681313987 6.063365762050523 11 18 21
-117.373013173120171 -25.744092362240856 6.626421854537739 11 16 19
-117.372415468724185 -25.229832738155256 6.288265727389472 9 15 15
-117.394871388983660 -24.536188338061535 6.513586302242885 9 15 15
-117.413082971486887 -23.877424762279862 6.626376561388895 8 14 13
-117.445323524988453 -23.107608806211307 7.077311768996424 7 13 12
-117.459608305350486 -22.483006763903251 7.077716216362887 7 14 14
-117.437526060581348 -22.155973105683710 6.176914745061509 7 15 14
-117.411060527832007 -21.870508987922996 5.163585335057235 4 13 12
-117.421576188701323 -21.287145740644757 5.051752255291206 2 11 10
-117.432399531326652 -20.703882027614672 4.940067393978637 2 12 11
-117.521943820707051 -19.468358478255368 6.743929369246388 4 13 10
-117.565855559770824 -18.609904079219167 7.421253401840744 4 13 10
-117.494519269724947 -18.720984673558007 5.281950960073743 4 13 10
-117.488122462070891 -18.293213783868207 4.720193063954866 3 12 9
-117.481993658898006 -17.867751988084532 4.158587148924738 3 12 9
-117.624941180572250 -16.171573232591669 7.202703026146082 4 11 10
-117.675512255596146 -15.260904137592565 7.993534275061961 6 12 12
-117.717228329450236 -14.426427957494486 8.559195843878854 8 14 14
-117.703299576325406 -14.076122677758590 7.772914313461769 9 15 15
-117.633426168810871 -14.220165405015573 5.634651005476314 11 17 16
-117.666826606026959 -13.468083116800784 5.975464754108486 11 19 18
-117.724166554622457 -12.506316345958126 6.879867119813071 7 17 17
-117.753778675399644 -11.789993194883531 7.108377752688057 5 15 14
-117.717752417428983 -11.660593167405287 5.759504315829076 4 14 13
-117.700814939023701 -11.368068976580837 4.861519306405285 0 9 8
-117.669912643319179 -11.207321150209992 3.625633361809690 0 9 8
-117.681935257722557 -10.666085762955081 3.404095961754876 0 11 5
-117.694329375256089 -10.125342804335041 3.182741356339506 1 10 5
-117.683258786104076 -9.802446439868694 2.398109295503986 4 13 6
-117.739364799094432 -8.870256680907540 3.191366916765674 4 11 4
-117.752943657446977 -8.329782536865196 2.970581854340622 3 8 2
-117.771713516721007 -7.745425013065326 2.862687320210682 1 8 1
-117.685064836298167 -8.142537898561066 0.275568217755080 2 9 2
-117.704430970285571 -7.564213191004526 0.168021038212373 0 7 0
-117.772554233637749 -6.533801910573674 1.187734397233669 0 6 0
-117.797735714172717 -5.906796428920146 1.193327048803525 1 8 0
-117.818522291668657 -5.324800847202007 1.086421618414590 2 9 2
-117.888438796260928 -4.282029427736454 2.106865628778138 6 13 6
-117.963930328078916 -3.186922469158484 3.240296881982175 4 11 3
-117.986328312120833 -2.598221911795193 3.134093325278741 0 4 0
-117.994475638811821 -2.150054210284744 2.689942223467341 0 4 0
-118.081718684876648 -0.947912531821246 4.049611368505765 0 4 0
-118.081008118537568 -0.593062483448963 3.380465476672697 49 55 41
-117.872304713125359 -1.243978850558943 -4.029363712693453 36 38 25
-117.852793627765422 -1.110268675245581 -5.148662944260735 42 46 31
-117.623707908599584 -1.578258805347803 -14.454726957961697 74 78 63
-117.590199971784401 -1.638883949214876 -15.911298498983371 79 83 68
-117.582453271453147 -1.449599540870760 -16.803823972735586 82 85 71
-117.621281452560424 -0.799483777479848 -16.681081787207916 87 89 76
-116.758301997852897 -175.098896114881541 -15.964930098121556 50 43 26
-116.639748313045416 -173.808706310188967 -18.362962929690781 53 45 28
-116.714941208519960 -173.936881831352622 -16.108493832796739 50 38 21
-116.738348187270489 -173.680057904033532 -15.102209667811820 48 35 18
-116.832220501140640 -173.924651882971119 -12.394170507833621 41 25 9
-116.808909855125904 -173.319753304822882 -12.522407650845167 40 23 9
-116.799910530771044 -172.815328034702219 -12.310187429635334 39 21 8
-116.660581732309893 -171.388967759455483 -15.273855100027333 33 16 4
-116.656953578807205 -170.923476597521869 -14.947805675837770 35 20 10
-116.630307211590349 -170.294955235785409 -15.188740662537555 79 66 54
-116.585404191426321 -169.539641355633592 -15.883150248197694 42 30 20
-116.568630394494193 -168.978714331409236 -15.896948678800157 15 3 0
-116.556728012656620 -168.449623187873414 -15.797230053485833 27 13 8
-116.614247771724294 -168.388718345178205 -13.996597563323292 40 22 12
-116.644127465541359 -168.133533270807959 -12.876341119180012 48 28 17
-116.637316495620851 -167.627726514078745 -12.663088217045470 107 83 71
-116.626124846658797 -167.090721997797630 -12.563111035880667 114 86 75
-116.587664415740875 -166.372763167805232 -13.143195109711456 126 93 84
-116.576956509821741 -165.836909912369435 -13.042974657026861 126 95 86
-116.584729637303369 -165.419038567251732 -12.489262954557176 126 93 84
-116.569858229481568 -164.852253761540055 -12.502211585817662 125 91 82
-116.546104954963255 -164.227730436640030 -12.741721373085483 124 91 81
-116.504418332737842 -163.489662123038187 -13.434414727716813 120 88 77
-116.472107683356057 -162.812088599718606 -13.900282175970545 112 83 72
-116.489909949200467 -162.446940288025246 -13.119512093575338 101 75 62
-116.485202763289635 -161.938668344338879 -12.905278123789486 95 74 59
-116.485193182050295 -161.457163743993021 -12.577662421398657 94 74 59
-116.476324483333556 -160.919547783935258 -12.476580242696798 86 67 52
-116.544229744147358 -160.841846173743733 -10.449434491822387 81 63 49
-116.499635557723707 -160.084534573791444 -11.254575780933720 75 59 44
-116.612561990176872 -160.259526543235154 -8.094702104704311 58 45 29
-116.635609577578464 -159.894407156210036 -7.200563495799003 46 35 21
-116.622910232190947 -159.317348308577238 -7.212578775710824 35 29 15
-116.596978020188672 -158.663427955084558 -7.564292442505860 34 29 15
-116.553394616855797 -157.909703076767073 -8.368913256523598 25 22 7
-116.590402950231450 -157.612602767703038 -7.134819065297023 35 29 15
-116.618552293798970 -157.259914487406803 -6.127252949182349 53 45 32
-116.597815167258219 -156.631962270770515 -6.365355116901441 69 60 45
-116.612842439826494 -156.199839044702628 -5.697460873137061 99 90 76
-116.681260785323786 -156.053105565920305 -3.670780244010814 104 93 81
-116.700873341230221 -155.635227871021783 -2.889686895085362 108 96 84
-116.649708783581232 -154.837817344573807 -3.920101955504833 112 101 91
-117.056085611877592 -154.789641030841125 7.581417685098359 130 112 107
-116.868974664681033 -153.294242669412000 3.042156165945386 132 113 109
-116.730806390624053 -152.061249864044470 -0.251542539804092 121 104 101
-116.711725839886924 -151.426719780343404 -0.488919916627111 76 64 56
-116.605017814567844 -150.367523126130237 -2.989766981682180 45 40 32
-116.643376946434472 -150.014256917877617 -1.755604716903321 58 60 52
-116.629212495477219 -149.406134289252833 -1.879499538321113 56 61 55
-116.597695934997546 -148.716807655228280 -2.455966962759220 40 45 39
-116.544506142453727 -147.929361161978051 -3.598107208731733 46 48 46
-116.509012038738135 -147.227230713032469 -4.287468157239573 45 46 44
-116.469342269417126 -146.508865448137186 -5.089852727896783 42 43 42
-116.469094852498230 -145.968863864115121 -4.873811829039568 43 44 42
-116.438478494263080 -145.294160186842703 -5.449698078369721 42 44 42
-116.451537544542319 -144.810621713786276 -4.894133553288526 42 44 42
-116.425563558475957 -144.157450070966377 -5.356718382717986 42 47 43
-116.421458456913584 -143.597999682314054 -5.253582068208004 42 47 43
-116.361066147895997 -142.803982104779180 -6.620953382685940 44 49 45
-116.344233985292348 -142.194002793149508 -6.857002424902504 44 49 45
-116.288556881558534 -141.428052656690880 -8.110970204143740 38 43 39
-116.289330182920125 -140.891687883530039 -7.894403561638768 40 42 37
-116.268584646850300 -140.269745826777552 -8.243306771773234 35 37 32
-116.291169078571244 -139.815973929240641 -7.461161164704350 72 77 70
-116.253386882681355 -139.129288308922440 -8.262316632206023 23 28 21
-116.233012205092749 -138.510906781136669 -8.611005774601011 43 50 40
-116.199837032298277 -137.846781132571152 -9.298866152002546 47 55 44
-116.227084431961813 -137.403730455466899 -8.403520553224951 39 44 38
-116.211357466521264 -136.803616934370183 -8.638939319368916 38 43 37
-116.191445376431318 -136.189672338271549 -8.987361489923387 53 58 52
-116.154469850503872 -135.518517535315198 -9.787971182774925 54 59 53
-116.151974048563190 -134.966931994394258 -9.683984028013441 47 52 46
-116.158144327489566 -134.443247324424590 -9.353846082348213 49 54 48
-116.172960143187211 -133.945824385250319 -8.797584046497150 50 55 49
-116.132162283829700 -133.268419212164787 -9.710945553679977 82 87 81
-116.095783847708205 -132.608814834925880 -10.511150706480663 41 46 40
-116.076642550923452 -132.005474653135366 -10.859094975596292 45 50 44
-116.104614119970392 -131.544877998763894 -9.963583546226317 32 37 31
-116.119811926772456 -131.042332297658788 -9.407191498302325 30 35 31
-116.109459209348188 -130.463460171008649 -9.528961709352416 34 39 35
-116.094930529653354 -129.873188131235537 -9.763705916391785 60 65 61
-116.080494776514684 -129.284063613233656 -9.998393855667217 30 35 31
-116.074668407025911 -128.719002514737070 -10.006997628608673 31 36 32
-116.094458208849019 -128.221113035011115 -9.337501972260412 31 36 32
-116.084518116149539 -127.643608284395626 -9.459060709968128 32 37 33
-116.091663071149426 -127.109264142779182 -9.128566205906708 34 36 33
-116.073378358218008 -126.511120823638493 -9.476047194325105 39 41 38
-116.076411063576103 -125.965141318309918 -9.258498629960968 41 41 39
-116.062534500242080 -125.378821917174619 -9.492890180273520 45 45 43
-116.061460992691977 -124.822290851741300 -9.388273511519003 46 48 43
-116.051977289077016 -124.246699355697899 -9.509594220162597 49 51 46
-116.055274113689222 -123.698714014391712 -9.291939949129983 54 56 51
-116.024766319640918 -123.079803902673930 -9.978058835447257 54 56 51
-116.007046461278577 -122.489586386573848 -10.325188015103635 54 56 51
-115.993635262391052 -121.909229446180319 -10.559295562056434 53 55 52
-115.992975818522311 -121.353749527933246 -10.454469986670034 52 54 51
-116.000822634909753 -120.813049513615525 -10.123705138717241 50 52 49
-115.987613457069642 -120.233884525069215 -10.357703770134208 49 51 48
-115.982913446546434 -119.670041531743124 -10.365756158238923 48 50 47
-115.969841796504525 -119.092572322296903 -10.599671541322550 46 48 45
-115.956839670079034 -118.516221335424234 -10.833542154119641 45 47 44
-115.964967024344077 -117.972406922584995 -10.502675155876318 44 46 43
-115.952090251695907 -117.396927638255292 -10.736476826983846 42 44 41
-115.956111918345869 -116.845521081832899 -10.518511010290808 42 44 41
-115.934947823903627 -116.260246400894005 -10.978095906517098 45 47 44
-115.934875868311494 -115.703148643704552 -10.873005931981851 42 46 41
-115.922250797767362 -115.130760008146879 -11.106655376065163 42 47 41
-115.930687673998975 -114.582735912843134 -10.775683635950344 41 46 40
-115.909783513305385 -114.002448154453873 -11.235092847863228 40 45 39
-115.897340785491082 -113.432570128187237 -11.468629216846978 39 44 38
-115.868184203939435 -112.848460922628078 -12.153743464527764 39 44 38
-115.864254871039321 -112.289008911232926 -12.161381964516437 39 44 40
-115.851997867230210 -111.722992699675586 -12.394789732173876 45 50 46
-115.843988290673366 -111.161098553785024 -12.515264229779632 43 48 44
-115.848592635761207 -110.608001517539705 -12.297037062677191 41 46 42
-115.849056124480825 -110.051355712593946 -12.191686281247087 36 41 37
-115.832835734658204 -109.485370518672994 -12.537848684828390 34 39 35
-115.808314194207171 -108.917169687747887 -13.109722906922059 37 42 38
-115.796397401532005 -108.356673951945581 -13.342911093708921 41 46 42
-115.788714259844056 -107.798662246757758 -13.463189462079839 43 48 44
-115.772731842766802 -107.238976260252045 -13.809173179409044 44 49 45
-115.765156363005048 -106.682614232276606 -13.929383061727265 39 44 40
-115.757632515710753 -106.126803689149398 -14.049562566539379 36 41 35
-115.762672652225675 -105.572436646143956 -13.831139991129533 33 38 32
-115.767754303375995 -105.016987160458001 -13.612708697386779 33 38 32
-115.772877445941759 -104.460454412276889 -13.394268704858092 29 34 28
-115.769709752960694 -103.903874547515699 -13.401513274471966 28 33 27
-115.770754322540171 -103.346507394044252 -13.295891931153079 28 32 26
-115.759354012427906 -102.791786211670143 -13.528773594072931 32 34 29
-115.756330439042586 -102.235485572977453 -13.535946343152034 35 37 34
-115.740873678307807 -101.684005492453679 -13.881594120776242 40 42 39
-115.742108019586468 -101.126642980089173 -13.775881943553685 40 42 40
-115.726757462625258 -100.577338158513982 -14.121456522623589 39 41 40
-115.723930596099223 -100.022395715084940 -14.128521187229296 37 42 38
-115.712841947793407 -99.472840171941186 -14.361200579689609 39 44 40
-115.722572584497911 -98.909535590811331 -14.029767198716144 35 40 36
-115.719887075603253 -98.354310970506006 -14.036767142903869 34 39 35
-115.717249419808411 -97.799081297913347 -14.043744246338434 34 39 35
-115.714659797127936 -97.243845729860766 -14.050698431580656 35 38 35
-115.712118413984030 -96.688603417191416 -14.057629608619663 35 37 34
-115.705478570821256 -96.137680469378253 -14.177335898411457 31 33 30
-115.686452649802845 -95.601090214364348 -14.635396766547842 28 30 27
-115.675774232805139 -95.056924933505528 -14.867824421078950 23 25 22
