ply
format ascii 1.0
element vertex 684
property double x
property double y
property double z
property uchar red
property uchar green
property uchar blue
end_header
49.674119285111431 -1.185340835026662 -30.860478596176989 148 146 131
48.896566084790209 -0.996530123530032 -31.931608837842560 148 146 131
47.578350731472341 -1.177061142358419 -33.738016303062011 146 143 126
46.500483678019961 -1.207160493533921 -35.217518500135668 146 143 126
46.083555530235941 -0.797841826635572 -35.798287020451625 146 143 126
45.186028317280233 -0.720834604896334 -37.032589026065040 142 139 122
44.348631787399839 -0.610404186907536 -38.185142501179797 140 137 120
42.429727158603839 -1.256758568732469 -40.807976171320860 142 139 124
41.291959915412988 -1.375523420280767 -42.368768529327753 144 141 126
40.214314725099925 -1.462214083645210 -43.847794342161393 144 141 124
39.076613401227632 -1.600909540772959 -45.408413080008842 143 140 123
38.239408463891351 -1.536094767354615 -46.560588667595056 144 141 122
37.402251582452550 -1.478650738477200 -47.712711374181652 142 139 120
36.865625157585598 -1.212242045904567 -48.456463374715923 142 139 120
35.908376794605090 -1.255241751533052 -49.771818580195173 145 142 123
35.011269351455979 -1.262878475327184 -51.005450119592354 145 142 123
34.234410171157194 -1.190246212773528 -52.075716494919760 144 141 122
34.058642170424022 -0.680846015965253 -52.329449852739145 142 139 120
33.342012070712926 -0.574457394921880 -53.318018200006890 140 137 118
31.663711101989151 -1.192772561943252 -55.612808918447968 141 138 119
30.947160389152117 -1.103249100917546 -56.601241642559756 141 138 119
29.990216805273363 -1.201768122561917 -57.916171165106334 141 138 119
29.033311583871281 -1.308713085206397 -59.231032307686718 139 136 117
28.196677113775934 -1.332086237658231 -60.382573042222816 139 138 119
28.081513566864984 -0.807526675198710 -60.554596521061711 142 141 123
27.665846005703401 -0.516439688541054 -61.134751083617630 142 141 123
26.468653585110573 -0.837487945698158 -62.775891320655973 143 142 124
25.752484678159192 -0.792388332815372 -63.764049422409187 139 138 120
24.735729823054285 -0.990345003140355 -65.160200761066505 140 137 120
24.139920151981698 -0.863753557332136 -65.985059375240525 136 135 117
23.423908799808174 -0.838105002265287 -66.973092631149939 137 134 117
22.707952058721816 -0.818658134976233 -67.961088175728491 142 139 122
21.992049737021631 -0.805409271435623 -68.949045955188694 141 138 121
20.674788713807331 -1.285796709234229 -70.752823395903079 143 137 121
19.724373227455999 -0.901406487100402 -72.075846765369334 138 135 120
17.986133935713084 -1.756187247600271 -74.450388021306139 135 132 115
16.789222026197876 -2.177910237325231 -76.090626158285517 133 130 113
17.216518979852495 -1.256874688966046 -75.528512043406977 132 129 110
17.283030468699494 -0.633911846089056 -75.455884496260012 136 133 114
159.372812695330481 -1.079845696767883 117.424397168549689 146 143 134
156.300225825792666 -1.092898515393843 113.240643423265283 147 147 139
150.273843939192659 -2.311174014761616 105.050295690783145 151 151 143
148.467073152560602 -1.882754252646027 102.584472154570676 151 151 141
146.057470544844023 -1.716434737221516 99.301150375532814 151 151 139
140.633746999967514 -2.814019400031636 91.929839475904174 153 153 141
139.550294037770556 -2.152350205059502 90.445888837266864 152 152 142
138.346273933641157 -1.551317507213245 88.798523498145499 152 152 142
135.333757082762418 -1.730867945968878 84.698605190403129 147 147 137
131.959514457156956 -2.093157700902600 80.108462971456817 150 150 140
130.514331605291318 -1.647603754201347 78.134633945425207 152 152 142
128.164882323807291 -1.612146325308576 74.934740935422695 151 151 140
125.634567087746717 -1.678111667620525 71.489840918905998 151 149 136
122.682242197176294 -1.955961260216072 67.472997711165078 150 148 135
120.875327632222891 -1.742125619736924 65.009451780170565 147 145 132
120.093277124690545 -1.076271217876799 63.935562584508176 147 145 132
118.286370916214594 -0.890468270685123 61.472301210397916 146 144 131
115.997170636839840 -0.945696736991836 58.355377644699047 143 141 126
113.466816260503052 -1.134999799937115 54.911765929874321 145 143 128
110.876166888611905 -1.375722800746795 51.386669540579987 144 142 127
109.008971735700484 -1.292943745178393 48.842451782585215 142 140 125
107.443226440490903 -1.081125954544060 46.706987610028335 142 140 125
106.058360507840575 -0.795092218684734 44.816804083180017 143 141 126
104.191189871485065 -0.759251560757937 42.273057757055653 144 141 126
102.022574454107200 -0.890137535165695 39.320943357286694 144 141 126
100.456872415373923 -0.737983883488976 37.186072643934750 143 140 125
99.072059649709317 -0.508345638003898 35.296444189295784 143 140 125
97.024051993353098 -0.629918513918157 32.508253355502490 142 139 124
89.736512162126743 -0.822056155558901 22.582640125054951 142 139 124
88.291503594447690 -0.710070401863878 20.612161307046790 141 138 124
86.846516531411723 -0.611054122779671 18.641805702608593 141 137 125
85.341255065894998 -0.557690395993073 16.589896205448042 140 137 122
83.534528978609416 -0.682620970453450 14.129747198215199 142 139 124
82.089604840906617 -0.624374143226071 12.159781150962061 142 139 124
80.524106958967550 -0.646075288042622 10.026602344457018 145 142 127
78.536534592259585 -0.918193973941219 7.321908003821221 147 144 129
77.031373552677934 -0.935792698709641 5.270680915399907 149 146 129
76.129244104138678 -0.623751567202406 4.036161281410386 147 144 125
73.239657933728012 -0.651183646153197 0.097585296648958 145 142 123
71.071262373799186 -1.105756156558132 -2.851302414048831 144 141 122
69.867738784029584 -1.013437660456113 -4.493668833103328 144 141 122
68.784857668506802 -0.860534390201163 -5.972656057984324 142 139 122
67.641706783551172 -0.753222379689718 -7.533200022936995 142 139 122
66.377976802492810 -0.728514346202433 -9.256926847233387 142 139 122
64.812738547618892 -0.897459032713848 -11.388714206692924 146 143 126
63.368139656943271 -1.006883004164603 -13.357109931247635 147 144 127
61.983876006365094 -1.092175420559330 -15.243759341151474 145 142 126
61.263060040548183 -0.779631079778767 -16.232447248809137 145 142 127
60.421670574809781 -0.548583035850464 -17.384332094912935 142 139 122
58.977196882383765 -0.703296935133435 -19.352321521902269 137 134 117
57.170862762457759 -1.099490549705978 -21.809865798233687 139 136 119
55.786747129194907 -1.243193491204315 -23.695984770236009 140 137 118
54.885190403560458 -1.090066255554811 -24.929142612338438 137 136 115
54.043996847100829 -0.906002410087334 -26.080637548812120 145 144 123
52.539342291810172 -1.160417925570940 -28.129669263388820 149 148 128
51.155348893935383 -1.349312667707949 -30.015381530475395 148 147 127
50.012666985604071 -1.391598035084079 -31.574609971275692 148 147 129
49.171635010710773 -1.244013671283501 -32.725806706186347 148 146 129
48.089354582376430 -1.264929180587969 -34.203292093742220 146 143 126
46.886460530124282 -1.376511896140742 -35.843860823784496 144 141 124
46.347197040989059 -1.049793324305295 -36.586972061696201 147 144 127
45.385697071083911 -1.015363645426455 -37.901090332547938 145 142 125
44.665561159678845 -0.823981450733216 -38.888856393068863 139 136 119
43.161169095389695 -1.180096680847862 -40.936966836188759 143 142 122
41.958458368064925 -1.340068804645802 -42.577125171760088 143 142 123
41.057452203810996 -1.299815134175386 -43.809384536230567 144 143 123
39.734136154963821 -1.564610234167931 -45.612484473674499 142 141 121
38.893548415809775 -1.499383792122597 -46.763045977978379 139 138 118
37.992669780512045 -1.484518753942996 -47.995105013918106 140 138 118
37.695254633485234 -1.044926108865228 -48.411641999564807 143 140 121
36.673797934287748 -1.130225825701712 -49.806703626741012 145 142 123
35.531688404107570 -1.312137094863061 -51.364768651737819 144 141 122
34.570651103482817 -1.371883876354462 -52.678138856370595 145 142 123
34.152798977906627 -1.040877214220986 -53.257659244072329 143 140 121
33.493618008912151 -0.891905875374341 -54.163290498941365 142 139 120
32.291317457860885 -1.152748970833724 -55.802606745851421 142 139 120
31.209751467525749 -1.333860590660723 -57.278784939056010 143 140 121
30.852508043751556 -0.979116181201774 -57.776685781588071 141 138 119
30.072828638748774 -0.947378409130365 -58.845182023549881 140 137 118
29.293201531437774 -0.922420308171114 -59.913633497987576 140 138 119
28.392897917609133 -0.996777401226220 -61.145049214008964 140 141 123
27.432270280288748 -1.125546889552776 -62.457904914766857 141 141 123
26.592418072301683 -1.169094813837839 -63.607698625463655 144 143 125
26.537441368371930 -0.607755218089244 -63.698034994120320 139 136 119
25.395844057764975 -0.899195163880520 -65.255217629514163 139 136 119
24.073138092584315 -1.343615265892227 -67.056760458511263 138 137 119
23.354226991145026 -1.320571233012459 -68.043379674656165 138 135 118
23.058043146086689 -0.966386363857765 -68.459626565801329 141 138 121
22.037338831697980 -1.196154076544403 -69.853561049635317 141 138 121
21.680921148466396 -0.898700255483976 -70.351267202805872 143 137 121
21.022641764190865 -0.849222620765476 -71.256305634036153 141 138 123
19.585472394177302 -0.866311344947906 -73.229206068894683 136 133 116
18.081784530691721 -1.532139407259675 -75.274465369496966 136 133 116
17.604902642872446 -1.359234872717849 -75.934977581576163 134 131 113
161.727075071914356 -0.604124610615773 118.621265864536383 146 143 134
157.915683540899749 -0.896334677197018 113.463520623636214 148 148 138
153.680568045319148 -1.391007751291669 107.734555333981916 150 150 140
149.990139614354746 -1.705082597998969 102.740884595651210 151 151 141
145.089142483806427 -2.543686535546796 96.114567316742608 153 153 141
142.911801081947857 -2.308583197399327 93.162860086187607 155 155 143
140.310752237217855 -2.268866311000296 89.639852060413034 154 154 144
138.496542302825191 -1.922620284581266 87.178433242532122 151 151 141
135.411234453557881 -2.131398106024493 83.002779866124257 145 145 135
132.749601621025420 -2.186453498477490 79.398871666205082 148 148 138
130.753769058199339 -1.977325008104964 76.693175256135419 150 150 140
128.878988119652149 -1.733237543481601 74.150926083498121 150 150 139
126.762084464776365 -1.612961842643409 71.282346505425579 153 151 138
123.918813314511567 -1.835773169942998 67.434483595454793 151 149 136
121.862424263415178 -1.729538068052153 64.647957450219820 148 146 133
121.016652309952278 -1.090877285889798 63.493973408539716 147 145 132
119.505050619608184 -0.765845503252967 61.442300637430890 146 144 131
117.024946236659375 -0.903799878194834 58.084979825091438 143 141 126
114.302706504148304 -1.177435645751456 54.401456831064849 145 143 128
112.125253364673213 -1.217832470901259 51.452638916982835 144 142 127
109.766200626916302 -1.364458368848615 48.259214442697328 141 139 124
108.496754605800064 -1.007197668849007 46.534799020715127 143 141 126
107.106256855974252 -0.720222346466848 44.647300043676211 145 143 128
104.626148261031503 -0.980506076944313 41.291240443849716 145 142 127
102.872461990390548 -0.903241824446856 38.914494962131982 142 139 124
101.482002432174383 -0.660190750453315 37.027429848712188 141 138 123
96.160525857570633 -0.595992367319936 29.816963302297751 141 138 121
89.206678001473335 -0.657618979733593 20.395522868684708 142 139 125
86.244451789992851 -0.503859275514353 16.378973647614345 139 136 121
84.006597142041002 -0.858766123924871 13.351430132893796 140 137 122
82.979603305975274 -0.569141485075809 11.955158168276711 141 138 123
81.347209091705523 -0.623640476768316 9.743461057650933 143 140 125
79.775379456312933 -0.658937801322623 7.613451292602832 144 141 126
77.900846933019025 -0.878441078609906 5.075855251354341 144 141 124
73.609378146057765 -0.870571607882742 -0.742182624656436 145 142 123
71.553275947932875 -1.256332301122390 -3.523781639493109 145 142 123
70.647615915028837 -0.988002868745177 -4.756162307546248 144 141 122
69.439247813908437 -0.906014728233196 -6.396104793436535 144 141 124
68.170362322948719 -0.870696322716513 -8.117474457357218 144 141 124
66.901508790890716 -0.846652603928736 -9.838743354292575 143 140 123
65.753793119750753 -0.760932610239317 -11.396881283705341 146 143 126
64.000575116722558 -1.052834187924200 -13.770050773700916 147 144 127
62.247373184083756 -1.360329965191529 -16.143067432785529 145 142 126
61.523637522631219 -1.049560313073461 -17.130340300297036 145 142 127
60.618282267818671 -0.857836395175137 -18.362078234100665 142 139 122
59.349623874336004 -0.901074123207847 -20.082747922930139 140 137 120
57.657083143983414 -1.222245440603033 -22.373785039134248 141 138 121
56.570162451776142 -1.174754628883650 -23.849754680985484 142 139 120
55.725527207937418 -0.982309623944162 -24.999689397498940 142 141 120
54.335875475191486 -1.147507550757661 -26.882938659802619 148 147 126
53.249070878574358 -1.129101810926768 -28.358664454130263 148 147 127
51.859478600744552 -1.317564918911866 -30.241702679264790 147 146 126
50.893879038836246 -1.240252153630509 -31.554301136505416 147 146 128
49.383211428154269 -1.531418291537353 -33.600077933375417 148 146 128
48.417688079275067 -1.473549489308645 -34.912512704188430 146 143 126
47.391638039371230 -1.464715428835094 -36.306345859173945 143 140 123
46.607918494713076 -1.301665820941970 -37.374260970864555 143 140 123
45.521383072314137 -1.350891343862100 -38.849419374652939 147 144 127
44.495461092250522 -1.368329889658848 -40.243043355892581 142 139 122
43.348426284816924 -1.478045434787627 -41.799495291989217 143 142 122
42.928367825976892 -1.095069194830680 -42.378495126391982 144 143 123
42.144901815223577 -0.968696344184241 -43.446153995546439 145 144 124
41.058580681347507 -1.061376362229377 -44.920967615281739 143 142 122
40.032880059110937 -1.120890588750925 -46.314264387228320 141 140 120
38.825463511428794 -1.318374427483092 -47.951785347544757 141 140 120
37.860424271711565 -1.353447226962237 -49.263495019925216 144 141 122
36.592482982265210 -1.614642230299750 -50.982264225140568 145 142 123
36.051655629779319 -1.361330172160810 -51.723871706064074 145 142 123
35.086747697707139 -1.421201787473682 -53.035388928902563 146 143 124
34.424855496930391 -1.267750765994692 -53.939769251404016 144 141 122
33.944815375886492 -0.986128782465588 -54.599889658851453 143 140 121
32.798261969455368 -1.202461243946134 -56.155474434057879 143 140 121
32.015342896901899 -1.157829091698657 -57.222553558500778 141 138 119
31.050667778566918 -1.256323083021389 -58.533784599114654 141 138 119
30.692086395367312 -0.906043096451973 -59.030999411896204 140 137 118
29.545690485821652 -1.156628908353954 -60.586306946129497 143 140 121
28.581149872778880 -1.278474591580841 -61.897361962918438 144 141 122
27.374198570694801 -1.594905790379253 -63.533881110203140 144 141 122
27.076486642264996 -1.219702052128254 -63.949613329279742 143 140 121
26.778865909480885 -0.846873460048711 -64.365364727467977 140 137 118
25.875140295531295 -0.950067462686322 -65.594846537564365 139 136 117
24.728967285119623 -1.251679782706757 -67.149735464497724 141 138 119
23.885938872418876 -1.323770280173085 -68.297715886702292 139 136 117
23.346093960849828 -1.162210998306816 -69.038848906574117 142 139 120
22.685060784932617 -1.102130239281036 -69.942679076607220 140 137 119
21.963455974614163 -1.096434718954856 -70.927831054702722 141 137 119
21.969538638566874 -0.508722231173068 -70.936790600166233 142 138 120
19.320170504039027 -0.936147318735626 -74.542733201236700 134 131 114
18.356261621659286 -1.160758663271423 -75.853032617232600 135 132 113
17.998893344761512 -0.889764363145969 -76.350011648510502 134 131 112
16.556542656469858 -0.967756585370769 -78.319806448164286 137 136 116
162.936872586069285 -0.574698804328720 118.263917755838065 145 143 133
159.839280057308372 -0.581106933311847 114.092058235085375 151 149 137
156.559341893372249 -0.687359304835978 109.675883333356438 154 152 140
150.787759943334066 -1.818999349250939 101.917042826946783 153 151 139
147.993909610898413 -1.798639699655245 98.153892971023623 156 154 142
146.111610179142986 -1.430813329675100 95.613966913051996 157 155 143
140.765288055095027 -2.510890060886669 88.427164990914605 152 152 142
138.092901560115081 -2.522209157011838 84.827951106580457 150 150 139
136.210543798656403 -2.224062535535609 82.288770201994367 147 147 135
133.538125671507316 -2.279737114220975 78.690028023645880 148 148 136
131.594975774625766 -2.045080973614035 76.069724522762016 150 150 138
130.077239501197027 -1.642635926000035 74.020189661547818 151 151 139
127.890985137375907 -1.547844261967226 71.074190659992894 152 150 138
125.765499801444591 -1.445629200782582 68.209902435958639 152 149 136
123.153807369918880 -1.580610782987037 64.693784524722247 150 146 134
121.696846128918381 -1.215655864577438 62.726419885967545 148 145 133
120.482998122682247 -0.752515463194579 61.085175576205472 146 142 128
118.175181887251355 -0.805757452512062 57.977137372268146 144 141 127
115.381145829902010 -1.106454090481222 54.217381160159846 145 143 128
113.134099894633465 -1.174486386187553 51.191281781902092 144 142 127
110.765497952117911 -1.320381742479998 48.002418094608970 143 141 126
108.943902891397187 -1.224942643800813 45.547113977551049 144 142 127
107.243874871520674 -1.086907249453905 43.254931909621291 144 142 127
105.361519525323018 -1.053176591678406 40.718471615928138 143 140 125
103.904634870550765 -0.826414651896273 38.752492828335591 141 138 123
102.447767849604901 -0.612664133748225 36.786639537880149 143 140 125
97.104763008127662 -0.546359543206413 29.586450360294293 141 138 121
95.283267894431162 -0.576899623201723 27.132395195895100 141 138 121
88.362148496571407 -0.666833456031247 17.806447845405643 140 136 124
85.144842252661988 -0.672392860114168 13.470132449442957 142 139 124
83.870552881933961 -0.513908769615873 11.750080176811792 144 141 126
82.170774707951949 -0.601197350072597 9.460097956328241 145 142 127
78.892857513989327 -0.753018203982680 5.043425288772141 143 140 123
77.740256500745829 -0.576327575029328 3.486688083827602 145 142 123
74.766443485276298 -0.636904372763821 -0.522111776642646 144 141 122
72.762834200583839 -0.985464155764179 -3.218347264071468 143 140 121
71.975117166310753 -0.644069467821574 -4.286185785934350 143 140 121
70.093137883288165 -0.951464016378414 -6.819314613846018 145 142 125
68.758335829535824 -0.952196445380429 -8.619637815640232 145 142 125
68.031533040488910 -0.602753591322156 -9.605841462519180 146 143 126
64.814914430135502 -0.988527809996812 -13.938572077927915 146 143 126
63.054638606446346 -1.295305282481121 -16.308212005653246 145 142 126
61.659184481842161 -1.393978446855145 -18.189370196379912 144 141 126
60.871778937601690 -1.129453112527242 -19.256566479134079 139 136 119
59.537196135818562 -1.212259472459494 -21.056149742117356 141 138 121
57.898622796903226 -1.497328738932404 -23.262517405026045 140 137 120
57.232955136807973 -1.183024990229250 -24.166747298657526 143 140 121
56.141697667119132 -1.144998019076869 -25.640544824961637 144 143 122
55.172096002538765 -1.038756993343838 -26.951526463119109 145 144 124
54.080921222138542 -1.019391019998928 -28.425171460670583 146 145 125
52.685734378388574 -1.206878516054622 -30.305543307109247 147 146 126
51.108138975737532 -1.525840520498466 -32.429874845813259 145 144 126
49.591374714059029 -1.818739239738723 -34.472717191414063 145 144 126
48.865219495021464 -1.601564357092902 -35.457869132890323 145 142 125
47.895856688708449 -1.552861497587447 -36.768372770774477 145 142 125
47.352261177770160 -1.226981827314053 -37.509402949069312 146 143 126
45.896447202167252 -1.522001631484423 -39.470522984295400 145 142 125
44.744756333507652 -1.623086517031473 -41.024836316375939 144 141 124
43.775567170255954 -1.609405194413491 -42.335062530232960 144 143 123
43.475483785698970 -1.143327966169712 -42.750595659310420 145 144 124
42.932179951262142 -0.848410503933094 -43.491446665082435 145 144 124
42.023982153663283 -0.812796387484627 -44.720217819551323 144 143 123
41.237490451961250 -0.699670019332858 -45.786292855828407 143 142 122
39.781917168992365 -1.066217593609023 -47.746791766315340 145 144 124
38.083029342282771 -1.618616189061705 -50.032412314846624 146 143 124
37.174986971819791 -1.620096253227110 -51.260875996089055 146 143 124
36.814517857528045 -1.235237186270602 -51.757543664632237 143 140 121
35.845748584544395 -1.294140543502525 -53.067223601981084 144 141 122
34.755341718473034 -1.450186154360169 -54.539430367559845 142 139 120
34.273391807210118 -1.169523547852853 -55.198627262563093 142 139 120
33.852361711475595 -0.848025579145548 -55.776529442476033 143 140 121
33.127179406654633 -0.755889937981899 -56.760859731051710 138 135 116
32.097812761515428 -0.897214328466632 -58.151560577092226 138 135 116
30.825079121849427 -1.230382724740510 -59.867296280099453 143 140 121
29.917482712988075 -1.298760166451116 -61.095284699530055 144 141 122
28.827364021242715 -1.513807861317871 -62.567021988627744 144 141 122
27.980706885774353 -1.552209226964864 -63.713613221456313 144 141 122
27.073237500943364 -1.644743799565472 -64.941413747263908 144 141 122
27.139617800479883 -0.991715729904998 -64.869032916083171 141 138 119
26.055390149728154 -0.635639147942567 -66.349467328089105 142 139 120
24.965550392003379 -0.895658498294604 -67.820875142424427 139 136 117
23.936609517769298 -1.116991209022362 -69.210956109973523 144 141 122
23.394708420151503 -0.959558143353631 -69.951062984271488 141 138 119
23.157276775215408 -0.562963862295616 -70.284994383030323 141 138 119
22.189364517351038 -0.756339943362300 -71.593700118174922 142 139 120
19.833843716798668 -0.938222005987461 -74.788451349698363 132 129 110
18.805193134118170 -1.212799641512353 -76.178123114972806 135 132 113
18.446436947066829 -0.941935645084798 -76.674436833509162 133 130 112
18.026873933706867 -0.724593486621280 -77.251968732523125 134 131 116
17.607398814369731 -0.510645080073388 -77.829507746142980 136 133 118
163.842453289568937 -0.662683085333715 117.499020062997232 147 144 135
161.098447749737659 -0.527217735881445 113.821698673273431 151 149 137
156.645981791935270 -1.088769862585272 107.864824864655276 154 152 140
153.657847250431303 -1.107089723517469 103.862441401271212 154 152 140
150.852733218731998 -1.078409701312193 100.104594414692031 156 154 142
147.193363079572492 -1.422399318374130 95.207232308700412 158 156 144
141.947518665636096 -2.451640912570239 88.193556692692738 152 152 142
139.691471991289916 -2.284353287062194 85.169340970994085 149 149 139
137.801519069171036 -1.983357502390135 82.633764237365682 148 148 136
134.813233135108305 -2.165698112683599 78.633141547633016 149 149 137
133.045298616147420 -1.850986836259954 76.260768217572149 150 151 137
131.460418993600342 -1.472708107566416 74.132744375568308 151 152 138
129.082289493124534 -1.456031100451848 70.946765200339740 152 150 138
126.154974271618187 -1.703521085500818 67.028503830873234 152 148 136
123.410705551765702 -1.895274814090024 63.354676575920593 149 145 133
122.130921977954529 -1.450558305839005 61.634306377145066 149 145 133
120.912171026383646 -0.989471105224957 59.995428754252231 150 144 130
118.717088978688039 -0.988537230813475 57.054619011782819 146 142 130
116.277919272402400 -1.120545531918332 53.788512869435436 145 141 129
114.265904548598272 -1.073916114322772 51.092230634298403 144 140 128
111.948779975089096 -1.189648254088534 47.989288749902357 144 140 128
109.387562505137751 -1.442632950535385 44.561097340317588 145 141 129
107.680678168601176 -1.306340348547916 42.272213250213809 144 140 128
106.278928689358139 -1.036722204467077 40.390275728116109 141 139 127
105.060272829061105 -0.689660576896434 38.752526336388655 142 138 126
95.976993229257985 -0.651866520699337 26.579573275700596 140 138 125
90.978825896826521 -0.584864193926697 19.879561143164636 140 138 121
89.211092070477108 -0.646088183668327 17.510961492994682 140 137 122
87.687500625438716 -0.592267552340493 15.467816292059354 141 138 123
85.858774294719396 -0.716684491051346 13.018186838763881 141 138 123
80.008876011662977 -0.559542967756541 5.172687636599022 144 141 125
78.546468691767984 -0.552595876461169 3.211613537732035 145 142 123
77.145125243676844 -0.524002637365164 1.331962762150567 146 143 124
75.377587962197808 -0.716841886183035 -1.035376132432106 145 142 123
73.915260323002997 -0.749739259166502 -2.996078211186017 144 141 122
72.452960622622882 -0.795547899651365 -4.956660753610606 143 140 121
70.319250351455182 -1.246460040956836 -7.811320580657991 145 142 125
69.284282073908898 -1.069580767756459 -9.202617055117855 145 142 125
68.554563878246540 -0.720829805320645 -10.187418859477106 144 141 124
67.336555194284799 -0.670205678749125 -11.822426478029826 145 142 125
65.080838536326922 -1.254840507108069 -14.839060162886284 146 143 126
63.252436517080312 -1.600344903387440 -17.286569001413085 145 142 126
62.522875075396328 -1.290954471630496 -18.271040638622992 142 139 124
61.366038127419984 -1.250790027779102 -19.824346054302765 139 136 119
60.209239516978556 -1.220788581547666 -21.377565197687886 142 139 122
58.503035889091592 -1.543777476031522 -23.662047321309984 140 137 120
57.590505329005509 -1.383074919502298 -24.890033295209236 143 140 121
56.922229454492239 -1.075814211813926 -25.792942930444070 144 143 122
55.948747255665069 -0.968889558623626 -27.102075171240074 145 144 124
54.731094403474842 -1.027187885715501 -28.736131824959102 146 145 125
53.025033168546855 -1.411756209439591 -31.020048200884673 147 146 126
51.685327244321684 -1.573023072949197 -32.816372946273731 146 145 127
50.467767387269731 -1.666065939445049 -34.450116445549867 145 144 126
49.616600329767593 -1.528198833355566 -35.596364567065478 145 142 125
48.704423905650856 -1.438273190486417 -36.823791416071032 145 142 125
47.853359152002000 -1.315486053448874 -37.969933253702408 144 141 124
47.246603260732201 -1.035781621115320 -38.791131302542226 144 141 124
45.784992027881458 -1.340202052197517 -40.749381184397009 144 141 124
44.873007432494660 -1.282847436410710 -41.976564533665425 144 143 123
44.022140980842977 -1.191526455156454 -43.122477341343796 145 144 124
43.293468385335544 -1.023251417847377 -44.105921627872476 145 144 124
42.442710489571610 -0.946140978171891 -45.251740092072197 144 143 123
41.530931149440505 -0.919113082794730 -46.478709466583382 144 143 123
40.252745078355446 -1.157901955678718 -48.192808240935562 144 142 123
39.157819247703642 -1.278099911337420 -49.663222147272023 143 140 121
37.940771149697298 -1.494898320228944 -51.295936592354138 147 144 125
37.701058538606446 -1.021487823259415 -51.629567492622556 145 142 123
36.728433562564646 -1.078875238271166 -52.937418479199465 146 143 124
35.572595476056279 -1.277748280612694 -54.488741213854183 145 142 123
35.027666071113785 -1.040479604672345 -55.228221144350641 142 139 120
34.116269998292111 -1.077189164370566 -56.454717790984887 144 141 122
33.327105145220287 -1.031444911762138 -57.518820402844227 141 138 119
32.293618736092483 -1.174256111659143 -58.907535063437734 139 136 117
31.260169619396251 -1.326039809378681 -60.296175206175235 143 140 121
30.532251473285697 -1.256843124651067 -61.278960555453551 143 140 121
29.376684000750373 -1.517723951602711 -62.829774473628362 144 141 122
27.976727242436354 -1.974822332680598 -64.705089169009028 144 141 122
27.126730452431147 -2.022861746149544 -65.849983513286617 144 141 122
27.193412409323784 -1.371903513250930 -65.777725688081460 141 138 119
25.255136374935063 -1.090347140518135 -68.400843595725604 142 139 120
24.222086379240849 -1.312624092166251 -69.788949054106894 142 139 120
23.800288653483378 -1.059219634954043 -70.365783081727017 143 140 121
23.500827624572281 -0.711774360257573 -70.780392805318769 143 140 121
22.956953393373723 -0.562716370746493 -71.519469530408855 141 138 119
22.107499981454126 -0.664642622556395 -72.664069140602521 141 138 119
19.260427746321184 -0.691615654200419 -76.512129486559303 137 134 115
168.175300660330407 -0.654818411632882 121.301640678330585 146 143 134
161.011248898796850 -0.995703572579461 111.761917851246125 151 149 137
156.418371342264152 -1.610134733620959 105.651043010793444 155 153 141
155.256040296953415 -0.905404149466260 104.093525239314772 157 155 143
152.745962665749062 -0.751314693218701 100.747537372336325 158 156 144
147.295319113955543 -1.811224979367599 93.499575995378336 156 154 142
143.314903302218056 -2.317133157676957 88.203173323184927 153 153 143
141.846200948348326 -1.818272360228848 86.240047232100210 152 152 142
138.662145497112874 -2.050404849747901 82.001015886405980 150 150 138
135.723119579885122 -2.207163014768690 78.087422925428370 151 151 139
133.580499380198177 -2.049667055356061 75.230762927425189 151 152 138
131.989246949669678 -1.673155770301859 73.105806008100757 151 152 138
128.988921215817527 -1.925411612376907 69.111662789921439 155 153 141
126.478697038752173 -1.988339097343367 65.767978894376512 154 150 138
123.845935373528349 -2.128066758650817 62.261989286098469 151 147 135
122.989863893730032 -1.492664109933776 61.112966040117783 151 147 135
122.011279102725823 -0.920517278023455 59.801486096335964 152 146 132
119.439787275933000 -1.087045834494307 56.377319967365963 147 143 131
117.419692567947664 -1.021253770989773 53.684705918224608 145 141 129
115.583404698939333 -0.887526313954044 51.236036668981768 143 139 127
113.011912324890929 -1.116724070664254 47.812515887377373 145 141 129
109.766466932039464 -1.689423802514544 43.495500024116183 146 142 130
108.236534490854766 -1.466860154374565 41.453651377360842 144 140 128
106.829156921322465 -1.198460516289060 39.574418857060436 142 140 128
105.789417648799343 -0.762720454972984 38.182740226111349 143 139 127
104.320812779449241 -0.547877955112783 36.222491041782263 143 139 127
95.323732804606422 -0.521586403491076 24.230136546879606 140 138 123
93.610150184117330 -0.519434099908251 21.945837666336672 138 136 121
91.774037971854540 -0.596682329783809 19.499256062239368 139 137 121
88.653348893528857 -0.505741154983498 15.337443786342135 141 138 121
80.637576950924711 -0.638302859637179 4.651012207554459 145 142 125
79.353153618316512 -0.528848253012065 2.936312672658261 146 143 126
77.639794809598968 -0.672671319222227 0.653409319143975 146 143 126
76.416714602116940 -0.552869206862611 -0.979884183700108 146 143 126
74.703406280475818 -0.724692492481117 -3.262523469734219 145 142 125
72.622416474523277 -1.123872959099359 -6.032078201824731 144 141 124
70.725291488312180 -1.434421514589836 -8.557928911468423 145 142 125
70.237753819806002 -0.935463819320769 -9.216699663570353 145 142 125
69.137408621443726 -0.802663008025043 -10.687125206374105 145 142 125
67.424227121121987 -1.044138488262264 -12.969108198263228 145 142 125
65.220756375273467 -1.594543516222796 -15.900229607999421 146 143 126
63.691476530503166 -1.757278647428624 -17.938424380749098 144 141 125
63.020294654121784 -1.411570990903216 -18.840339548409645 142 139 124
62.287877359801712 -1.109241438146203 -19.823372274332854 141 138 121
61.310342695015123 -0.964552276766985 -21.130954558358610 144 141 124
59.658617292030783 -1.247376988935331 -23.331053423223267 142 139 122
58.497276175454928 -1.237809512357147 -24.881889110129265 145 142 123
57.213380942364608 -1.315655011632545 -26.594913311943088 144 143 122
56.481201884858322 -1.054603405615438 -27.577635114899294 145 144 124
55.197386558854816 -1.152463943698332 -29.290491519140460 146 145 125
53.607102075066621 -1.458776370854076 -31.408882853376610 146 145 125
52.200743508334000 -1.659870867286505 -33.283770122143409 146 145 127
51.100929343145708 -1.673323215994104 -34.752944252150172 146 144 127
50.368985318975788 -1.454795439614433 -35.735340775108284 145 142 125
49.575793667197786 -1.283118709930325 -36.798813266518920 145 142 125
48.660042501919548 -1.199907349445214 -38.024460858124485 144 141 124
47.560413492444439 -1.247863761267610 -39.493368398334837 144 141 124
47.012623873518123 -0.933256036592476 -40.232276101945814 144 141 124
45.913090807314177 -0.997895162985574 -41.701057817526390 143 142 122
45.181483738547769 -0.820740978346255 -42.683189659630500 144 143 123
43.959409648530766 -0.987191641213180 -44.314017942004767 145 144 124
42.737368524978322 -1.164284472236836 -45.944752450239605 145 144 124
41.331401175871662 -1.480144836656022 -47.818645533445050 143 142 122
41.029238264392163 -1.034605029080193 -48.232972421982765 142 140 121
40.052606985227413 -1.067320064914588 -49.539160772071284 141 138 119
39.198671743099013 -1.021430002092668 -50.683137837638611 144 141 122
37.854173040142214 -1.333296523619384 -52.475619536175969 144 141 122
36.938999104389111 -1.348369354161602 -53.700531583855792 143 140 121
36.023873760534286 -1.371336347941294 -54.925385619145317 144 141 122
35.476796360052063 -1.134475510402094 -55.663833757852728 146 143 124
34.684451051103451 -1.081793813614343 -56.726486261120328 145 142 123
33.524136626016372 -1.306902124828831 -58.275397477940629 145 142 123
32.915910756290216 -1.133115792133379 -59.094802025917346 142 139 120
32.062386111173922 -1.147326114018379 -60.238356876236168 143 140 121
31.515635677380374 -0.938920574586008 -60.976668530008567 144 141 122
29.742021287119655 -1.660347797698478 -63.335659135021501 144 141 122
28.765926540335570 -1.792344182021091 -64.641082207567223 144 141 122
27.912575431592529 -1.839134118910125 -65.784384718748385 143 140 121
28.040945680103619 -1.139862448574631 -65.631276790365405 140 137 118
27.985377371473049 -0.581191601651300 -65.721302666588770 142 139 120
27.070890655524906 -0.689581068152013 -66.945582922855522 144 141 122
25.481459867654863 -1.332846218531683 -69.060914238642056 143 140 121
24.628394988642455 -1.411782227685677 -70.204022785474592 143 140 121
24.082218723874874 -1.255707449435600 -70.942070452927339 143 140 121
24.149829801733702 -0.616793209899234 -70.870133141133692 143 140 121
22.805972631008245 -1.104213761307337 -72.661114680671176 141 138 119
22.444147912232410 -0.814700975392662 -73.156152385507170 141 138 119
19.954181846110998 -0.541992622817553 -76.512982560173469 138 135 116
178.926895176645502 -0.815006810964281 133.564608547287548 133 133 127
176.037964869176790 -0.618191677530433 129.734269395654053 140 140 132
171.857423525160669 -0.928448139496487 124.199015495965199 141 141 132
158.884976559234218 -2.247426762842055 107.027341849985703 153 151 139
155.503810953271710 -2.395450213177583 102.549164895321297 157 155 143
155.259389027013015 -1.335094837448772 102.211745196794112 158 156 144
152.431731131529489 -1.308193560995523 98.464701426899040 159 157 145
146.590248183404526 -2.522631674928840 90.740153600497166 156 154 142
144.439100289357953 -2.283052916397486 87.886728302759082 152 152 142
142.656983015146977 -1.910357495546053 85.520543094268078 152 152 141
139.644714202860541 -2.066172321568241 81.531120688048276 151 151 139
137.001472729101692 -2.093190763215183 78.028984411633388 152 152 140
134.604250782619943 -2.038884877848570 74.851751664183610 153 154 140
132.514563048048842 -1.873551925807838 72.080547171124749 149 150 136
130.178836380205382 -1.833585890278932 68.984901785361160 153 151 139
127.781595155904128 -1.841263222966412 65.808316284755335 153 149 137
125.322839241280988 -1.897389623409205 62.550799026817401 153 149 137
123.294650326868506 -1.782531303393547 59.861552154659137 152 148 136
122.004592152643696 -1.351995705394193 58.146243260736213 151 145 131
119.914903633956939 -1.297814078153386 55.376183279219390 147 143 131
118.440334958961984 -0.978673510827620 53.417713566665270 145 141 129
116.289147675427657 -0.987310226180558 50.566862119288430 143 139 127
113.707377276687666 -1.217115896909238 47.148264567030736 145 141 129
111.248631671204464 -1.411384754011379 43.892164346938841 146 142 130
109.035941518394736 -1.509639181712632 40.960799256621925 145 141 129
107.868996557320216 -1.122596554566007 39.408758888363707 143 141 129
106.886619909872238 -0.655965852086769 38.100179086234135 144 140 128
95.763973563636540 -0.723253203282586 23.356449424934794 140 137 122
93.735953040905571 -0.881854802367611 20.669936855095017 139 136 121
92.753775743577449 -0.512095930302385 19.362258834966099 140 137 122
85.872378944092148 -0.713516626645084 10.240173689705216 140 137 120
84.275129894857344 -0.734690188180463 8.122179102120839 142 139 122
83.047048189381286 -0.567368011405723 6.490789150878328 146 143 126
80.098787636607867 -0.539376605759417 2.579712287750993 146 143 126
78.378596540640459 -0.683027707168562 0.300075706917852 146 143 126
76.966062953458561 -0.667586422799300 -1.574086364802156 145 142 125
75.122865553922495 -0.910260716268123 -4.015575626018517 145 142 125
72.541341639576714 -1.593615546853927 -7.429622486219557 145 142 125
71.190407878080322 -1.586671732337110 -9.222307349754630 145 142 125
70.577874994498799 -1.160525614963727 -10.042249103104496 145 142 125
69.719272174200299 -0.884450265570892 -11.186362628064160 145 142 125
67.568533222634670 -1.381512338171356 -14.032400948352034 147 144 127
65.725469454448302 -1.713767545301527 -16.473032037002127 145 142 125
64.374700013089026 -1.766142907644373 -18.265184908640663 142 139 122
63.700857962243916 -1.420312246011206 -19.165828724109446 142 139 122
62.842462627420460 -1.192943426609503 -20.309540148627860 141 138 121
62.107195104286404 -0.897395019892020 -21.291139533113466 144 141 124
60.818130588278109 -0.950984324490592 -23.001940448895255 145 142 125
59.529101715717943 -1.015810941821359 -24.712642745075328 145 142 125
58.055482964681531 -1.207757370374042 -26.666306022798523 143 140 123
57.012693182483005 -1.140260597499036 -28.052734787217673 146 143 126
55.785315650592480 -1.199333408279670 -29.682131215351831 147 144 127
54.681066942339839 -1.190199708983146 -31.149416364695298 146 143 126
52.715201351096809 -1.746658926465117 -33.750709407456469 145 142 125
51.795663568689548 -1.640544712820753 -34.974781244979908 145 142 126
50.876176453237306 -1.542383263458062 -36.198795459603105 146 142 130
50.572254951892361 -1.046874412427624 -36.612795401243716 146 143 128
49.037354832828356 -1.369900817748697 -38.646651495428102 144 141 125
48.118020558098181 -1.295571044272722 -39.870493517116927 145 142 125
47.137181223146030 -1.270521847950274 -41.175263344000655 144 141 124
47.018199456613587 -0.671303235931656 -41.346228702762915 143 141 121
44.995246267199775 -0.698104240005737 -44.036522157227608 144 143 123
42.660234051374275 -1.636948199995136 -47.122433951391827 144 143 123
41.310227219383364 -1.912931076208121 -48.912649948267159 144 143 123
41.191578674962557 -1.341052531277929 -49.083493294300467 143 142 122
40.949892229475211 -0.856496824184660 -49.416294642206026 141 138 119
39.846311141168542 -0.983194238399903 -50.882501000756150 144 141 122
38.311760784511165 -1.426015439845983 -52.915291312060816 143 140 121
37.516114783473185 -1.353340559053903 -53.976570575433357 141 138 119
36.351066480077449 -1.553533221804079 -55.523473590383389 143 140 121
35.863417167317849 -1.273007757775408 -56.179942499570075 145 142 123
34.575294146974883 -1.580127455135142 -57.888584107955495 147 144 125
33.471942600485548 -1.762919711739470 -59.354322866131923 143 140 121
33.292407955097858 -1.273656108043096 -59.606046997990944 143 140 121
32.928213130497269 -0.922835065111677 -60.100581929012463 144 141 122
32.071386825150043 -0.942848334259845 -61.242497543742644 144 141 122
31.153020136692106 -1.016444258770200 -62.465279781866627 144 141 122
30.234700387964878 -1.097907585366172 -63.688003492674937 144 141 122
29.378024745031595 -1.140425908640429 -64.829759527959823 143 140 121
28.644600763911939 -1.096088018281067 -65.809655020583818 139 136 117
28.034443957718835 -0.963241649964986 -66.627714399553582 141 138 119
26.685090469172707 -1.407116591128556 -68.416514756327217 143 140 121
25.890218848310255 -1.431510891134494 -69.477165298680035 143 140 121
25.218624407429374 -1.366286327609822 -70.375995943519314 142 139 120
24.239024527456081 -1.549012716013241 -71.679219982945369 142 139 120
23.875632546561746 -1.252771681457723 -72.173577172199202 142 139 120
23.204234963150398 -1.204473547053296 -73.072327760739057 139 136 117
22.841019227972751 -0.915364021034173 -73.566695857139706 139 136 117
22.046515215941298 -0.976079212422411 -74.627148393116215 139 136 117
20.402951658527769 -0.593852207539677 -76.837997568342360 136 133 114
18.629560916866467 -0.922029207373878 -79.201143088178782 131 128 111
180.498102161760301 -0.676771260214637 133.587537777731256 132 132 127
163.896068318606297 -0.745519553800527 111.709561478401383 151 149 137
159.019460854465194 -1.452110351426544 105.291935158958381 155 153 141
155.439557708361775 -1.691828648448392 100.577200768641092 159 157 145
151.612619965123969 -2.061285922492072 95.538546811613088 158 156 144
148.156154033979021 -2.315540322544923 90.986627878018794 156 154 142
145.564178780733613 -2.248993430216017 87.569861787370883 151 151 141
142.848684455838793 -2.256024904692283 83.991226406463198 152 152 142
141.121207978953294 -1.876895404138017 81.709693883530718 151 151 139
138.714452345763505 -1.797947997613182 78.536768371567177 153 153 141
136.431193537073227 -1.687869412011009 75.526159723050569 153 154 140
133.036369244150933 -2.073894355882846 71.056966906344286 148 149 135
131.308875722297671 -1.768505560627348 68.776201587789700 151 149 137
129.272615486707934 -1.613279304451044 66.090400480570423 152 148 136
126.001264970904487 -2.021100916353341 61.784080366017889 152 148 136
123.717979333513668 -2.017266501951427 58.774578176886280 152 148 136
122.175758790201712 -1.699964796455103 56.737632929651880 152 146 132
120.880573450238956 -1.283985585476521 55.024926690447671 146 142 130
118.967840990415979 -1.162807127259756 52.502098559648971 145 141 129
116.869846422860320 -1.144282278911959 49.736379196577786 143 139 127
114.710101028020247 -1.173082280960160 46.889829471154002 144 140 128
112.241572852717127 -1.366611844537001 43.638401589012460 144 140 128
110.575905008247460 -1.199358581861740 41.440339861668861 143 139 127
109.219047465614466 -0.898291447819502 39.647461355641752 143 141 129
107.429896495854280 -0.818883313923509 37.287659996371616 144 140 128
105.702521162722419 -0.724954685380429 35.009014802462247 145 141 129
104.222205384893485 -0.524180928722580 33.054512893249040 146 142 130
102.309585005168501 -0.551813340833797 30.533162928760049 144 138 124
98.669678043218539 -0.563461729361373 25.733927635206811 140 134 120
96.571818753732231 -0.735351580413717 22.970103589728069 139 134 120
94.906317218541545 -0.702639406905505 20.773347199613909 140 137 122
93.240838055588441 -0.684518697358715 18.576730303966684 139 137 122
91.760676346596341 -0.583795343214353 16.623184557804109 141 139 124
90.095245371820823 -0.594030337341238 14.426836488600486 142 139 122
86.517386736687143 -0.791055617235644 9.710684550570846 141 138 121
84.913792460574854 -0.812607575139809 7.595729392799001 140 137 120
83.619066847777304 -0.679433248318903 5.885714274436395 145 142 125
82.015528656605085 -0.727667356556369 3.771006938598788 146 143 126
80.535557225273379 -0.721330749984383 1.818341734464326 147 144 127
79.364470744402325 -0.555110869451478 0.270555694543503 146 143 126
76.219368771765915 -0.709635010358500 -3.877050838590065 145 142 125
73.751141052075113 -1.320396751924496 -7.124327677259231 146 143 126
72.209533014630466 -1.418064492851435 -9.157294456226253 145 142 125
71.779913702821176 -0.882702696397462 -9.733288992425344 145 142 125
70.670815824007292 -0.749073682369391 -11.199535808009529 145 142 125
68.264430950383385 -1.390680110581543 -14.365221667482359 145 142 125
66.475831530308895 -1.686024060477142 -16.721429374773834 144 141 124
65.181488972002583 -1.700971396721447 -18.430103054404185 144 141 124
64.134305820492500 -1.578093509365606 -19.815000111636351 142 139 122
63.087167796579777 -1.464297001186889 -21.199825278558450 140 137 120
62.472557194482064 -1.094892597455545 -22.018188987528902 146 143 126
61.487303012490202 -0.959263244085658 -23.321985023828887 147 144 127
60.069598405923415 -1.100640157642933 -25.192059089109989 147 144 127
58.528351311197397 -1.331586913952813 -27.223826633977382 145 142 125
57.357858594449155 -1.342550767423323 -28.770072887435759 148 145 128
56.619933003787025 -1.089474429857603 -29.749963475183137 147 144 127
55.140577253795556 -1.316015021896070 -31.700526097167653 145 142 125
53.723040528741265 -1.515691654634843 -33.570080368092107 144 141 124
52.490913750828625 -1.607720047100361 -35.196865544850567 144 141 125
51.876775561435153 -1.307866446496213 -36.014739333083526 146 143 128
51.262704311096442 -1.013242289091363 -36.832591315444944 146 143 128
50.030718561487021 -1.131829592072237 -38.459170575452305 145 142 125
48.366170709376391 -1.548569661429849 -40.651756766561704 145 142 125
47.319650387016551 -1.566345216989596 -42.035523102441260 144 141 124
47.014812498205629 -1.093760812897874 -42.448848674610645 141 138 119
46.710060620931330 -0.623658342595021 -42.862189846613035 143 140 121
45.416490866775817 -0.830583682397891 -44.569257107068040 143 140 121
43.381251703626702 -1.557879460871026 -47.246462449199356 146 143 124
41.655049537921599 -2.089378084166000 -49.519231045493484 149 146 127
41.474151925965600 -1.561446738560920 -49.770701165310555 146 143 124
41.046095079989016 -1.207878060425722 -50.345571891916450 143 140 123
40.309040754308683 -1.075461967953653 -51.324637273327397 142 139 122
39.077505475185902 -1.299675188163952 -52.950344776243497 140 137 120
38.278741027513803 -1.226032170405082 -54.010142150955602 138 135 116
36.861813449338584 -1.602612991832001 -55.878166871975822 138 135 116
35.939496341262910 -1.634531707683478 -57.099488247341128 139 136 117
34.342325460365942 -1.541376453621462 -59.218697074323188 144 141 122
34.162138740275140 -1.050610938712620 -59.470124715805952 142 139 120
33.611056067909502 -0.835412804017806 -60.206433761090466 144 141 122
32.750871217974364 -0.854723197535281 -61.346749894653840 145 142 123
31.828901240441553 -0.927613897209635 -62.567815590868946 144 141 122
31.278024922944269 -0.729169133789991 -63.304050904748436 144 141 122
30.232478531954115 -0.909759894273839 -64.686607227361264 144 141 122
29.372507185159520 -0.958061290076219 -65.826727081144895 141 138 119
28.388889732805481 -1.108387820598845 -67.128362635728536 142 139 120
27.405312434223589 -1.267121157782503 -68.429930864254942 143 140 121
25.926938642593271 -1.817528388482270 -70.377629529745178 142 139 120
25.747561470347122 -1.368881873019481 -70.629010904121856 142 139 120
24.640393303239534 -1.648368207643664 -72.091928483356781 142 139 120
24.399335839014896 -1.255058674741351 -72.424091491033380 142 139 120
23.663456627901766 -1.255617215843485 -73.402350268521218 140 137 118
23.236985024317136 -1.015921134006383 -73.976807221815278 140 137 118
21.882515256227151 -1.523113507272747 -75.762508209855667 140 137 118
21.827434583552062 -0.995348767134884 -75.852449237365619 139 136 117
20.913196599432140 -0.595205556303334 -77.082083068399072 136 133 114
20.239611290026062 -0.578000269434298 -77.979467002022574 133 130 111
19.442312705233988 -0.668305976676966 -79.038278033924627 131 128 109
170.732915910485247 -0.986469906878247 118.751193545830063 147 144 135
167.696861215144736 -0.920662875110180 114.770868959416703 149 146 137
165.094735710379609 -0.715432862851924 111.357531179281722 153 150 141
161.004717714233607 -1.109136271074186 106.001547951438795 157 154 145
157.844584581766071 -1.174639826662482 101.860215940041087 156 153 144
152.948556649143200 -1.955119037933113 95.452640876711911 156 153 144
149.230400871734446 -2.307039615353176 90.583483255917599 155 152 142
147.062116592237203 -2.064440156811217 87.738224852657737 154 153 143
