ply
format ascii 1.0
element vertex 689
property double x
property double y
property double z
property uchar red
property uchar green
property uchar blue
end_header
-111.550076166886740 -69.111257689388481 -17.219474905953206 16 24 27
-111.537266386205673 -68.664571632301403 -17.895354334627001 14 22 25
-111.547823923805666 -68.021103230149748 -17.342632763739147 15 25 27
-111.549992524070703 -67.448657117030962 -17.236628903299788 17 27 29
-111.558594372566446 -66.819419341179909 -16.795555329310957 19 30 32
-111.554575836083870 -66.301923493640587 -17.024522397957071 21 35 39
-111.567581550892285 -65.631273304657483 -16.360050538350691 30 44 48
-111.576440425734617 -64.996364342574140 -15.918912380207502 31 42 47
-111.593861120594497 -64.279927187050617 -15.031081947684811 35 46 51
-111.628322041308678 -63.398324550125778 -13.249928581430709 36 47 52
-111.656529817125161 -62.568996350513082 -11.803805265979435 40 48 57
-111.676366179974892 -61.815030452532618 -10.804346603449062 40 49 57
-111.704784319736248 -60.972427415227386 -9.358259295180687 43 53 60
-111.746032458052838 -59.995543497724711 -7.242263070614996 42 53 58
-111.785281493317314 -59.029643826749520 -5.237969028650070 39 50 55
-111.801325943304505 -58.292822942045362 -4.461865691841894 28 38 41
-111.819607879082611 -57.530075050475794 -3.574099944286672 8 15 18
-111.844376597187079 -56.696027783916172 -2.351388207824385 4 11 11
-111.869273286606969 -55.855860694910838 -1.128678244730281 0 5 6
-111.877312943873264 -55.192136863456241 -0.799087488313688 0 6 4
-111.864230923676857 -54.757600714727609 -1.585830975248655 0 6 5
-111.851256583405316 -54.326773459129662 -2.372484770976399 2 8 4
-111.859653210622270 -53.663240792587324 -2.042721273602552 2 8 4
-111.866052062904913 -53.021857003146813 -1.824544400311282 2 8 4
-111.878965795350055 -52.306685593151755 -1.271433708966072 2 8 4
-111.881372011424432 -51.710955766706242 -1.276414729816480 1 7 3
-111.883909083862591 -51.115090241357755 -1.281334546247962 2 8 4
-111.880184047685830 -50.594113797617041 -1.621055917799538 3 10 3
-111.882985946573456 -49.998787479852361 -1.625843491830807 3 10 3
-111.888059953265113 -49.377757397593868 -1.518949794116651 1 5 1
-111.889005266321092 -48.807691354107384 -1.635224420673637 0 5 1
-111.887952923309527 -48.264124281131444 -1.863040836750969 14 20 16
-111.882761693395693 -47.774254126986889 -2.314002322615835 22 27 29
-111.877704895772311 -47.286415355556720 -2.764878586490994 32 37 40
-111.877068528994045 -46.746749120568765 -2.992455847679167 44 49 52
-111.868001390108148 -46.316819064808101 -3.666372331407729 52 57 60
-111.865503843915675 -45.807578380338690 -4.005385673892590 47 52 55
-111.863151383469855 -45.299806915423964 -4.344314484438570 46 51 53
-111.880292450471728 -44.541269663580238 -3.678768952206298 40 46 46
-111.880406169617132 -44.005653058743668 -3.905945689982161 35 41 41
-111.884983421916957 -43.413793852460564 -3.909848252306233 24 30 30
-111.902663621959945 -42.648638642858593 -3.244112922638863 17 23 23
-111.929174057751894 -41.763483421639926 -2.131952919177252 12 18 18
-111.951583531950206 -40.931421197869533 -1.242926058631696 4 11 4
-111.978534941613660 -40.035394267376475 -0.130667002746463 4 11 4
-112.010048303212315 -39.073743674318813 1.204816747823145 3 10 2
-112.011453422442699 -38.528421574199413 0.978157907882832 0 7 0
-112.013035762640328 -37.983970742414819 0.751592818248469 2 9 1
-112.003929406394093 -37.594270418892407 -0.032787207007743 2 9 2
-112.012389020764601 -36.959768678875108 0.075587483274148 2 9 2
-112.014512198491744 -36.418454296590880 -0.150686586489599 2 8 3
-112.023370253705025 -35.783179382289916 -0.042129242145592 4 10 6
-112.021508409138519 -35.306496135281975 -0.491362222012810 6 12 9
-112.035148914391826 -34.606664568375628 -0.159463714177292 7 13 11
-112.055594723708538 -33.807609001130970 0.507245720075559 5 11 7
-112.067510876587065 -33.135797508719193 0.727748843427975 4 10 6
-112.068660868827124 -32.627525255196076 0.390490439372769 7 13 9
-112.100848639771172 -31.654954363327402 1.615325532019540 6 12 8
-112.111275060184198 -31.011388668380281 1.724547835729084 9 15 11
-112.115304958542595 -30.468413853175107 1.499168842909370 8 14 10
-112.121764146975011 -29.892144786183387 1.385468184595481 7 13 9
-112.132886047399694 -29.247373825102752 1.495010797148893 4 10 6
-112.146476246574835 -28.567077844310905 1.716227443410304 3 9 5
-112.144736909043800 -28.129816409805613 1.156599974088408 10 16 12
-112.145430060497489 -27.659791396237928 0.708657832101096 6 12 10
-112.153042503799753 -27.085203637912468 0.595526193518538 7 13 12
-112.185540173643147 -26.117478972545282 1.709700540459949 10 16 15
-112.191447341547899 -25.576271639833021 1.485237820541727 10 16 15
-112.211094157849118 -24.817921321261885 1.930266249006934 13 19 18
-112.231044275900516 -24.056968447984321 2.375412986586781 13 19 19
-112.235484120016139 -23.551506418994240 2.039757363445091 13 19 17
-112.253755598451889 -22.824420742674899 2.373590772737884 13 19 17
-112.258712978758467 -22.319839629718544 2.038191804847258 13 19 17
-112.284400666045997 -21.477144650613166 2.706959733164894 8 14 12
-112.285344281901246 -21.048551771558976 2.148705009342535 10 16 14
-112.320826722180996 -20.048310279404838 3.263972548196534 12 18 18
-112.329203488299612 -19.504610804888220 3.040665622731240 13 19 19
-112.335555913805294 -19.000413677103886 2.705937992234283 13 19 19
-112.314513770855598 -18.966736841667828 1.032641576781486 13 19 19
-112.314392222334092 -18.586515751882608 0.363516312178803 14 20 20
-112.337679638303996 -17.812505955634148 0.810125200176202 17 23 23
-112.368304439658075 -16.915924378106322 1.591559230032885 16 22 20
-112.380693154819539 -16.336765657045994 1.480665492320412 17 23 22
-112.402742244169389 -15.595623615384387 1.816161408496242 8 14 14
-112.420471441287276 -14.933870954736511 1.928690127975244 13 19 18
-112.405622255574826 -14.846086054548003 0.479517210386035 11 17 17
-112.421589795067177 -14.227461651578393 0.480788214797059 8 14 12
-112.471029251978010 -13.025351553356167 2.044090347276324 9 15 13
-112.471170159609031 -12.695139727046454 1.264746526348290 7 13 11
-112.454882044981986 -12.663754447654133 -0.295393105192375 8 14 10
-112.467406198358461 -12.129873243947458 -0.516614870415822 8 14 10
-112.480257261744185 -11.596546388264676 -0.737674536828791 6 13 8
-112.500657638447890 -10.934602009851684 -0.623869907639175 6 12 6
-112.526272677356189 -10.184814135116435 -0.286757049320784 4 11 4
-112.528082488708918 -9.868928832444336 -1.065155002324019 5 12 5
-112.561763813640923 -8.985618212486150 -0.392981022352018 2 9 1
-112.593495742388427 -8.142447983270067 0.167814673453535 3 10 2
-112.554662487206798 -8.585578473707216 -2.506814896059694 3 10 2
-112.577260034025471 -7.922710971599842 -2.391968650394318 4 11 3
-112.585462865511218 -7.528883911208942 -2.946392728305199 3 10 2
-112.613799850574296 -6.774574562977834 -2.608024242074521 3 10 2
-112.622699397111006 -6.382804736218441 -3.162093837753901 1 8 0
-112.669387162886963 -5.304616074540242 -2.042268058964311 0 10 0
-112.741784503735261 -3.758052401743158 0.193624722338654 0 9 0
-112.774724904526323 -2.942932845974307 0.644428401780317 7 14 6
-112.836013389632797 -1.610323428412283 2.322914658602571 0 5 0
-112.880289487276755 -0.597687853103606 3.220543704632405 61 66 58
-112.789011278736524 -1.335675306986146 -7.236262184386419 53 56 42
-112.646045541611826 -3.275841194563075 -22.250634865108907 48 55 46
-112.658009287834460 -2.999576928073275 -22.912908486325364 26 32 25
-112.653841209892548 -3.036191858968354 -24.244832203694045 24 30 26
-112.663622793304327 -2.818886946915300 -25.018401750785983 24 30 26
-112.621010405114632 -3.598538893724119 -27.913093030013215 26 32 28
-112.132551070110935 -177.160968431764246 -20.152107468520825 48 43 24
-112.124439671791976 -176.746402180434472 -19.716819732676328 50 42 23
-112.114098147820968 -176.294350974598700 -19.393843617687565 35 27 8
-112.106398782325996 -175.876382712261631 -18.958393785360670 34 25 8
-112.043336137408517 -174.649540035980863 -21.107510059997367 21 14 2
-112.062704520602139 -174.617186122666425 -19.435694053142612 28 25 10
-112.079681802855745 -174.542299341266926 -17.876318637879933 37 30 16
-112.070386404114657 -174.083206837007225 -17.552914539788901 31 21 8
-112.039850932813366 -173.317048898671004 -18.240562362659460 38 23 11
-112.054782156904920 -173.194766915806355 -16.793512522146699 48 27 13
-112.046085478557217 -172.731435796410750 -16.469865628466579 65 35 25
-112.025789166779688 -172.101086286152821 -16.707781588461415 84 50 41
-112.008114874309413 -171.505039105131033 -16.833231207379981 99 59 53
-111.997724684011317 -171.007616122347542 -16.621604293608669 109 69 62
-111.989874716042976 -170.541703186820826 -16.297578912515746 101 65 58
-111.975221331407297 -169.978356244114849 -16.310387854580370 94 62 55
-111.960794118326021 -169.415313530422196 -16.323085465366489 81 55 47
-111.951221051679212 -168.915512281661279 -16.111092123127747 40 17 9
-111.930295814604307 -168.258920160950368 -16.460437972122151 22 2 1
-111.914231593738023 -167.666110718576419 -16.585084010633778 73 36 34
-111.875439989604857 -166.767722981120841 -17.832337071502678 107 60 60
-111.857601250645885 -166.148974015584145 -18.068957926850572 127 77 78
-111.824017343407093 -165.320981192404616 -19.091277263318716 138 87 86
-111.827164517656442 -164.975206414274027 -18.317318704995785 134 86 84
-111.837230424047718 -164.714421746249712 -17.206598748271432 124 82 79
-111.847368031213662 -164.448361653414224 -16.095898792740002 118 79 74
-111.844032844534397 -164.003126041849555 -15.658641828750405 107 68 63
-111.831835245553052 -163.441093650979781 -15.670262400033238 92 55 47
-111.813089594350757 -162.794001373747022 -16.018467755955896 85 48 40
-111.792324557988266 -162.120636360117544 -16.478768502211864 95 51 50
-111.776255490142475 -161.505459342316129 -16.714505985112737 91 45 45
-111.771529747077096 -161.029624919895298 -16.389088112383945 66 18 18
-111.760278315109858 -160.470363157518563 -16.400227521139527 129 81 81
-111.746982957293397 -159.884255363152050 -16.523479961629391 107 62 59
-111.738292969773340 -159.352458633475834 -16.422252387842036 91 50 43
-111.734173618530036 -158.873317562947818 -16.096578456334214 92 55 43
-111.734591183215187 -158.445177985109439 -15.546491325971289 107 71 57
-111.730727443586730 -157.962571291668468 -15.220730784140699 116 83 68
-111.726993847479051 -157.478501306225468 -14.894923044495584 102 75 58
-111.723388449690347 -156.992964408236929 -14.569069074881781 76 55 38
-111.726453698669658 -156.581346502068385 -13.906686350641309 52 35 17
-111.747027504982100 -156.365449867362400 -12.347041855854087 36 21 4
-111.771963369883650 -156.191200058133091 -10.563164105652561 42 29 13
-111.792564873705672 -155.959724166431556 -9.003666725590307 51 34 18
-111.785071724508597 -155.408313183446921 -8.902068487814290 63 41 27
-111.786348568039301 -154.951546492111305 -8.351864954657287 83 60 46
-111.774803330080047 -154.351291952082846 -8.474425763366213 99 73 58
-111.774155169851966 -153.867787840586033 -8.036277252026935 107 78 67
-111.765032434718208 -153.290497766919202 -8.046583873978705 108 78 67
-111.766750353463436 -152.826663074026754 -7.496242086441640 109 81 69
-111.762152084800050 -152.293067753552265 -7.282216677256656 107 82 71
-111.755538041052731 -151.736401787965889 -7.180251970622550 106 89 79
-111.751174924410236 -151.201164281661363 -6.966130969360506 48 35 26
-111.736303345625387 -150.557129508279075 -7.312451509894828 35 30 25
-111.730062950021434 -150.000038137332666 -7.210312430180835 36 36 32
-111.713357031230728 -149.337425873097800 -7.668560625052663 40 41 43
-111.694691180232766 -148.656376960909313 -8.238795107374045 46 47 49
-111.674073874696333 -147.957707770132345 -8.921003418157255 45 47 46
-111.653618309674002 -147.262433928218769 -9.603099402801377 50 49 47
-111.654334717834487 -146.769813180891362 -9.164391928734830 51 51 49
-111.640450334724264 -146.137544094161711 -9.510119088118898 51 51 51
-111.624603515652751 -145.487640032995557 -9.967825480711582 55 55 55
-111.602621037102381 -144.782704101779899 -10.761610277213208 55 57 56
-111.597490356042400 -144.232358529909163 -10.658870875966471 58 59 61
-111.586205188635915 -143.625882091808478 -10.892230197857316 58 60 59
-111.570874425411390 -142.984016792557867 -11.349606964087002 59 61 60
-111.561901155939694 -142.398469292484066 -11.470785964937022 61 63 62
-111.550958282452200 -141.795814477824052 -11.703942196700439 59 61 60
-111.529771162313523 -141.106994453478848 -12.497180607338777 59 61 60
-111.512857210782897 -140.456468827952420 -13.066262795436785 59 60 62
-111.506387705958247 -139.893365880895487 -13.075154085881962 60 61 62
-111.502069160881518 -139.346990855383325 -12.971985290736342 53 55 54
-111.485483795247788 -138.701882283374999 -13.540854524014406 53 55 54
-111.473125136415391 -138.091783376259514 -13.885623573337625 50 52 49
-111.458816627815139 -137.467559704813368 -14.342329702321678 53 55 52
-111.456909667134553 -136.938941496913827 -14.126965548702657 49 49 47
-111.444840405380603 -136.332866300194581 -14.471554733383101 44 44 42
-111.434911193209956 -135.743505309055081 -14.704089193043359 41 41 39
-111.425071009147757 -135.155297116913204 -14.936569195622440 43 43 41
-111.419393933748992 -134.597177593834857 -14.945030093660051 44 44 42
-111.411756279360134 -134.024920249872793 -15.065433338579282 44 46 43
-111.410294599419586 -133.495036776962166 -14.849869188188933 47 49 46
-111.404834260216120 -132.936815385797928 -14.858227448952988 45 47 44
-111.407552950802696 -132.432164076520422 -14.418685926454827 43 45 42
-111.400196788265205 -131.859851289950115 -14.538955077335828 41 43 40
-111.401001492466733 -131.339471049825022 -14.211349990070886 38 40 37
-111.387720786988396 -130.729570442697138 -14.667416987068094 33 35 32
-111.382593075580516 -130.171054398900708 -14.675619152842472 32 34 31
-111.377528950364663 -129.612583597092708 -14.683790433501997 32 34 31
-111.382587571569005 -129.112882677854913 -14.132219654444896 37 39 36
-111.377634773925791 -128.553136619461924 -14.140350803231968 40 42 39
-111.376756556214048 -128.015832986213354 -13.924583905949248 42 47 43
-111.367907926834633 -127.433765876799058 -14.156526338917331 50 55 51
-111.363131500228093 -126.874138423239714 -14.164571891545876 53 58 54
-111.348409887895556 -126.262626932687112 -14.732203679995877 53 58 54
-111.343756592355348 -125.704432613925505 -14.740175575167910 51 56 52
-111.341153214235746 -125.156112346068483 -14.636206273385739 47 52 48
-111.340592032970292 -124.616848525585013 -14.420307884145785 48 50 49
-111.334099868219070 -124.048641108659226 -14.540121442815263 48 50 49
-111.327663074820762 -123.481008503684563 -14.659902595191113 42 44 43
-111.321280583740048 -122.913949527677360 -14.779651864873273 41 43 42
-111.320906301863261 -122.372901233674497 -14.563682432088740 40 42 41
-111.316605921864522 -121.814377282421106 -14.571488886748284 43 45 44
-111.314333543071712 -121.263814863780752 -14.467384315607120 42 44 43
-111.306167055140222 -120.689743741331412 -14.698918107734045 39 41 40
-111.307937821874617 -120.153741218056808 -14.371011667473141 37 39 38
-111.305791645303927 -119.601891353097486 -14.266859973953217 36 38 37
-111.299739804357813 -119.035825254854984 -14.386440841554730 35 37 36
-111.295705711387498 -118.476899779316767 -14.394124038503776 34 36 33
-111.287776173405902 -117.905388136989970 -14.625518128572224 32 34 31
-111.289730444405137 -117.365140661014536 -14.297567595930673 29 31 28
-111.289749028218807 -116.817520757756313 -14.081477862421849 30 32 29
-111.287837059203014 -116.263343503456284 -13.977238081798077 30 32 29
-111.280077030230686 -115.692992920738916 -14.208539127967697 29 31 28
-111.270403819229728 -115.118802757883017 -14.551653841509648 32 34 31
-111.268610191878210 -114.564946240040385 -14.447354145137865 33 35 32
-111.264894724136070 -114.006160843643812 -14.454883470964916 33 35 32
-111.265124291107341 -113.455645069044905 -14.238722612495167 34 36 33
-111.259526558770403 -112.892487110800303 -14.358056301148679 36 38 35
-111.255918823337296 -112.333469497663174 -14.365536478531936 43 47 46
-111.244551631483432 -111.761215105844940 -14.820300545764184 50 51 53
-111.237127285759186 -111.197227435443125 -15.051375505565602 55 56 58
-111.227798977367968 -110.631569325160740 -15.394237394177964 44 45 47
-111.222402145316352 -110.072545233256278 -15.513432420860681 38 37 42
-111.217042316569760 -109.514073973325040 -15.632604054711948 34 36 36
-111.215599693120126 -108.960060438616850 -15.528138055530121 31 33 32
-111.208370732744797 -108.400468270403508 -15.759074298538195 43 45 44
-111.205054996937037 -107.844788843046217 -15.766380422678424 37 39 38
-111.195965280945870 -107.285704420267635 -16.109060503236662 34 36 35
-111.192718727684763 -106.730853127840987 -16.116325006274820 41 43 42
-111.187571701329631 -106.175413729287200 -16.235363627719153 39 43 42
-111.182459387668302 -105.620522825081267 -16.354379996801896 34 39 35
-111.175452391907342 -105.066130028659160 -16.585156532953562 32 37 33
-111.174265657567247 -104.512162109536547 -16.480567647754668 28 33 29
-111.178885340681077 -103.956171905394058 -16.040645153982808 26 31 25
-111.177750132616552 -103.400306651900536 -15.936051149006175 25 27 24
-111.168950341818714 -102.848049923796538 -16.278522249454454 26 28 25
-111.162111957008847 -102.296116190511654 -16.509192810332820 26 28 25
-111.162991122883028 -101.738945624290849 -16.292789687087776 30 32 29
-111.163895350661647 -101.180687936733392 -16.076385764599564 27 29 26
-111.159072666526029 -100.627717338073239 -16.195243809240367 24 26 23
-111.152367786229135 -100.077686285568092 -16.425830916768234 32 34 31
-111.147614038122725 -99.526072522613376 -16.544642016057338 42 44 41
-111.142894111934737 -98.975000405761293 -16.663431359621256 39 41 38
-111.134384438585286 -98.430893941775324 -17.005679774113759 40 42 39
-111.137377010560499 -97.867510555488963 -16.677470671391632 31 33 30
-111.132756448747230 -97.317516243108699 -16.796201384996351 38 40 37
-111.133893686097295 -96.755977782494483 -16.579719762173056 38 40 37
-111.123618430563369 -96.219145029744283 -17.033596838087419 26 28 25
-111.126722334977202 -95.652480818410680 -16.705368245488643 26 27 25
-111.126043051276724 -95.093866076469709 -16.600584429724847 20 22 19
-111.127296711744734 -94.529585569542846 -16.384075335741159 36 38 35
-111.124775512162799 -93.974984396750486 -16.390990257458498 33 35 32
-111.114686676551869 -93.443011051246032 -16.844728130400767 29 31 30
-111.108439418329340 -92.901342241397188 -17.075010236332361 32 34 33
-111.106026819181622 -92.348346099116185 -17.081856682588807 2 6 5
-111.105545474357456 -91.788865296152650 -16.976987088346277 10 14 15
-111.082350095794126 -91.309787892275011 -18.212462796455014 9 14 14
-111.081948265404293 -90.752460036652110 -18.107533001411099 11 17 17
-111.083473296774486 -90.187285991870169 -17.890903282152010 12 18 18
-111.083138048579002 -89.628573668452972 -17.785955885437005 16 22 19
-111.065817385316436 -89.139810798450654 -18.686144192489706 12 18 14
-111.046661149118989 -88.663490250366664 -19.697941441193024 8 14 12
-111.042673828229198 -88.125025714004977 -19.816250532733903 7 11 10
-111.050054944528085 -87.535189948027678 -19.264496483241771 14 20 18
-111.059352021233764 -86.933696296173068 -18.601086960413681 14 20 20
-111.051702973196157 -86.411665621675411 -18.942696417515805 9 18 17
-111.044100307808492 -85.891248260328169 -19.284267078674503 10 15 18
-111.040312758868623 -85.352968020230549 -19.402478702945274 11 17 19
-111.044101689880748 -84.775172858701552 -19.074036972432054 10 19 18
-111.042281061058702 -84.226569665565947 -19.080555003281432 11 20 19
-111.042385354209060 -83.667390731507140 -18.975402134550933 12 18 18
-111.046293341260650 -83.085993365396334 -18.646940527337875 10 16 14
-111.044602429678989 -82.536232898753326 -18.653408414301680 9 13 12
-111.044836544887175 -81.975077562948456 -18.548213783239731 16 17 14
-111.045116115609630 -81.413351941306317 -18.443003276654196 19 19 17
-111.051074104651647 -80.815313354952409 -18.002873367035022 18 16 14
-111.047692184757338 -80.275999381148821 -18.120901580501112 19 13 13
-111.038734117448584 -79.774574034586109 -18.573784051864465 17 9 10
-111.037333256932897 -79.224374260699690 -18.580117701402685 15 6 7
-111.037858794776596 -78.661140319617118 -18.474805050879155 19 10 13
-111.038435985736271 -78.097328947338255 -18.369473633471415 17 11 13
-111.031572979228059 -77.587125000278860 -18.710585312553491 18 13 14
-111.028513964819112 -77.050880903720525 -18.828427449353569 20 17 20
-111.025512247621052 -76.515144154134575 -18.946236952987078 15 16 18
-111.024440454032643 -75.965550320503581 -18.952406940787796 12 20 21
-111.021556014872502 -75.430552069081799 -19.070152737277340 13 23 24
-111.026214523738204 -74.836426706479187 -18.741463098662848 12 21 23
-111.029061018277190 -74.255804925283940 -18.524360207264579 13 18 21
-111.035707478206447 -73.643145395620621 -18.084051436247222 14 20 20
-111.036806255158595 -73.075434952918428 -17.978510628979109 16 22 22
-111.043576249699044 -72.459141836075133 -17.538180161765439 16 22 20
-111.033591635737636 -71.987043327793685 -18.102110738570218 17 21 20
-111.027414371816818 -71.484534600683943 -18.442815149984312 19 23 22
-111.021307489572592 -70.983607817639736 -18.783469607300646 21 25 24
-111.035819586552677 -70.296310661227537 -17.896730685384284 22 26 25
-111.041061431525762 -69.691392572897300 -17.567873075723185 20 30 29
-111.044508002896720 -69.102412884016019 -17.350569141767835 19 28 28
-111.034956232030851 -68.637610615477868 -17.914217544058403 16 24 26
-111.032951354379094 -68.102765969563421 -18.031540980198628 16 25 26
-111.029156797149682 -67.586851754669652 -18.260384617398387 17 27 29
-111.034778616877773 -66.978353683787077 -17.931382079675842 16 26 28
-111.038613929141107 -66.387146197214960 -17.713915105250862 17 29 29
-111.046267169171102 -65.756243782021997 -17.273312477269485 21 33 33
-111.052137851658372 -65.142627018669231 -16.944243573728926 24 37 37
-111.069302823484165 -64.408423757033304 -15.945859468763871 24 38 38
-111.080955108078967 -63.729489012696234 -15.282120362622607 25 39 39
-111.094568708908923 -63.026842235346869 -14.506828164464395 27 41 45
-111.095197720230090 -62.464710125014697 -14.512313555807026 31 45 49
-111.112741840662338 -61.714357024483078 -13.513914305853007 38 51 56
-111.134127668469873 -60.916648988264598 -12.292446874560028 44 57 62
-111.155621249935962 -60.112844105329764 -11.070990652192194 48 62 66
-111.220244239449542 -58.803309174196229 -7.284352849121888 44 57 60
-111.241976223969488 -57.981016785891278 -6.062972876730385 48 60 60
-111.271313638180061 -57.063536689924547 -4.395498768055347 46 58 58
-111.295162938525337 -56.205383120358647 -3.062616131263923 40 52 52
-111.307903749239713 -55.477457111278056 -2.398860569657273 32 42 43
-111.303905848911953 -54.953940062707382 -2.738738630205177 10 20 21
-111.301894462528296 -54.408584956442574 -2.967032254469274 1 5 3
-111.313125235564414 -53.698754361538136 -2.414671709443894 0 5 3
-111.322609978922543 -53.009976289421623 -1.973788639759135 2 8 6
-111.337857315181765 -52.246336159850593 -1.198342703386430 1 7 5
-111.332585359517623 -51.747755969207354 -1.649432464954799 1 5 4
-111.327433329768596 -51.251231619919146 -2.100443692568547 4 9 7
-111.318642046406595 -50.806767595620009 -2.774377813399497 5 10 8
-111.308087445656454 -50.390726206385260 -3.559721815684156 14 20 18
-111.303298388305535 -49.901721386225340 -4.010481996256033 28 34 30
-111.296751152073924 -49.440586312643831 -4.572655291196355 42 48 44
-111.284671987525314 -49.060338172203821 -5.469219086606074 41 47 43
-111.272710327365502 -48.684320981224104 -6.365683117030756 36 44 46
-111.258978435474845 -48.339179822001803 -7.373535082662443 33 41 43
-111.243472359438385 -48.025735039569248 -8.492768430099346 29 37 39
-111.224295876298882 -47.772003187170405 -9.834860802368183 31 39 41
-111.229842767046108 -47.167576909809185 -9.727569967237969 36 44 46
-111.239334177827089 -46.506942076869770 -9.397252900302618 34 39 41
-111.245195052798437 -45.900523297640127 -9.289832366018516 25 29 30
-111.255013828405538 -45.236788423928211 -8.959390599149458 22 26 26
-111.261200475841207 -44.628357984386369 -8.851834923465276 17 21 20
-111.275165893639723 -43.903816605411876 -8.298317559249625 16 20 19
-111.335050232292105 -42.477501348928620 -5.069443213665181 15 21 18
-111.387601504143518 -41.152611289671448 -2.286468501277795 19 25 23
-111.432801318524781 -39.932433935047577 0.050631619844523 7 13 9
-111.447678533747052 -39.179576668994308 0.604293715171906 5 11 6
-111.449356708126601 -38.635274629064895 0.377776003870935 3 10 3
-111.443538675843911 -38.213822248639701 -0.294498853424585 1 8 1
-111.449398364107651 -37.610828003938146 -0.297902521323579 2 9 2
-111.463140738199868 -36.883417679568609 0.144619723130859 1 8 1
-111.465543343110397 -36.341482483648925 -0.081527059972842 2 9 2
-111.475846537036603 -35.674016837432305 0.138249163323565 2 9 2
-111.472837871572494 -35.228299008275073 -0.422072594048927 4 11 4
-111.487416597768160 -34.495747274346165 0.020796835273586 5 12 6
-111.508041676398051 -33.663447715333973 0.798108719164247 8 14 8
-111.515331244445576 -33.055913013568748 0.795342363647137 7 14 8
-111.524779117296120 -32.415122229383059 0.904125097107482 6 12 6
-111.534450619517443 -31.773493080553585 1.013006184383784 2 9 3
-111.554110114376499 -30.963367382590622 1.679225498078722 6 12 7
-111.554479204879016 -30.487692378407381 1.231070168251449 7 13 9
-111.564843748438818 -29.843506861321554 1.340256490145890 5 11 7
-111.575446843385038 -29.198455048378893 1.449548016987421 3 9 5
-111.590227564020907 -28.483252977057337 1.781833783630191 0 3 0
-111.589497131244684 -28.045386040263487 1.222682738145465 3 9 5
-111.596870195079973 -27.469187601266064 1.109420001701238 2 8 4
-111.590617195200039 -27.141500636377327 0.216184462082964 3 9 7
-111.608359140972539 -26.388926553189854 0.660361064709122 7 13 11
-111.622410431289865 -25.705828316236818 0.881769450362071 2 8 6
-111.648700806864412 -24.803426013823454 1.771928875058137 9 15 13
-111.665333458033018 -24.079116721710601 2.105006853721164 10 16 14
-111.672241078001605 -23.537066048651308 1.881014065715220 4 10 8
-111.677388448204638 -23.032882862409700 1.545710084399303 6 12 10
-111.674720994081952 -22.679654558566138 0.764785832668821 9 15 13
-111.678313711233528 -22.216834631445430 0.318304998546807 6 12 10
-111.682142413259498 -21.755838241756209 -0.128044170633331 9 15 13
-111.722756762259436 -20.608033390150148 1.431595051655336 12 18 16
-111.739384151014917 -19.914412655137337 1.654127520612349 15 21 19
-111.762453314029003 -19.102785972869523 2.211103672559403 15 21 19
-111.751065445174376 -18.952551554947167 0.873802697753035 8 14 12
-111.768589138307732 -18.257312365794736 1.096747296090655 11 17 15
-111.792623405092456 -17.441516428399407 1.654142234135946 14 20 18
-111.792232070430344 -17.101693109814192 0.874444854400906 14 20 18
-111.806576100410695 -16.483787480896606 0.874946576128707 15 21 19
-111.825398090513559 -15.784390007873515 1.098469471981502 8 14 12
-111.842483740277686 -15.124145897670381 1.210705848879940 11 17 15
-111.824320974019940 -15.160889186835679 -0.571347097834973 9 15 13
-111.841974609054560 -14.503272591107237 -0.458811952403522 8 14 12
-111.847330355868820 -14.094320304272063 -1.014753757416372 11 17 13
-111.863528676261836 -13.478106950683134 -1.013347530071030 9 15 11
-111.884316971245397 -12.776961226117161 -0.788901956334570 9 15 10
-111.911877234822185 -11.946701617557588 -0.229969075343263 8 14 9
-111.927039492601935 -11.369581255670292 -0.339514977919038 4 11 4
-111.938252584211455 -10.878523299560458 -0.671782034318312 3 10 3
-111.939007182458269 -10.605190451683001 -1.561105668781209 3 10 3
-111.970282766360370 -9.725283661297386 -0.890047549743969 2 9 2
-111.993347624737183 -9.016918538754815 -0.664587188773709 2 9 1
-112.025549809844875 -8.130080237585103 0.006842863581596 3 10 2
-112.018833960691097 -8.039482362452617 -1.327609164120474 4 11 4
-112.045270939410528 -7.283876363063731 -0.990162981493683 4 11 4
-112.089822345165913 -6.165640792913674 0.239087431958637 3 10 3
-112.103941033071663 -5.674881189028499 -0.091786526042767 4 11 3
-112.073871389521045 -6.097203137488332 -2.651578921646291 4 11 3
-112.104158513723974 -5.292973072408847 -2.201932469631657 0 9 0
-112.155164060213977 -4.070152059681480 -0.748953198033604 0 8 0
-112.213629803718646 -2.699752450120569 1.038652560371986 4 11 3
-112.270593124047622 -1.366162404104044 2.715059579088802 4 9 2
-112.300978061152264 -0.587630708930827 3.054158465771025 58 61 54
-112.226154285649201 -1.097031918905372 -15.046391691437037 62 70 60
-112.193020469947115 -1.765309619843275 -17.826836000217867 37 44 36
-112.132754643230015 -3.009481691291248 -21.833779934132679 24 31 24
-112.106474275266876 -3.554281084095958 -24.279639946501277 23 29 25
-112.114757757906162 -3.387385040530329 -25.164266180981599 23 30 23
-112.068479008454872 -4.367998054439882 -28.502078381333206 23 30 23
-112.099542952235169 -3.744589891123417 -28.382775665584916 23 30 23
-111.558843709853392 -175.873848102741590 -22.656993777713637 55 46 26
-111.620056352046390 -176.604970321783185 -18.629264194085920 37 26 8
-111.579033572215948 -175.654320005209456 -19.878122606741925 36 24 8
-111.510389005593908 -174.254113891749228 -22.585988195140402 29 22 6
-111.511234107532445 -173.981410044582475 -21.701519899599532 22 16 1
-111.557201152628465 -174.429637216440710 -18.460007932643748 37 30 14
-111.549580667732386 -174.005889676041903 -18.024579853121111 31 22 7
-111.537892367567636 -173.512330791455724 -17.813534175556555 39 25 12
-111.534895651596059 -173.152763961305936 -17.153515686696238 48 27 14
-111.521492255040314 -172.623140616265118 -17.054520619895499 65 35 25
-111.510417536797689 -172.126428247864482 -16.843213867235647 88 54 45
-111.503742492932204 -171.694642501488175 -16.407416233256839 99 59 53
-111.497242007917009 -171.260955239216969 -15.971554664180729 106 67 60
-111.484667979017175 -170.728460116198278 -15.872192391389603 109 71 65
-111.466082100678420 -170.099648784320863 -16.109274252647452 100 66 59
-111.441544103068537 -169.377010291180454 -16.682746052229504 101 73 65
-111.431722268359010 -168.877718662877726 -16.470866473999848 104 80 73
-111.403601079633077 -168.096880670397098 -17.268369306454218 70 42 38
-111.394214874080419 -167.598434557551599 -17.056272621413768 193 153 153
-111.360518853344232 -166.731496736533501 -18.189905357942337 186 139 139
-111.347504174445945 -166.173976209885808 -18.201870374571740 187 137 139
-111.326578468194626 -165.496376002934795 -18.662291579724211 179 129 130
-111.318033637569755 -165.000096235998541 -18.449770084515563 173 125 124
-111.319738717508386 -164.650625866006095 -17.676539459751353 125 80 78
-111.317531876945424 -164.239021580544829 -17.127537629792357 116 75 72
-111.325474501354194 -163.969802259768869 -16.017920266008446 110 70 66
-111.315505903821347 -163.436955834469870 -15.917315179912833 93 53 46
-111.301727043870869 -162.846929967017303 -16.040839256860863 85 45 39
-111.284169427045313 -162.201373263498539 -16.388460454778311 92 48 45
-111.266825191727449 -161.557689763808554 -16.735960289885867 98 54 51
-111.259567232819236 -161.053888211023946 -16.522900585179400 67 19 19
-111.248521282689765 -160.494539885178739 -16.533942583169392 133 85 85
-111.237646201825129 -159.935396559474697 -16.544900727719352 116 70 68
-111.232816979589245 -159.456785772417646 -16.219560937586948 108 65 59
-111.233984187569263 -159.056228052541996 -15.557972381600933 107 68 59
-111.233304039315627 -158.626335351394687 -15.008428439124174 117 81 66
-111.224958574671433 -158.090070745089236 -14.907082036872566 133 101 84
-111.210944696830495 -157.476405593937017 -15.141820761516783 108 80 64
-111.208710798549276 -157.016438665177276 -14.704188581780727 80 58 40
-111.204662312856115 -156.529320912631363 -14.378562856431785 48 31 11
-111.221906627030293 -156.314126658319339 -12.820503949316731 34 19 2
-111.235329296679950 -156.042256473824096 -11.486574467504568 39 26 10
-111.256450313478169 -155.861190532409751 -9.704591889432180 42 23 8
-111.260374838824191 -155.455225408815039 -8.930881018471979 57 34 20
-111.256755585020798 -154.950549937767164 -8.605230680475017 88 62 49
-111.247546024070814 -154.373933880878980 -8.615571901606330 103 77 62
-111.246066928492723 -153.890306337383663 -8.177822177437889 106 77 63
-111.244691149261328 -153.404634185592613 -7.740044073263647 107 77 64
-111.241527797487734 -152.894252769525963 -7.414234367456828 107 79 67
-111.229047035908678 -152.270428753854560 -7.648344224832329 102 81 68
-111.226118805195739 -151.758407198928495 -7.322438920689223 91 75 65
-111.217663747192304 -151.179354740255462 -7.332444269304659 33 23 15
-111.203715536567927 -150.535730797705412 -7.678318844787896 37 34 30
-111.186176087707921 -149.851287220993612 -8.248049403174690 40 40 38
-111.176258322432005 -149.253780865991303 -8.369803346081397 45 46 48
-111.160882163528058 -148.594700689648818 -8.827379030826393 46 47 49
-111.141936636009277 -147.896976808157433 -9.508777838192998 45 49 48
-111.126858206034996 -147.243044852979835 -9.966158097211917 51 50 48
-111.124875878676363 -146.730894405296709 -9.639801602904299 52 51 52
-111.111899026277683 -146.099290097084634 -9.985087759807527 56 56 56
-111.099051145742578 -145.469427862395634 -10.330294284975366 58 58 59
-111.082649275603885 -144.803090122592693 -10.899294257126314 57 58 60
-111.075569311079292 -144.233750628886071 -10.908541785307108 60 61 62
-111.057589827301328 -143.553138997792445 -11.589302295669569 59 61 60
-111.048900533017260 -142.967335083543418 -11.710348083163154 61 63 62
-111.040315146162442 -142.382165750259190 -11.831337629638028 62 64 63
-111.030007921302385 -141.779886069939806 -12.064185907830677 57 59 58
-111.014345204900977 -141.126373166943239 -12.632700258879453 59 61 60
-110.996987912694621 -140.458472887341117 -13.313032270600218 61 62 64
-110.988829195202754 -139.878543570948125 -13.433763761788157 61 63 63
-110.978952900257752 -139.282584650249760 -13.666340821832506 56 58 57
-110.970982899569989 -138.704168644369702 -13.786966454282890 53 55 54
-110.955881296315965 -138.061946538789755 -14.355096148875447 52 54 51
-110.942693786491986 -137.438353120971669 -14.811259508370142 49 51 48
-110.938608118654003 -136.894809951750119 -14.707950155832322 48 48 46
-110.932798877450452 -136.335498562969320 -14.716486550010330 42 42 40
-110.925272980555775 -135.761234668678696 -14.836856984957933 42 42 40
-110.917828411125271 -135.187576719557399 -14.957182275827449 39 39 37
-110.912252080251463 -134.628993120627257 -14.965599754995537 40 40 38
-110.904962610482201 -134.056268698405859 -15.085841237457373 39 41 38
-110.899532899169444 -133.498069948845625 -15.094184612882088 39 41 38
-110.897734144281216 -132.967230948083113 -14.878791553719509 43 45 42
-110.899549431064088 -132.462115733456585 -14.439686991715206 40 42 39
-110.890758572014320 -131.876221530592915 -14.671641181751113 38 40 37
-110.889135337156105 -131.342809521916735 -14.456190639670808 36 38 35
-110.880484697754810 -130.758100214303994 -14.688065552385439 34 36 33
-110.878978996926548 -130.223691425230271 -14.472569042789445 32 34 31
-110.873994196908399 -129.664199039616278 -14.480712890221639 30 32 29
-110.876122658432877 -129.151737053967651 -14.041534130499258 30 32 29
-110.869487420924727 -128.579764478995628 -14.161454891348512 34 36 33
-110.869948945955187 -128.053186252513512 -13.834077778809842 32 37 33
-110.863428926061459 -127.481291661400789 -13.953942617220207 35 40 36
-110.858723232028723 -126.920636611616942 -13.961964909192062 43 48 44
-110.843562529379994 -126.297700738843673 -14.640783238770069 49 54 50
-110.837229132012979 -125.728634564328260 -14.760529683290457 60 65 61
-110.832699667114028 -125.169987509954822 -14.768446998543254 49 54 50
-110.833456449308912 -124.640081520050629 -14.440962890329814 53 55 54
-110.825536281334564 -124.062085396133838 -14.672419245845447 56 58 57
-110.819414618219938 -123.494232701362691 -14.792051906468600 54 56 55
-110.813345398581063 -122.926952538650170 -14.911653584952660 48 50 49
-110.812537131480411 -122.385688281523244 -14.695893992228605 44 46 45
-110.806563531797110 -121.818733761833826 -14.815446574446412 39 41 40
-110.802371829520823 -121.260285988940197 -14.823200253913910 38 40 39
-110.791303066428100 -120.671200657345992 -15.277994803167985 37 39 38
-110.792392654120079 -120.136068756383821 -14.950405274873305 36 38 37
-110.788333847205323 -119.577962816521350 -14.958091858996255 36 38 37
-110.789490362713011 -119.040426791520304 -14.630495059520371 35 37 36
-110.785508874447814 -118.481546856990306 -14.638152621782325 35 37 34
-110.785009053597989 -117.935297758865985 -14.422296780901718 35 37 34
-110.781103968763375 -117.375912379434169 -14.429922994822675 32 34 31
-110.780671583358043 -116.828068413648111 -14.214051309830523 31 33 30
-110.776840202774437 -116.268174323227782 -14.221647500308194 30 32 29
-110.773046565438364 -115.708296618410273 -14.229225465880347 31 33 30
-110.764156152833522 -115.133596625346783 -14.571970939291248 31 33 30
-110.762151021250205 -114.579239157104723 -14.467777582353136 31 33 30
-110.758470467396890 -114.019949824761511 -14.475295392761325 32 34 31
-110.758237074776105 -113.468934431970283 -14.259361155394487 34 36 33
-110.751214754806227 -112.901410599731861 -14.490280186943266 35 37 34
-110.745936118297379 -112.338572794358399 -14.609457925752054 40 44 43
-110.735592576523530 -111.766346103590365 -15.063731997153951 49 50 52
-110.735490007494633 -111.214561677116052 -14.847743090279295 55 56 58
-110.725229601824992 -110.645074269831909 -15.301949192832893 46 47 49
-110.718406297516538 -110.082769200006084 -15.532719296628187 38 37 42
-110.711621611028605 -109.521560258613434 -15.763459642789883 34 36 36
-110.708259768525650 -108.965357532635835 -15.770793210790600 34 36 35
-110.701547739871401 -108.405795267756957 -16.001481847625229 42 44 43
-110.694873090207068 -107.847327272051132 -16.232141338616799 38 40 39
-110.689922948528121 -107.291092780450953 -16.351093955399108 35 37 36
-110.690064054965873 -106.738011693205991 -16.135001822197097 42 44 43
-110.688544628470254 -106.183252274484715 -16.030580243088053 40 44 43
-110.680320828462527 -105.626656468729905 -16.372820455822733 37 42 38
-110.670454754537303 -105.071643193284658 -16.826688921911284 31 36 32
-110.669029083886059 -104.517711432687577 -16.722213970826772 25 30 26
-110.674342642033409 -103.961274383121662 -16.171105244301231 28 33 27
-110.671286889570041 -103.405936365380882 -16.178283478999958 25 28 24
-110.664909916336370 -102.852669822400983 -16.408747021441599 25 27 24
-110.656894248453369 -102.301798535122515 -16.750828739136750 26 28 25
-110.657278076035155 -101.744666776035075 -16.534662184571573 31 33 30
-110.659356146389626 -101.184597728388212 -16.206856460137573 28 30 27
-110.654776986785791 -100.631385826995725 -16.325600487327307 25 27 24
-110.651897950229255 -100.076322851254261 -16.332691350596434 35 37 34
-110.642381598871339 -99.531921465975600 -16.786283277091087 46 48 45
-110.642897353169488 -98.972067424257929 -16.570081631059679 38 40 37
-110.633453662855828 -98.430379956546702 -17.023610861042954 38 40 37
-110.637350886282775 -97.863014408556481 -16.584151081637600 29 31 28
-110.629638641719708 -97.319741982882135 -16.926009423756767 36 38 35
-110.630263830721191 -96.757972062495128 -16.709775145639952 40 42 39
-110.624279633319034 -96.212296961700247 -16.939972642942138 25 27 24
-110.624960260344295 -95.649429773965551 -16.723723138188802 26 28 25
-110.622354458369827 -95.095150157960859 -16.730675223455165 20 22 19
-110.619779700508559 -94.540864104531977 -16.737612523587813 36 38 35
-110.617236309522539 -93.986571009437114 -16.744534890398256 34 36 33
-110.604810984967898 -93.466205774047879 -17.420988813374521 30 32 31
-110.599036575311715 -92.925383405679199 -17.651035997325408 30 34 33
-110.596599072823750 -92.373240312881535 -17.657885576387656 6 10 9
-110.602437721523856 -91.788730221278882 -17.106814618265872 13 17 18
-110.588527836805966 -91.282411583703635 -17.894693045968353 11 17 16
-110.582899624349125 -90.744812100391854 -18.124637114905255 13 19 19
-110.578955328056793 -90.201001467151968 -18.242980653687027 11 17 18
-110.578336118410434 -89.642604363899181 -18.138165858437276 14 20 17
-110.566248847421875 -89.138466727036729 -18.814291018922603 16 22 16
-110.547642629089879 -88.669989294320956 -19.936603292758406 7 13 11
-110.542220804277136 -88.139938017279036 -20.166370929074787 15 16 18
-110.548318527175695 -87.550433052778956 -19.615227445480457 16 22 22
-110.556082039687311 -86.949274467563868 -18.952548125496889 12 21 20
-110.547493721345177 -86.436740503889880 -19.405368056798437 10 17 17
-110.537315369303101 -85.935826797235080 -19.969687926549312 11 16 17
-110.535365277073168 -85.388942431749228 -19.976250199492796 14 17 18
-110.538359901902808 -84.812019915454869 -19.648179479758795 16 19 19
-110.543023763320221 -84.223167169928416 -19.208574121885107 16 17 17
-110.544456018563508 -83.653217950361480 -18.992037939680046 16 14 13
-110.550823766983243 -83.049691997287823 -18.440909601880890 14 9 9
-110.547438698291657 -82.509988257658449 -18.558943333776256 11 4 4
-110.539208493499757 -82.004903053989665 -19.011515270954192 12 1 2
-110.534289419982628 -81.478692330334766 -19.241002860028686 15 3 3
-110.537563757232220 -80.893992093107641 -18.912878386820552 32 14 17
-110.535996384004349 -80.344179315806272 -18.919287711919225 34 13 16
-110.532849807707862 -79.806792524867603 -19.037183500353450 47 23 28
-110.529753752991965 -79.269920328041238 -19.155049822460995 87 59 65
-110.533212570531006 -78.681567287784844 -18.826874694651281 137 108 115
-110.531842856455768 -78.131361735817066 -18.833193503315812 52 27 32
-110.525651765945256 -77.621751420354983 -19.173977629539479 24 4 8
-110.521141608445163 -77.099924533905110 -19.403224469554544 91 75 80
-110.523181359283825 -76.522802098253692 -19.186471501055593 21 14 16
-110.522028754199610 -75.973272507588149 -19.192679487513772 12 14 16
-110.524177123384263 -75.394441489704732 -18.975892143665703 15 21 21
-110.524759543409445 -74.829385461347556 -18.870571036561159 13 22 21
-110.535127167139734 -74.172687920152342 -18.096358724150576 15 21 21
-110.540686526111131 -73.558480528356085 -17.656585951427729 16 21 24
-110.536582414709528 -73.036373305502210 -17.885641426024449 17 23 23
-110.530923150288515 -72.531301910787235 -18.226124407078458 19 23 22
-110.520471836397078 -72.076612101081366 -18.900957939970681 18 24 22
-110.523043937670764 -71.492841392151064 -18.684018730865091 19 25 23
-110.522443837435247 -70.941550011351922 -18.689980535888367 21 27 25
-110.530005341440173 -70.304794710110116 -18.138623155882811 22 28 26
-110.534397382990619 -69.699970059895549 -17.810171127460762 23 29 29
-110.532386594908232 -69.163962860817861 -17.927509357874442 21 26 28
-110.522358562467005 -68.717940457669783 -18.602051176402000 18 23 26
-110.520496115933383 -68.184267314210473 -18.719294415120203 17 22 25
-110.521945200823737 -67.614187898201806 -18.613610406767521 20 25 29
-110.531560469098579 -66.949913022807365 -17.950694900855837 18 26 29
-110.526693889213945 -66.453209723456226 -18.290712527335359 16 26 27
-110.529996931828762 -65.861761335974535 -18.073502668599872 17 27 28
-110.531764333398215 -65.288687066163561 -17.967697206173682 17 29 29
-110.546560087859504 -64.556531359951592 -16.970425450158217 15 27 27
-110.550116633158424 -63.959955900426849 -16.753147092135720 19 31 31
-110.560235100985977 -63.280797856937113 -16.090144057208761 22 33 36
-110.563971187947445 -62.680791014385370 -15.872815128019624 24 35 39
-110.580751256769716 -61.912416718794177 -14.764108014030171 30 41 45
-110.583057727274692 -61.329047607682639 -14.658150632846201 33 44 48
-110.585460411809748 -60.745044370901880 -14.552153750574121 38 49 53
-110.600921931768497 -59.986660065701699 -13.554833478772167 43 55 58
-110.640799592579015 -58.893401363708186 -10.886396365463838 40 54 55
-110.672698619022214 -57.898258389731254 -8.775060673613211 41 55 56
-110.694994270865209 -57.027859254017820 -7.332188461783289 38 49 51
-110.727147524742819 -56.013389807804899 -5.220930085486941 37 48 51
-110.738338447694048 -55.288517532257274 -4.557884551260287 40 51 53
-110.739909450027071 -54.700395627252618 -4.563186823344381 45 54 54
-110.746469733124016 -54.041266943502727 -4.234256494295778 40 47 46
-110.759654298314672 -53.284763891748383 -3.459723915004417 25 31 31
-110.764840724339209 -52.645196118505474 -3.242108369112145 22 28 28
-110.760390983010581 -52.151112482198634 -3.692758500868052 27 31 32
-110.747917657457805 -51.782709215702319 -4.700247821233717 34 39 39
-110.720889356338461 -51.644079848655629 -6.710064978128912 32 38 36
-110.703731701377379 -51.363537768615764 -8.051467521058555 31 37 35
-110.685044265765683 -51.114972914398905 -9.504131633078913 28 34 30
-110.677885793883789 -50.692651587584756 -10.177056696585794 24 30 26
-110.669210836360307 -50.299565920814018 -10.961265189210422 24 30 26
-110.667193929605929 -49.804699756534902 -11.299900631278120 21 30 30
-110.658757885720235 -49.417891448447449 -12.083930212430971 22 31 32
-110.645524816320986 -49.115511872155494 -13.201962261558350 20 29 30
-110.637321695173824 -48.736889609846330 -13.985796150189998 23 31 33
-110.644013810478057 -48.114772145607255 -13.767280662910565 26 34 36
-110.649214566592022 -47.519130385890584 -13.660064993949334 18 25 26
-110.667728200104577 -46.698670376667572 -12.661923577890747 21 25 26
-110.681484585770818 -45.957956514548236 -11.997813800503621 20 24 23
-110.688821849216268 -45.328015176665836 -11.779070211626561 16 20 19
-110.696323787181640 -44.696791349112175 -11.560261044334112 16 20 19
-110.725483608509975 -43.685835725359738 -9.893834086050816 13 19 15
-110.787975653908561 -42.078721352886390 -6.000419969101102 19 25 23
-110.849133406261842 -40.481820851539936 -2.218397921784714 18 24 22
-110.882403925759689 -39.374920342877040 -0.329274258645455 1 6 2
-110.894324549180681 -38.651193364261474 0.112414381060489 4 11 5
-110.899787777828266 -38.046987053446792 0.108808571834714 2 9 2
-110.907103147548213 -37.411790306216147 0.216628705339559 2 9 2
-110.916281632619913 -36.744771277511347 0.435871469033543 1 8 1
-110.915625909890025 -36.264287350650974 -0.012823628588308 2 9 2
-110.920168313390363 -35.690997817772462 -0.127410600402101 3 10 3
-110.924901834277918 -35.118009116452761 -0.241903045702600 2 9 2
-110.934873736275946 -34.448894916580258 -0.022302280720027 1 8 1
-110.948430309711100 -33.713581574477644 0.420049727605203 2 9 2
-110.953780107398330 -33.139252868920266 0.305838313676503 5 12 5
-110.969479869989328 -32.367388779969659 0.859698266069330 6 13 6
-110.971871150417655 -31.858440978029474 0.523026736269372 3 10 3
-110.984646374342489 -31.149733545093916 0.854419932735397 3 10 3
-110.985752490253077 -30.675660893333379 0.406633687155477 5 12 5
-111.004105463318268 -29.862748585172465 1.072199281324004 4 11 4
-111.012476697891344 -29.252318751165575 1.069920590314524 4 11 4
-111.034782618431649 -28.364538868253405 1.958324381289373 5 12 5
-111.035066834587127 -27.925786860432368 1.399649629894924 5 12 5
-111.047596481733947 -27.243190410575590 1.620335231817535 4 10 6
-111.037956227519317 -27.020147442091695 0.393979739798255 3 9 6
-111.042303710894515 -26.516955437314163 0.058303298094472 4 10 7
-111.053809376824347 -25.871011944190307 0.168017433288838 4 10 7
-111.077746715025398 -24.970088924581955 1.057066399971973 5 11 8
