ply
format ascii 1.0
element vertex 690
property double x
property double y
property double z
property uchar red
property uchar green
property uchar blue
end_header
-112.049448932402555 -74.163678925043214 -17.482864001342278 15 21 19
-112.058268723980575 -73.549479250090769 -17.041531369402918 14 20 18
-112.060049360452908 -72.980249485129761 -16.935680002024810 15 21 21
-112.057162680601451 -72.442434368841177 -17.053455865858581 19 20 22
-112.049611447444846 -71.937666773996554 -17.394840831105881 24 25 27
-112.065807089924704 -71.268980381964198 -16.617963821766580 18 22 23
-112.058400741455472 -70.764647821757251 -16.959274996646002 16 20 21
-112.074741152211686 -70.090942902312335 -16.182380388883274 15 21 21
-112.067485486758372 -69.587037972342458 -16.523615075711490 15 23 26
-112.086345098101830 -68.890665674230746 -15.634889732818181 14 23 25
-112.086347276928620 -68.333169813424718 -15.640627275432081 14 24 26
-112.095898563726351 -67.702866685468251 -15.199110459618367 19 29 31
-112.112634309163596 -67.014940128775976 -14.422173115555864 19 30 34
-112.127088516877308 -66.341856257465210 -13.757033353023417 24 36 39
-112.134528270644978 -65.722437444583960 -13.427273534571128 32 46 49
-112.125483477468194 -65.236241078589302 -13.880040735745098 30 43 47
-112.142573323220816 -64.537109668298015 -13.103049328492403 31 41 47
-112.183440466422169 -63.635858911077712 -11.208174610411248 33 44 50
-112.217306689994700 -62.785532040253692 -9.648701577900113 35 46 52
-112.289182236929832 -61.601592356042765 -6.300736900930673 36 46 48
-112.342226971912098 -60.566311746094918 -3.847121676685362 33 43 44
-112.374065674325095 -59.707150221467728 -2.399568427797448 24 32 34
-112.384689182428062 -59.031475106280283 -1.958005701644112 6 12 14
-112.388311429114808 -58.417895881094687 -1.851729825525268 3 9 9
-112.408645045926534 -57.651535729960436 -0.963019743598466 3 7 7
-112.405378210745326 -57.100762977398247 -1.191969736818891 1 5 4
-112.414086981226703 -56.439576362865466 -0.862032762085391 1 5 3
-112.413420992621795 -55.866850265502215 -0.979105611104700 2 7 3
-112.429493395469137 -55.134771687674011 -0.313798971717574 4 9 5
-112.429067973306857 -54.560992548092635 -0.430767574067829 4 9 3
-112.414504399968962 -54.127878383268317 -1.218205193752652 6 13 5
-112.404806191215286 -53.651175424658497 -1.782046151208078 7 14 7
-112.407116282307229 -53.057478851552823 -1.787052228622571 9 16 9
-112.426212163267593 -52.294293284292614 -1.009760482618304 8 15 8
-112.435931902487539 -51.625012374273133 -0.679423182555240 10 16 12
-112.455320690317023 -50.854984402009485 0.097938256779116 9 15 12
-112.455796597073657 -50.281103380198317 -0.018600201630790 9 15 13
-112.473101624824153 -49.530598910374472 0.647106454322255 7 13 11
-112.466703029617705 -49.032289146724260 0.195480495899574 4 10 8
-112.462823913527288 -48.510180085764141 -0.144326245552577 10 16 14
-112.454302898749432 -48.041780537199649 -0.707518566274160 10 16 14
-112.474604465778413 -47.259333591164236 0.070151708764712 9 15 16
-112.490295199132518 -46.526201002737402 0.624406024393522 4 9 11
-112.487002284412569 -46.005628522241643 0.284895536462301 2 7 8
-112.481458557879691 -45.513736272867718 -0.166255397018858 2 7 6
-112.492845281019513 -44.831478671580697 0.164745806835413 0 4 2
-112.516405823372025 -44.008601339036161 1.054417879139891 0 3 1
-112.523348276775863 -43.377368319525175 1.162100411397944 0 5 2
-112.513632174266036 -42.943543051881171 0.487833370323443 0 5 1
-112.516092528887043 -42.369907499673928 0.372246791711632 4 10 6
-112.513903235978518 -41.854333554861078 0.033315725110953 3 9 5
-112.531164955529917 -41.107145993823579 0.588176920257979 7 13 9
-112.534147130799397 -40.533438566132858 0.472839239005282 5 11 7
-112.554219233098351 -39.752286899761437 1.139554186947692 3 10 2
-112.576925916235325 -38.937650850054858 1.918043722674099 0 5 0
-112.585328735453871 -38.300329849916629 2.026362222289293 0 6 0
-112.586655261832306 -37.753749823954074 1.799652835335309 0 6 0
-112.588164631961419 -37.208032489176979 1.573039800318782 0 6 2
-112.611731660290275 -36.383630588996148 2.351840397431118 3 9 7
-112.635541908048239 -35.555115515726577 3.130715010927702 9 15 13
-112.635235648258714 -35.038600630174628 2.792675095340996 13 19 17
-112.642436982877697 -34.427813641083645 2.789833051826832 11 17 17
-112.640076841649758 -33.945415120567539 2.340302858363515 10 16 16
-112.650135967446246 -33.302747349867715 2.449358692372840 8 14 12
-112.650618951368372 -32.790114747119958 2.111736310559621 7 13 11
-112.678291628690587 -31.915919803804321 3.002847376190971 6 12 10
-112.689045579997398 -31.269898323317786 3.112201090923179 5 11 9
-112.685267181311076 -30.824307702146367 2.551512405231335 5 11 9
-112.671819609707640 -30.516478103100344 1.544180524083117 4 10 8
-112.698042906573761 -29.667693034169396 2.324000882753751 7 13 11
-112.702300062112528 -29.124118606058399 2.098724436873340 7 13 11
-112.719170493837680 -28.408042743697102 2.432000919768171 10 16 14
-112.706526004618311 -28.109178388602039 1.425145514239489 8 14 12
-112.721402844707754 -27.427638637867396 1.646964882355206 7 13 11
-112.739041040495025 -26.709148880987915 1.980583813516745 8 14 12
-112.749475140854983 -26.095938978641605 1.979263373788797 12 18 16
-112.747664615900320 -25.662597073337114 1.419642194330493 9 15 15
-112.771126473725829 -24.868419373281291 1.976985821268755 11 17 17
-112.827548333262044 -23.595232125203445 3.986332218102660 9 15 15
-112.834106366316277 -23.049265733970632 3.762131882460892 8 14 12
-112.830834821926416 -22.652661065778059 3.091331026229057 9 15 13
-112.845467938174593 -21.996917005847404 3.202440440778162 10 16 14
-112.862929714732203 -21.302480506690976 3.425363680929507 9 15 13
-112.878165339461603 -20.644502245430768 3.536738335714119 10 16 14
-112.888618127015548 -20.062090404057649 3.424884970868476 11 17 15
-112.894256809332262 -19.556915025922866 3.089805818454096 10 16 14
-112.887379793795020 -19.247165222613649 2.196456388099335 9 15 13
-112.873021260726659 -19.058800065781242 0.968200643785366 10 16 14
-112.894796295006671 -18.324543666577462 1.303636330331983 10 16 14
-112.934951418331195 -17.310365982182066 2.420995812510398 10 16 14
-112.954900530741838 -16.609777866997003 2.645045663933843 10 16 16
-112.972611468552984 -15.947812615831081 2.757563459922181 10 16 16
-112.959512902907591 -15.771068720374322 1.530030103185879 9 15 15
-112.962209339286545 -15.355170809793382 0.972744598381809 11 17 17
-112.986052593583480 -14.612867015510545 1.309086878415030 12 18 18
-113.033841730797718 -13.496009503544936 2.650759281464872 14 20 20
-113.084784553471749 -12.330178831408675 4.104295176409636 12 18 18
-113.115215910358700 -11.491920923849898 4.664519248089618 11 17 15
-113.095904180331161 -11.452399395512906 3.102849378807747 10 16 14
-113.071433089777230 -11.505223816404598 1.317944082540009 6 12 10
-113.081613863581552 -11.010329806126315 0.985143682408648 0 4 2
-113.062789910943508 -10.990287114755425 -0.576092330387809 5 11 8
-113.062822716949086 -10.674122006628689 -1.355343276836180 6 12 8
-113.084577747406570 -10.012228966513764 -1.240890057483256 7 13 9
-113.090580037704981 -9.612664079485519 -1.796425929087349 7 14 7
-113.140101213218728 -8.508017759262181 -0.564658113841460 6 13 6
-113.149560098332714 -8.063809231257880 -1.008141016837129 4 11 4
-113.200145871540371 -6.949574750476005 0.224037402543104 3 10 3
-113.245890264080913 -5.918499699225009 1.233037953949946 2 9 2
-113.278526993126746 -5.108321233536424 1.683747218991954 4 11 4
-113.273168581006033 -4.934023218409214 0.570800786766284 4 11 4
-113.259752751170453 -4.902497985526242 -0.877107309266620 5 11 1
-113.335150818903927 -3.399037973895389 1.249805812209956 5 11 1
-113.375234430086579 -2.488354708148526 1.924760863585192 10 16 6
-113.410309410322782 -1.667019542966513 2.376521738126542 4 10 1
-113.298821319462121 -1.318831353851083 -15.196101675772297 72 75 63
-113.296612826279869 -1.054989173006230 -18.525640619065200 52 55 45
-113.248167006083889 -1.804666702089058 -21.423431133908423 28 34 28
-113.199467002888582 -2.568717755692084 -24.321195295118684 32 38 33
-113.153540282721266 -3.294836642185098 -27.107164297165468 29 34 28
-112.568071848823479 -174.522357526269275 -19.527480828717671 73 61 47
-112.660070289808019 -175.380523587258182 -14.929421273784129 64 52 36
-112.709291795035369 -175.668091831864899 -12.131441666985097 47 35 19
-112.697669100650515 -175.160621669748423 -11.920507799608373 33 20 4
-112.694165472569551 -174.753494291052931 -11.372080265302657 37 24 11
-112.677723347560189 -174.176839863636388 -11.385881915255936 41 29 16
-112.674608689927794 -173.766241697469127 -10.837304025379922 33 24 12
-112.629947622933301 -172.827391740489759 -12.087781515114898 26 19 5
-112.601297357016904 -172.090504378465567 -12.663367280524511 32 25 14
-112.596293044057035 -171.647489838169577 -12.226885958223960 43 35 23
-112.604391075719221 -171.362723113997475 -11.228213170296641 38 30 17
-112.604858823315098 -170.978017516391304 -10.566796059902885 49 39 27
-112.587477444242765 -170.369965980934126 -10.692229116906532 73 62 50
-112.575465160689546 -169.825166804664747 -10.592724758868172 53 41 29
-112.553436596423651 -169.156425572402128 -10.942723492717249 40 28 16
-112.557168810605532 -168.796074780603817 -10.168635091526937 41 26 15
-112.548308637506068 -168.280295879329117 -9.956465169462518 41 18 8
-112.529490419275533 -167.643325655345052 -10.193742164903341 118 88 80
-112.508379717736119 -166.977919086249670 -10.543267471007056 149 112 104
-112.502657935848831 -166.491662306429589 -10.218433382396967 152 113 104
-112.492068243731367 -165.945484419039246 -10.118262653258228 146 101 96
-112.489201708195068 -165.485964010160728 -9.680928528763047 129 84 79
-112.483980025759337 -164.995774587341174 -9.355895674959527 131 83 79
-112.488914899437390 -164.617906560285718 -8.581412239291069 119 71 67
-112.471521291548783 -163.982997427499470 -8.817986490180346 108 64 59
-112.459316636016922 -163.405188395193221 -8.829772834188589 113 71 64
-112.454744644129505 -162.910426488140871 -8.504476237530952 115 77 64
-112.452799500800324 -162.441565601768730 -8.066797468389240 119 83 69
-112.441110079919227 -161.862497788907149 -8.078350283167254 113 81 64
-112.417275188007267 -161.149741974872455 -8.651383992012825 123 92 74
-112.415807124241113 -160.678492455865381 -8.213501577039125 128 95 77
-112.409561342813717 -160.152785503859690 -8.000183133373753 139 103 87
-112.405914556465987 -159.652132633938180 -7.674504560197448 147 111 97
-112.390185517934938 -159.021623595862508 -7.910237194426514 146 110 94
-112.386836708215966 -158.519431034038831 -7.584431919074575 146 110 94
-112.373885339543065 -157.915252483872706 -7.707705807704713 148 112 96
-112.363533119407606 -157.336660442028517 -7.718614012879442 150 115 96
-112.350914430682224 -156.733663421215567 -7.841716586487848 143 112 91
-112.350557023316497 -156.252923785004128 -7.403400523843032 143 113 89
-112.347899780264484 -155.746124549169849 -7.077311824177912 148 117 93
-112.340544829587060 -155.190326800202627 -6.975692627889799 138 109 85
-112.326112097673416 -154.563688036855780 -7.210765274794369 134 108 85
-112.316644622635678 -153.984722905336042 -7.221254061346485 136 110 90
-112.297733536565843 -153.314165616737569 -7.680638982813008 133 115 100
-112.288566458074982 -152.736597777319531 -7.690969677657222 78 68 58
-112.262821332908345 -152.002456747678309 -8.486855134152250 44 40 32
-112.258724096539950 -151.471320534834746 -8.272564720004482 39 40 35
-112.247603957106932 -150.873704287134643 -8.394895005767296 53 53 51
-112.241373232763692 -150.319902944065547 -8.292717433445574 87 87 87
-112.218662231330200 -149.616631664049521 -8.975974732785801 60 60 60
-112.200859595130652 -148.958809710335800 -9.434698284434177 55 55 55
-112.180847878791369 -148.282553145931985 -10.005527294078348 56 56 56
-112.168074583053453 -147.670568975780895 -10.239655225315005 57 57 57
-112.155434795925672 -147.059794767391992 -10.473706831745830 60 62 59
-112.152334689621910 -146.529930345128889 -10.258926302813762 64 66 63
-112.137591369242870 -145.900820102460614 -10.605031859274220 66 68 65
-112.127671453663254 -145.312214972249194 -10.726695206100487 68 70 67
-112.108503459515362 -144.647836314279630 -11.296998316682505 70 72 69
-112.101167036453077 -144.080454598936797 -11.306348381352450 69 71 68
-112.077596446229137 -143.383253135337128 -12.100813310274447 72 74 73
-112.056508214293203 -142.708256797862106 -12.783003234061709 73 75 74
-112.037889252589522 -142.054642887297689 -13.352932882451512 70 72 71
-112.040319476988870 -141.563513725109942 -12.913390170935600 68 70 69
-112.031216435984334 -140.982949629530708 -13.034579957356215 66 68 67
-112.019897705543471 -140.385821163167208 -13.267859112318547 65 67 64
-111.994799156168455 -139.688335127357732 -14.173916825826211 61 63 60
-111.983709962226442 -139.095188166993353 -14.407045187672963 56 58 55
-111.972722807963962 -138.503209412826465 -14.640112709153470 52 54 51
-111.975665937771012 -138.009017239569147 -14.200356154560239 49 51 48
-111.964858882599671 -137.417731230707261 -14.433330386477508 43 45 42
-111.963344454492344 -136.889838671470073 -14.217770977154743 37 39 36
-111.948124614090190 -136.269211308370274 -14.674876065540587 41 43 40
-111.946768470087449 -135.740907946366036 -14.459245162244031 42 44 41
-111.950061162825278 -135.241058785415447 -14.019379608159085 42 44 41
-111.948834437334128 -134.710156138083022 -13.803713547239767 40 42 39
-111.947673373576450 -134.178223847727594 -13.588026672605224 41 40 38
-111.937448854174448 -133.589569788515035 -13.820695129427207 38 37 35
-111.936426175534407 -133.056663052095502 -13.604952082289543 38 38 36
-111.928635559781540 -132.482588525719336 -13.725447208572461 35 35 33
-111.925469214583615 -131.935322736175465 -13.621736374035891 31 33 30
-111.922367358742719 -131.387563793424960 -13.517999764285577 29 31 28
-111.919328727744585 -130.839310110529880 -13.414238000596100 26 28 25
-111.920884458470368 -130.315136430806859 -13.086312672595682 27 29 24
-111.915699874929729 -129.753328181174481 -13.094575934131939 27 29 24
-111.919624665518981 -129.238539368747212 -12.654561767939242 27 29 24
-111.910040723044503 -128.652788750101820 -12.886893888382559 27 30 23
-111.907297646189775 -128.101766567765111 -12.783019230159482 24 29 26
-111.897848936971045 -127.517460704124190 -13.015271783887698 26 29 28
-111.892972596995264 -126.955592357937178 -13.023388201363161 24 26 25
-111.888154821155581 -126.393762218778036 -13.031476208672473 26 28 27
-111.878900619467586 -125.811748723033389 -13.263612114170428 27 27 27
-111.874201149789300 -125.250535374238368 -13.271637175284582 30 30 30
-111.871799258001744 -124.698922095912934 -13.167605379742781 36 36 36
-111.871687208998068 -124.156091244254199 -12.951528844412081 44 46 45
-111.862667600408670 -123.576117621320236 -13.183531523940133 45 47 44
-111.853708856471258 -122.997263136981374 -13.415493566171563 49 51 48
-111.842576203260379 -122.411049223459187 -13.759430238370015 48 53 49
-111.838200991195038 -121.851111952129159 -13.767287040447258 46 48 45
-111.833874910597160 -121.291201950912225 -13.775120057493837 41 43 40
-111.838506410732847 -120.761962726158373 -13.334916549229860 41 43 40
-111.843168821567673 -120.230572360681677 -12.894720396165440 43 45 42
-111.843415067283331 -119.682795843996189 -12.678523362083695 44 46 43
-111.839256653976307 -119.120264430449652 -12.686303151187076 41 43 40
-111.830704845521140 -118.544609261216991 -12.918037584721077 36 38 33
-111.833291640823603 -118.001568744703448 -12.589813204790346 32 34 29
-111.831479621385768 -117.444858644262354 -12.485551680488840 31 33 28
-111.829706622650562 -116.887624191354348 -12.381276886240272 29 31 26
-111.812491481253247 -116.291468677982323 -13.060802388580981 28 30 25
-111.806388595259222 -115.724660380392848 -13.180415315789190 27 29 26
-111.800330213553522 -115.158412987635501 -13.300001178623177 27 29 26
-111.803139283017288 -114.611402743374470 -12.971711325897559 26 28 25
-111.799364671145412 -114.049584257944815 -12.979300167182686 26 28 25
-111.797831337683405 -113.491905797813104 -12.874915288278316 29 31 28
-111.794132406697031 -112.929843863503748 -12.882470430028803 34 36 33
-111.786074018042186 -112.360631901124194 -13.113902490056745 37 39 36
-111.773666197307065 -111.785900631968303 -13.569189886321482 40 42 39
-111.756918780996187 -111.207280723632195 -14.248311127792277 41 43 41
-111.751195956389978 -110.645763807684389 -14.367687768085915 41 43 42
-111.743320664610806 -110.082306909115886 -14.598972995433172 42 44 43
-111.737677759384610 -109.522169154622318 -14.718297206167648 35 37 36
-111.734261779880086 -108.964534197234826 -14.725671415801742 33 35 34
-111.730880585494333 -108.406907414687169 -14.733028900206534 35 37 34
-111.729719042981543 -107.850694594504660 -14.628451071218223 33 35 32
-111.724221337950496 -107.291675792457752 -14.747694300737379 32 34 30
-111.725306667694582 -106.735795065080609 -14.531179272444462 34 36 31
-111.717697843906379 -106.176469205249333 -14.762294499561222 33 35 32
-111.716665252342196 -105.619192701208846 -14.657665929913406 28 30 25
-111.709131073499933 -105.061235586751096 -14.888731357960239 28 30 25
-111.710339125401504 -104.503470650309765 -14.672177014918248 28 30 25
-111.707225682986106 -103.945614714693519 -14.679408766485835 27 30 23
-111.704145171848964 -103.387761369795953 -14.686624737175237 27 29 24
-111.698926283285815 -102.830950357974217 -14.805711855957952 30 32 27
-111.698082648354216 -102.272060059058091 -14.701009501706153 31 33 28
-111.701605470484637 -101.709458737810991 -14.372538678939009 33 35 30
-111.705152432708999 -101.145226482003793 -14.044073095662412 27 29 24
-111.697896463550109 -100.590001526606102 -14.274977305664521 25 27 22
-111.695007129233659 -100.031063756568130 -14.282112980550920 26 31 25
-111.683500153968623 -99.482810315908935 -14.736696865840628 30 35 29
-111.676359792704034 -98.930842865097887 -14.967512238291278 28 33 27
-111.667098065827901 -98.383175251953574 -15.310157089310366 32 37 31
-111.670829120341921 -97.816213027251138 -14.981631537854668 26 31 25
-111.674585599360540 -97.247615598850317 -14.653110655376196 37 39 36
-111.665432155876786 -96.701567074604952 -14.995687037896175 37 37 35
-111.654165700738290 -96.161447135915708 -15.450072136959989 30 30 28
-111.651557073132039 -95.605198127575719 -15.457045845943554 27 27 25
-111.653287001229501 -95.039249759826987 -15.240326075287783 22 22 20
-111.648593923812541 -94.487561533324126 -15.359108916417767 36 36 34
-111.639638946897875 -93.947189534313566 -15.701531921885476 34 36 31
-111.639320323560241 -93.385792102750685 -15.596604211062527 29 34 30
-111.639034951184399 -92.823841679662863 -15.491666285312931 31 36 32
-111.638783285069749 -92.261337554776588 -15.386717934134367 1 4 1
-111.621406317228463 -91.750100920887363 -16.176305625925551 6 12 9
-111.619088822223432 -91.195412100082407 -16.183123998276528 8 14 10
-111.616808645568568 -90.640711229718448 -16.189924641688862 10 15 11
-111.595292040845109 -90.151638849025318 -17.202982343623432 12 17 13
-111.575973734839366 -89.659882152856014 -18.104157133073784 34 39 35
-111.573826672246298 -89.109763414901110 -18.110846928984472 7 12 8
-111.582410758336152 -88.519083287387332 -17.558526074305234 6 12 8
-111.588886993413809 -87.934049072998690 -17.118014377025503 8 14 14
-111.591122932474448 -87.364128861482968 -16.901093416642567 13 17 18
-111.591260754082384 -86.802028342270802 -16.795954581356597 14 18 19
-111.587169711371573 -86.257759621471905 -16.914373038447280 10 16 16
-111.576722721666343 -85.742422769402680 -17.368111003296207 8 17 16
-111.576989293681009 -85.180536114336618 -17.262908372845885 7 15 14
-111.564508042468219 -84.678162817751556 -17.828344965958735 13 17 16
-111.569126747870413 -84.096206636180867 -17.499549105691131 11 17 15
-111.556746273496117 -83.597052269963044 -18.064904353442529 15 19 18
-111.567840765125979 -82.981473260764844 -17.400779941134715 19 17 18
-111.555561309751170 -82.484717965670384 -17.966062166898809 16 11 13
-111.560358033669601 -81.899670780179036 -17.637212960439314 14 5 2
-111.548184996956977 -81.406126742947379 -18.202411220789799 22 7 4
-111.529691129633576 -80.951027530705034 -19.102814267703224 58 35 36
-111.502758065939744 -80.549010717194719 -20.450143733118608 140 110 113
-111.488640760041193 -80.078724183063287 -21.126891608940724 137 101 107
-111.497947336611674 -79.471599797379014 -20.574394386302259 135 98 105
-111.507300649931537 -78.861721209047559 -20.021903155354551 141 109 115
-111.529438617896858 -78.169418120003684 -18.798990916716065 110 82 88
-111.536764131243288 -77.565943773845774 -18.358262741163458 96 75 80
-111.550506937384682 -76.918787310226477 -17.582337541952057 18 8 12
-111.540968393837943 -76.422823608085153 -18.035441491708241 17 17 20
-111.542096230666800 -75.857163022054991 -17.929865682090167 15 20 20
-111.536923146807155 -75.334834451071330 -18.159434827894245 15 21 20
-111.536052908855609 -74.783729219707666 -18.165523949745250 12 18 17
-111.541603483214715 -74.187028260496632 -17.836434061966202 15 20 19
-111.551453856627646 -73.557735241773742 -17.283904881658742 14 20 19
-111.557129100647884 -72.957128379033108 -16.954795557768279 14 19 20
-111.552277865432799 -72.434842674930209 -17.184210291033651 17 18 20
-111.545378007322171 -71.929869026360791 -17.525285761706130 20 21 23
-111.553373904772116 -71.310657251605392 -17.084398869954668 18 22 23
-111.557203888841073 -70.722848032515671 -16.866899464445339 18 24 24
-111.569575488476303 -70.065530087134746 -16.202593727883254 18 24 24
-111.567198241605055 -69.526426329133614 -16.320139145362020 16 24 26
-111.575482992195518 -68.899628970390594 -15.879192149484879 16 24 26
-111.571141313674559 -68.378038878867599 -16.108355952284626 15 25 26
-111.583815796833392 -67.712027948531869 -15.443994798544225 14 24 26
-111.585984827168019 -67.134947054969700 -15.338038440484468 16 27 29
-111.592470526597481 -66.519800132604416 -15.008691065642267 20 31 35
-111.584218956737601 -66.035938860348068 -15.461054755207499 26 40 43
-111.580286631847898 -65.515643466749722 -15.690009397657064 32 46 49
-111.591264351110027 -64.859553448475054 -15.137216733937578 33 47 50
-111.610804616388378 -64.121389388138226 -14.137737067217415 35 49 53
-111.636794898783450 -63.317964249917324 -12.803266844714983 40 54 57
-111.686189330220699 -62.283914838143225 -10.240526354911651 43 57 60
-111.739933320110964 -61.195953560417657 -7.454542223331714 47 58 62
-111.787437772437102 -60.156981486381845 -5.003615449412877 43 55 57
-111.813865463355697 -59.317723110194287 -3.669304821691554 39 49 51
-111.829807623442193 -58.579089895815315 -2.893269075241136 18 27 28
-111.843742977110963 -57.858261797809789 -2.228868986015243 0 5 6
-111.851429804174856 -57.200056858575493 -1.899390213627981 0 3 4
-111.867719947870810 -56.451009194834803 -1.123295194170595 1 4 4
-111.865027614638080 -55.900956038471918 -1.351962940462954 1 5 5
-111.875189341658043 -55.214957841434000 -0.910727389464199 3 8 8
-111.872728613485862 -54.665223365844042 -1.139281056348210 3 8 7
-111.870384262518485 -54.116463700309012 -1.367769014566704 4 10 3
-111.863905668408577 -53.615958351075477 -1.819455844455973 4 11 5
-111.866052062904913 -53.021857003146813 -1.824544400311282 4 11 4
-111.874709268677677 -52.355062262182344 -1.494689821220220 1 8 1
-111.874983905546230 -51.784341711675808 -1.611292034135971 0 6 2
-111.886039617887093 -51.090354550227019 -1.169711038047978 1 7 3
-111.892974611260414 -50.444057010031024 -0.951328256401666 2 8 5
-111.923513885509777 -49.518404708597167 0.494918927539089 1 7 5
-111.917941575412641 -49.019956453182402 0.043686835515132 3 9 7
-111.914635084649504 -48.497717121473492 -0.295847304885484 8 14 12
-111.900776725549349 -48.107492884579486 -1.193364949842504 12 18 16
-111.904150185927534 -47.510460604357931 -1.197896651144418 27 33 36
-111.914092817452442 -46.833305066224177 -0.867533777669706 21 28 30
-111.915627259936272 -46.262048411585042 -0.983538822286420 33 38 41
-111.910879542961766 -45.772775736717762 -1.434281982927018 42 47 50
-111.897689868054727 -45.395429438495171 -2.331347172566041 40 46 46
-111.912546984415215 -44.661531423748137 -1.777499535367241 42 48 47
-111.923284620582876 -43.980755561823599 -1.446793600207940 38 44 42
-111.921287656843418 -43.467945677727030 -1.785604205327871 34 40 38
-111.936674195281043 -42.727989997524794 -1.231565649015749 23 29 27
-111.960875210828306 -41.869688002982528 -0.231092935451528 16 22 20
-111.976655913049498 -41.122733863552952 0.323062148807054 11 17 15
-111.986153574333756 -40.461020693663279 0.542512221177304 3 9 7
-111.989350294513841 -39.887018363433214 0.427274141894515 4 11 4
-112.010048303212315 -39.073743674318813 1.204816747823145 1 8 0
-112.030967276942050 -38.256389538563056 1.982423070871704 0 7 0
-112.039086578214935 -37.617955883996615 2.090594483362565 1 8 0
-112.038708340291947 -37.101841588090736 1.752524257153908 1 7 3
-112.045037325615795 -36.493981547682836 1.749295013280317 0 5 1
-112.060281983412224 -35.760560811095694 2.192474076917080 3 9 6
-112.071386673214747 -35.087887819971769 2.412580131276314 9 15 13
-112.076151108184831 -34.509491630732043 2.298046813177280 11 17 15
-112.074549930495195 -34.027850832195455 1.848887504882128 13 19 18
-112.066556114344877 -33.645446100420358 1.065114812185186 11 17 13
-112.063119460954908 -33.201215443440724 0.504603615066344 13 19 15
-112.088453992040527 -32.330655906723798 1.394633540619026 10 16 12
-112.107457231595959 -31.555167972034830 1.950036563003607 8 14 10
-112.117894840521217 -30.910771932101955 2.059255672100988 9 15 11
-112.115304958542595 -30.468413853175107 1.499168842909370 7 13 9
-112.128407236395304 -29.789866114457542 1.720170064816500 3 9 5
-112.137322860413676 -29.178633638077915 1.718143545850495 3 9 5
-112.146476246574835 -28.567077844310905 1.716227443410304 4 10 6
-112.160324637578299 -27.885341812550177 1.937552784589286 6 12 8
-112.167741961900077 -27.307765447072608 1.824297038520569 10 16 12
-112.182106275046678 -26.623958389376952 2.045847876974108 10 17 11
-112.187780447412365 -26.081720600272998 1.821263085783329 11 17 14
-112.195937319604241 -25.504198631940938 1.708361696817860 12 18 15
-112.204344691181205 -24.926865727938381 1.595582092033709 11 17 15
-112.237808601223975 -23.947188636064418 2.710095652644071 11 17 15
-112.249043216775718 -23.330274942325897 2.709120051654509 9 15 13
-112.246960457222613 -22.935872939540914 2.038910579155328 8 14 12
-112.256442608982098 -22.357269362600462 1.926632065851550 4 10 8
-112.293503943649526 -21.326308977293689 3.153197622290065 9 15 13
-112.312721055659935 -20.592692261945277 3.487416192178046 13 19 17
-112.327688042879061 -19.933506701820065 3.598649904364862 9 15 13
-112.308566951185355 -19.851539407167206 2.036634320212869 10 16 14
-112.305669892027026 -19.505172299518499 1.255670851959565 11 17 15
-112.291463396783911 -19.357814390514015 -0.082948934698265 10 16 14
-112.328259953414374 -18.350186958227166 1.032871245721338 15 21 19
-112.349268038681373 -17.614162341894254 1.367921825341881 13 19 17
-112.391546580888402 -16.516429072049888 2.707154834060361 13 19 19
-112.383024047530526 -16.296535096820875 1.592225354957719 13 19 19
-112.374689629128525 -16.081765408045641 0.477438616259832 11 17 17
-112.378266987858026 -15.668150401862828 -0.079401959229443 13 19 19
-112.410325888886661 -14.763936005524844 0.702639570557466 10 16 16
-112.456976212222443 -13.607106855443249 2.154214605720682 9 15 13
-112.475762306995662 -12.942073167233360 2.267215168150301 10 16 14
-112.487788985383602 -12.401688181957269 2.045688465906608 9 15 13
-112.454882044981986 -12.663754447654133 -0.295393105192375 7 13 9
-112.441118616415864 -12.597233876660940 -1.743827715861755 6 12 8
-112.473063692230781 -11.724858083332943 -1.072371793852312 3 9 7
-112.493439340197952 -11.063764218399880 -0.958570240043002 5 11 9
-112.521443654800294 -10.271489833056819 -0.509892810498940 6 12 8
-112.523236299739906 -9.956172649876011 -1.288293127916063 5 11 7
-112.549604556318982 -9.205149483347208 -0.950832648324734 3 10 3
-112.552002402859330 -8.893693127699311 -1.728903697933220 6 13 5
-112.593860833120715 -7.873965284160469 -0.721645375051423 5 12 4
-112.611688691452372 -7.296056126554266 -0.829924182930654 4 11 3
-112.659522870407486 -6.177485770824258 0.400893251851812 2 9 1
-112.710454730622899 -5.006608498560109 1.743513070283115 1 8 1
-112.650069407166939 -5.880999675568724 -1.934717716208951 1 8 0
-112.686874751349762 -4.983280046760958 -1.261197535302159 1 6 0
-112.736767572661563 -3.850436370187897 -0.029542175534402 4 9 2
-112.794876115066785 -2.571099563106076 1.537112284420516 9 14 7
-112.823365704390397 -1.844156836567326 1.764976589470848 1 6 1
-112.733282324937122 -1.764089279027357 -16.348941408109170 65 72 64
-112.764062741689244 -1.114769178600089 -16.230041055305037 73 79 71
-112.738900187883146 -1.433054650854051 -20.784016744276471 24 31 26
-112.677415782817590 -2.558841623885677 -24.460185584424380 27 33 29
-112.629331262533555 -3.441625347378576 -27.578150895543217 28 34 30
-112.065111800966022 -174.651994966389452 -19.323325228632626 37 28 13
-112.115666507250538 -175.060246806589419 -16.190888911380569 47 36 20
-112.161237095830089 -175.384744818253182 -13.283416869026837 56 45 29
-112.163754486420132 -175.083610862596316 -12.398441201715940 34 22 8
-112.159275000536638 -174.677296985754936 -11.850472140654745 26 17 2
-112.157336169585406 -174.301966891224794 -11.190109822425825 30 23 9
-112.143756902571624 -173.757956879765999 -11.091346980634029 23 19 4
-112.104538337437589 -172.852275806444396 -12.228020487231760 22 20 5
-112.084465464645888 -172.213135743811677 -12.465920040353240 19 16 3
-112.071670202311125 -171.672341348094506 -12.366749033462156 21 18 5
-112.059093968590062 -171.131307963721753 -12.267475704063287 39 35 23
-112.053701657357266 -170.685276558943883 -11.831211052908174 31 26 14
-112.048480082508902 -170.237330462195757 -11.394884430938305 20 14 3
-112.048044717713125 -169.849854486592676 -10.733927883309548 18 11 1
-112.020124480196301 -169.088332296850098 -11.420276869212785 17 10 1
-112.015455811173481 -168.636828098641274 -10.983722364316947 23 10 0
-112.006371080908977 -168.122660602120874 -10.771643282631942 39 16 7
-111.999753945590825 -167.637748108994003 -10.447223690615942 149 118 110
-111.988754874520211 -167.091821753208137 -10.347246217823994 155 118 110
-111.980218123715588 -166.575140041127639 -10.134930864727465 163 123 115
-111.967331863231522 -165.999091907464816 -10.147025160394179 163 115 111
-111.965931716370619 -165.568209770509725 -9.597835847543024 122 74 70
-111.957913561238627 -165.048692381372462 -9.385301589102824 172 123 119
-111.959047288707154 -164.642037386604471 -8.723791812392165 145 96 92
-111.942384360475131 -164.007064151901034 -8.960017168471552 110 63 59
-111.932634350317826 -163.457063812560648 -8.859484084779410 115 71 65
-111.927514742853120 -162.961946660952123 -8.534453122247555 115 76 64
-111.926989607673349 -162.520055673197049 -7.984958526439101 118 82 66
-111.922154616967987 -162.021519243391595 -7.659826600573325 118 86 68
-111.901980403470503 -161.334090780811749 -8.119989461340765 126 95 77
-111.886436234221634 -160.702076320750223 -8.355649150803600 133 102 82
-111.877688561144126 -160.150048867841463 -8.254657418586504 140 107 90
-111.873491601530532 -159.649575353772718 -7.929240200214821 146 112 95
-111.871621223571594 -159.173323583602695 -7.491601741656069 150 115 96
-111.867687779697761 -158.669656850604696 -7.166091327664418 153 118 99
-111.855159791164581 -158.064006065592366 -7.289177827139753 154 119 100
-111.838446374268671 -157.409372459937600 -7.636488595818065 156 121 102
-111.828432610906802 -156.830302392996288 -7.647239804984963 152 115 94
-111.822905959052207 -156.300015148637840 -7.433624479447076 152 116 94
-111.817510994723094 -155.768796437500072 -7.219955743103895 156 122 97
-111.803613252661151 -155.141610585872399 -7.454778084151712 155 124 101
-111.794185927016954 -154.562646882692576 -7.465247648668964 141 113 91
-111.789199750109006 -154.030256604731022 -7.251395409350550 138 116 95
-111.775756914837402 -153.405176950435958 -7.485978444401979 136 123 107
-111.764609721909977 -152.804001154878534 -7.608358312677979 42 35 26
-111.740787772726691 -152.069187063293953 -8.403330656539367 46 42 38
-111.734215102383402 -151.515258941842859 -8.301317975005617 42 43 41
-111.714995211135502 -150.829874689961713 -8.871862134112774 75 76 77
-111.702316084825895 -150.212059009317272 -9.106005041684682 91 93 92
-111.681297225168834 -149.510292032840511 -9.788437341647153 68 70 69
-111.677379035580046 -148.980089770453276 -9.574051658512587 54 56 55
-111.663003468924060 -148.345182608146047 -9.920040953458482 57 59 58
-111.650877821846677 -147.732506247604221 -10.153866176859253 58 60 59
-111.634673258969798 -147.080638466491223 -10.611763926418092 60 62 59
-111.627017379097836 -146.510772855093791 -10.621292386120729 66 68 65
-111.613180034156684 -145.882056215691165 -10.966960475481017 66 68 65
-111.599473719364866 -145.255083647342474 -11.312547927867513 67 69 66
-111.583805316986485 -144.610745306952850 -11.770111675765833 71 73 70
-111.570357118648573 -143.987524144748249 -12.115537031017567 72 74 71
-111.550781296415792 -143.310356278846115 -12.797025775819975 74 76 75
-111.539668524163773 -142.709707074234530 -13.030242641818177 75 77 76
-111.528667934430942 -142.110239999244101 -13.263393671829760 71 73 72
-111.528146413728876 -141.600659193096845 -12.936311882013655 67 69 68
-111.515277086649547 -140.984715027503142 -13.281385401457698 62 64 63
-111.502520193587443 -140.370490681162181 -13.626387429889746 60 62 59
-111.485745016067426 -139.724137799267822 -14.195360276830399 58 60 57
-111.477335024425997 -139.147190558884915 -14.316181280703745 52 54 51
-111.466960627507603 -138.554486782377978 -14.548963124190351 48 50 47
-111.464904643223505 -138.027365109767885 -14.333654858362991 45 47 44
-111.458816627815139 -137.467559704813368 -14.342329702321678 42 44 41
-111.454860434455881 -136.923382250362010 -14.238964938653510 37 39 36
-111.442794058454254 -136.317579664489301 -14.583549936679503 34 36 33
-111.432867693365694 -135.728491252725291 -14.816080228508980 37 39 36
-111.437315153180933 -135.243746161690439 -14.264647879112687 39 41 38
-111.433659364388078 -134.698460510986308 -14.161150810150360 41 43 40
-111.434143293251452 -134.181081722557792 -13.833668285257602 44 43 41
-111.422489498649242 -133.578580984704502 -14.178021918175915 39 38 36
-111.423102625140260 -133.059679773292146 -13.850493256645507 38 38 36
-111.415661701778475 -132.485680831013497 -13.970820313262095 40 40 38
-111.412344332931198 -131.938492112923797 -13.867180934586457 35 37 34
-111.411111626237968 -131.403643266897689 -13.651558355259311 33 35 32
-111.409935232146580 -130.867753615153134 -13.435919549712622 33 35 32
-111.412847999250104 -130.355401287486416 -12.996364452124908 32 34 29
-111.403717785904561 -129.768811105105328 -13.228488152159457 30 32 27
-111.404720529569900 -129.242080207667158 -12.900853693999835 29 31 26
-111.397731555353005 -128.667866419007225 -13.020966751216434 28 31 24
-111.398836838274761 -128.139041234360064 -12.693304796178353 25 30 25
-111.393972240252182 -127.575836882912895 -12.701429348516911 27 31 28
-111.385160364462081 -126.991358235736413 -12.933379021863487 26 28 25
-111.380415140945999 -126.428773687243847 -12.941440085904190 27 29 26
-111.373727485187146 -125.856112839042339 -13.061393008207006 25 25 23
-111.371090470827468 -125.303710463854486 -12.957481817068185 24 24 22
-111.368502440607443 -124.750797026898042 -12.853552452700399 25 25 25
-111.361979598847540 -124.178780084723527 -12.973419900502819 29 31 30
-111.357501719282240 -123.616361710342019 -12.981351357600204 35 37 35
-111.349099997195665 -123.036470071668688 -13.213057598438127 43 45 42
-111.342741113204283 -122.466174650824044 -13.332828888922194 45 50 45
-111.328503250873908 -121.863621376282197 -13.900137041611742 48 50 47
-111.322256808954052 -121.295556100452302 -14.019831584191309 49 51 48
-111.318039659066088 -120.735723431122011 -14.027611693143712 43 45 42
-111.317821523357310 -120.190697547460985 -13.811608503896110 39 41 38
-111.321589525198164 -119.658845444615594 -13.371844985923360 42 44 41
-111.319467314293888 -119.104297933307095 -13.267709595539799 43 45 42
-111.313442802769515 -118.536077341125690 -13.387299566128064 41 43 40
-111.317308854805688 -117.999937807988843 -12.947533273951734 37 39 36
-111.313333521828767 -117.437516833162789 -12.955224341251522 34 36 33
-111.307434214147676 -116.869355295328376 -13.074753806874270 33 35 32
-111.295689610046551 -116.285293292034254 -13.529819968508463 30 32 29
-111.293805947889496 -115.729501487396448 -13.425583265358256 29 31 28
-111.289998109914933 -115.168238555959633 -13.433182283300681 28 30 27
-111.290143822278822 -114.616334473849648 -13.217075831134281 26 28 25
-111.284452671638007 -114.050158269486630 -13.336485279107706 24 26 23
-111.284664338645584 -113.496923412438690 -13.120360972800768 26 28 25
-111.277096651385435 -112.927190503553547 -13.351563645327531 30 32 29
-111.271522645558491 -112.362141792078404 -13.470905445772814 33 35 32
-111.264039034597431 -111.794336574036436 -13.702048053796034 40 42 39
-111.258544504542584 -111.230670320139467 -13.821337602974040 43 45 43
-111.255033405559601 -110.670326683681026 -13.828785199235000 41 43 42
-111.247669326756608 -110.104999837461577 -14.059845112357294 42 44 43
-111.238403863682180 -109.538544988261066 -14.402685137219493 38 40 39
-111.229181825214155 -108.973729839515997 -14.745487509638309 34 36 35
-111.223880064330913 -108.413915544131314 -14.864645188561354 34 36 33
-111.220551351083600 -107.856061246216854 -14.871979908099377 34 36 33
-111.215319660017187 -107.297076368270183 -14.991095528251861 32 34 30
-111.212057200076714 -106.739506549178060 -14.998395624151556 35 37 32
-111.208826694994940 -106.181942142453750 -15.005680377244147 34 36 33
-111.207558650727293 -105.624704202667218 -14.901164050401349 29 31 26
-111.204389916792607 -105.066877010954570 -14.908421957366812 29 31 26
-111.203180248919651 -104.508831434437838 -14.803886016867494 27 29 24
-111.200072724182576 -103.950739144765706 -14.811117370349109 26 29 22
-111.196996405842796 -103.392649367607618 -14.818333768934622 28 30 25
-111.193951214260508 -102.834561532218615 -14.825535256598471 32 34 29
-111.194780446977830 -102.273856253356897 -14.609192405777378 32 34 29
-111.195634911302975 -101.712064422552061 -14.392848668666630 32 34 29
-111.190758339757807 -101.154744730784827 -14.511777260259521 26 28 23
-111.180163650207760 -100.604343160001903 -14.965946822972711 26 28 23
-111.173443285989364 -100.051321872119757 -15.196572117950495 26 31 25
-111.170588783121531 -99.494049260727238 -15.203673989276808 32 37 31
-111.165852330488150 -98.939715048311015 -15.322504817423862 28 33 27
-111.163061783173006 -98.382709606294711 -15.329573342524441 30 35 29
-111.166034157085321 -97.815248557864095 -15.001415875911249 27 32 26
-111.169030210431359 -97.246152638881341 -14.673263909682021 36 39 35
-111.158695473760133 -96.703616027511231 -15.127228153850723 37 39 36
-111.148403319911921 -96.163249217334439 -15.581149691689205 29 31 28
-111.141964301879469 -95.615908568967242 -15.811581917939776 26 28 25
-111.141274872822493 -95.055118976346151 -15.706825342510285 20 22 19
-111.140615790859840 -94.493778839227247 -15.602059916166070 36 38 35
-111.134282960691394 -93.948048844210788 -15.832424763242386 34 36 31
-111.131789108514795 -93.392080251130466 -15.839340677598699 28 33 29
-111.123631956798718 -92.853895446543504 -16.181359492335105 30 35 31
-111.121209868568812 -92.298724294853344 -16.188232866600487 0 4 1
-111.107442186378051 -91.782390689500673 -16.865287469275387 11 17 15
-111.106992376714544 -91.222083482577034 -16.760411295311116 10 16 13
-111.102786946531225 -90.675257800721639 -16.878910795061273 12 17 14
-111.091046531671935 -90.158124859475350 -17.444144903039074 10 15 12
-111.081245838748586 -89.636135855910808 -17.897642155659980 34 37 35
-111.073381901896298 -89.108474404322934 -18.239412375251788 12 14 11
-111.080682354220585 -88.517581949776698 -17.687707792154868 7 11 8
-111.084232346112884 -87.940710982354886 -17.359370856103283 10 14 12
-111.084038930521473 -87.379492182306336 -17.254381407579785 12 18 15
-111.078221964374507 -86.844478119345879 -17.484389162604572 13 19 16
-111.072449073824373 -86.310534171564427 -17.714364816781824 11 15 14
-111.062950748480034 -85.796590982052166 -18.167634598183469 10 12 11
-111.066690150849411 -85.216640261850216 -17.839238750251383 11 11 11
-111.051634392265257 -84.735134153745207 -18.627409952253174 13 12 12
-111.057339244692102 -84.144316338179223 -18.187326815301901 20 14 14
-111.053673705571953 -83.604068732196623 -18.305500321578478 16 6 7
-111.068859735097973 -82.956085222095709 -17.307175432610762 18 0 2
-111.052121214275090 -82.491842088393724 -18.206832850752306 28 6 9
-111.037321015644054 -82.020556518972199 -18.994776588609454 104 77 75
-111.011310464173079 -81.622904132136512 -20.452478687023756 136 106 103
-110.981613082989099 -81.256125851097337 -22.133344519295491 133 100 99
-110.942603577824002 -80.958411358098800 -24.372248756097918 125 89 89
-110.933685716915619 -80.472223136815657 -24.824955149472174 120 83 84
-110.937949168181433 -79.899070959675484 -24.496238617525279 115 77 81
-110.949757090739297 -79.272246017652932 -23.721029777422530 119 84 88
-110.976598494324662 -78.535383744386209 -22.052890561691356 103 71 76
-111.007220740698813 -77.763230068475124 -20.161588106025022 131 102 107
-111.030386626924226 -77.037062186428841 -18.716814932299968 109 93 100
-111.031128556291378 -76.472871426528599 -18.611408609830079 15 11 18
-111.035669886251185 -75.879371599812814 -18.282768590247429 14 19 22
-111.034653505713266 -75.328104614003962 -18.288929291230573 16 21 24
-111.037438110115005 -74.746981096009719 -18.071861172490742 14 19 22
-111.038411795602414 -74.179905555764250 -17.966373673180669 11 16 19
-111.046925941844478 -73.550432387912721 -17.414485593736998 13 18 21
-111.051761165386083 -72.949639075679642 -17.085780051982510 14 19 22
-111.049183296555157 -72.411151361670321 -17.203415105068757 17 20 25
-111.042935136288321 -71.905697381801687 -17.544183750018021 18 23 26
-111.049835386793063 -71.286035656619163 -17.103825643575362 16 24 26
-111.053066374585171 -70.697769918451115 -16.886617495011848 18 26 28
-111.060103016795566 -70.074186989846396 -16.446234502161388 19 29 28
-111.050400321582430 -69.604598042237740 -17.010004377834662 20 29 28
-111.055713818502639 -68.996624456438042 -16.681143941898085 18 27 26
-111.055499069347249 -68.440667357029298 -16.686969422870988 16 25 24
-111.075903001994206 -67.684706675254844 -15.465542000365843 17 25 27
-111.081444935338453 -67.070277487052834 -15.136638731985585 19 27 29
-111.077729808795411 -66.547754506147513 -15.365512397165787 16 25 28
-111.061023840022358 -66.159213886220982 -16.375233883434760 17 27 30
-111.061207830229293 -65.602107384770207 -16.380880440236126 22 32 35
-111.067079564471584 -64.986308813313883 -16.051833491986457 23 34 36
-111.078642262446039 -64.309361065103872 -15.388116790627919 28 39 40
-111.088427526190202 -63.649147656982173 -14.835937037663967 28 41 41
-111.115120725491735 -62.802902272447071 -13.279853542588285 28 44 50
-111.153126505395122 -61.825147323584645 -11.054558532216475 32 47 52
-111.185633676234445 -60.899101838629988 -9.163938420846108 43 57 60
-111.216382096769436 -59.984863508857877 -7.384897037533591 48 62 64
-111.236025383704600 -59.190496249620786 -6.275087728445811 53 64 66
-111.253910657842624 -58.412295126263288 -5.276811925416837 49 57 60
-111.262556110124137 -57.739059668139589 -4.836170381772519 49 53 54
-111.293771530094659 -56.796305710047164 -3.057199113218132 37 41 42
-111.306395744145377 -56.070128455413887 -2.393481330247681 26 30 31
-111.322886385428731 -55.294931587177850 -1.506700675409320 10 14 15
-111.326388781523704 -54.676872196944288 -1.400528251992313 0 4 5
-111.333758919621914 -54.011425167671526 -1.071275528991606 2 7 4
-111.331877604043314 -53.462396890485088 -1.299544737621972 1 5 1
-111.324486128700016 -52.986067079323362 -1.862278320726546 0 5 1
-111.324717477741942 -52.415615277149520 -1.978898476028490 1 5 2
-111.319438327381050 -51.918950149835197 -2.429971966806221 1 7 3
-111.331191798292807 -51.201771713645634 -1.877436999930410 0 3 0
-111.329924333204147 -50.656745650364243 -2.105371347792186 0 6 2
-111.341956050008918 -49.935732530943817 -1.552742741355786 13 19 15
-111.329658419053288 -49.544003725782616 -2.449529226595189 30 36 33
-111.326898237763842 -49.027383681795079 -2.788744172264757 37 43 41
-111.312955849395294 -48.668851115756048 -3.796834683167560 41 47 45
-111.301016141434445 -48.288723262022678 -4.693330524852229 37 48 44
-111.291084370858712 -47.886175741914258 -5.478237668142725 36 46 45
-111.313409109479551 -47.029639849330508 -4.367785494733624 33 42 41
-111.311320950352709 -46.520998153549080 -4.706596822158048 35 43 42
-111.282863192486957 -46.398413810071624 -6.606073781852530 37 42 45
-111.279137476817169 -45.924306717174659 -7.056171913618329 36 42 41
-111.285037856093723 -45.312123156633760 -6.948791820400004 25 31 29
-111.300595380078647 -44.557740752769313 -6.283961081781655 21 27 27
-111.312534532190853 -43.857012832913298 -5.842026837147813 17 23 23
-111.336073659438853 -42.980836943965919 -4.731195868730964 11 17 18
-111.388405676912058 -41.662197864514596 -1.948261702411230 14 19 22
-111.421942162756949 -40.623538321555877 -0.280026133182815 5 11 9
-111.444262262336920 -39.754425935327056 0.719435479837585 4 10 6
-111.453416278883040 -39.089747201769974 0.938690627706478 1 7 3
-111.468507597400560 -38.333090505129206 1.492416039868687 1 8 0
-111.474221560546354 -37.725921891696402 1.488899688698410 1 8 0
-111.476283364529110 -37.180058672916637 1.262549434486488 1 7 2
-111.478525705735507 -36.635059185621046 1.036294439485630 0 4 1
-111.488655019042568 -35.965636528289927 1.255967334391300 1 7 3
-111.491277854955612 -35.421246484507513 1.029900640062095 6 12 8
-111.494089295224200 -34.877704721679379 0.803932905192084 5 11 7
-111.495156889894574 -34.367154313472810 0.466611632231434 7 13 9
-111.500288506477347 -33.793145290809399 0.352299131866772 4 10 6
-111.497856777602635 -33.350219057849962 -0.207717885716875 6 12 8
-111.522834097930314 -32.448099305566487 0.792675171200756 5 11 7
-111.534450619517443 -31.773493080553585 1.013006184383784 5 11 7
-111.546301553249407 -31.097488492604860 1.233434945481179 10 16 12
-111.540788238539150 -30.724341939089072 0.450944215250502 6 12 8
-111.549166408199426 -30.116179031817456 0.448692176578646 7 13 9
-111.557774556320155 -29.507704986275094 0.446546956111462 1 7 3
-111.578421881815657 -28.691082968513566 1.113171974713708 4 10 6
-111.587525383346900 -28.080301747840736 1.111239980707580 9 15 11
-111.606750153487297 -27.293221429077867 1.666629656331850 4 10 5
-111.598538582041797 -26.999616973302452 0.661949086257465 8 15 8
-111.618283214285754 -26.210182778668123 1.217563232503323 6 13 6
-111.622410431289865 -25.705828316236818 0.881769450362071 14 20 16
-111.642718518420978 -24.912340774447266 1.437611428356121 11 17 13
-111.647343239801486 -24.408366001674924 1.102059558939573 12 18 16
-111.662221828192855 -23.721374839471348 1.323823649320133 7 13 11
-111.671361722997432 -23.144304177419507 1.211397180525267 13 19 17
-111.684791445381606 -22.492558070902692 1.321972048517637 10 16 14
-111.710624068946487 -21.613661199452721 2.101295554509818 7 13 11
-111.728713538644101 -20.882354176672976 2.434998439006506 13 19 17
