ply
format ascii 1.0
element vertex 698
property double x
property double y
property double z
property uchar red
property uchar green
property uchar blue
end_header
-121.181101950846625 -82.099480641500776 -5.272503359900355 46 56 65
-121.174053421736673 -81.538524260218338 -5.392508442819519 49 60 66
-121.167093137632747 -80.978066368450968 -5.512466178427275 17 27 30
-121.160222001882232 -80.418105358701979 -5.632376151112112 17 27 29
-121.180007715616682 -79.810681526372193 -5.296586597369611 14 24 26
-121.153392594067370 -79.287405111039192 -5.758141066986212 11 21 23
-121.140152925127111 -78.741187152543759 -5.991815144909509 13 23 25
-121.166856737748731 -78.119157149570100 -5.542007460104088 15 24 26
-121.193655726540570 -77.494886832521431 -5.092177304023295 13 18 21
-121.227193664364876 -76.855020240436545 -4.528424913197910 8 14 14
-121.234261823753528 -76.266869803297112 -4.420238772964410 6 12 12
-121.194931761544154 -75.775407664503504 -5.109266316120028 9 15 15
-121.155698083506749 -75.287156064412869 -5.798214701730473 8 14 12
-121.156419945027693 -74.715439495687477 -5.803754331500841 3 9 7
-121.203748415046547 -74.040622706492044 -5.012046587438931 0 6 4
-121.237898609827013 -73.391895138863134 -4.448092505456998 3 9 7
-121.238936700193136 -72.816687584306820 -4.453516786902640 3 9 7
-121.240081678533727 -72.241404187135672 -4.458890714193814 4 10 8
-121.254626190145430 -71.634420090542150 -4.236462892081079 2 8 6
-121.249344474359702 -71.074516420572166 -4.355611901475697 0 6 2
-121.250819809032791 -70.498718789132610 -4.360833080701411 0 6 2
-121.252408180736722 -69.922836180566392 -4.366001058111266 3 9 5
-121.280705161606761 -69.279248131449421 -3.915653114875511 2 8 4
-121.315774674476472 -68.616205147582420 -3.351406590041648 1 7 3
-121.324370431393120 -68.020140735967928 -3.242571114901835 2 8 4
-121.326437020876398 -67.441159011280718 -3.247542215324387 2 8 4
-121.302016387028758 -66.934073064144641 -3.707880192924051 2 8 4
-121.310977587213543 -66.337715429724923 -3.598872909267044 4 10 6
-121.313411798457906 -65.759253210618894 -3.603662793167246 4 10 6
-121.355907574573621 -65.067769467817413 -2.925297439550206 4 10 6
-121.338634470318809 -64.544729746863794 -3.271521398780266 4 11 4
-121.374751371674051 -63.868286512387897 -2.706911742396272 4 11 4
-121.371056733263856 -63.306834491547313 -2.825317437367829 2 9 2
-121.400800434657697 -62.646239850576087 -2.374452445385742 1 8 1
-121.384054367331714 -62.124652667127584 -2.720409320257346 1 8 1
-121.427417096325783 -61.420422940018497 -2.041760420174512 2 8 4
-121.390949228832994 -60.961616808742654 -2.729082554498177 4 10 6
-121.407946087009435 -60.337884054305405 -2.505653940543795 2 8 4
-121.398417603966038 -59.798061050270398 -2.737486773376133 3 9 5
-121.442400358072419 -59.086724910815605 -2.058614405277041 4 10 6
-121.426496451229582 -58.568458681684497 -2.404134209209104 5 10 6
-121.384031753452476 -58.140126791189857 -3.204870404836555 5 10 6
-121.381756754552313 -57.581196147360501 -3.322570995332370 4 9 5
-121.406351861317617 -56.932036894294484 -2.984910248100789 4 9 5
-121.431118835947970 -56.281076436079509 -2.647185820581143 6 11 7
-121.442692574419581 -55.674722829959805 -2.537031601121015 6 11 7
-121.461121209076978 -55.044177319614548 -2.312988157324924 7 12 8
-121.513170388553178 -54.293588185562854 -1.519802004850220 5 10 6
-121.552041014292612 -53.587042279672289 -0.954184838078987 6 11 7
-121.537557192195507 -53.072018106898582 -1.298991906221517 8 13 9
-121.523231969770734 -52.558466027421098 -1.643707947828688 6 11 7
-121.488968543454988 -52.120950512498567 -2.329756330039856 6 11 7
-121.488362255172717 -51.560895838363535 -2.446670185304555 8 14 10
-121.501342406812498 -50.950388837582864 -2.335885895583289 7 13 9
-121.514512837118161 -50.339136795807057 -2.225018246281650 5 11 7
-121.521164983861539 -49.753092520390766 -2.227868330211493 6 12 8
-121.507862711209313 -49.245544338211637 -2.572033195022840 10 16 12
-121.555195707586179 -48.500863086218445 -1.891901320499784 11 18 11
-121.569157371593192 -47.886583101822431 -1.780686315842047 10 17 10
-121.576599639201348 -47.298594321686060 -1.783178424422402 4 11 4
-121.644800277911258 -46.464353627605718 -0.761408766902264 5 12 5
-121.699807275370119 -45.680140647510441 0.032846288418284 4 11 4
-121.714659566648791 -45.059160808220085 0.144418401137756 5 10 3
-121.689292433684869 -44.606381017640658 -0.426672262764725 4 9 2
-121.718051615605361 -43.928586924878587 -0.087314189042161 4 9 2
-121.686321723779429 -43.507349485702271 -0.771982978626482 5 10 3
-121.688523567613828 -42.944202004957212 -0.887585268924170 9 14 7
-121.684184337452649 -42.410620281443293 -1.116871336329211 10 15 8
-121.740901811794117 -41.611941397707355 -0.321946899544230 4 11 4
-121.696432814094607 -41.256501788310246 -1.233750513437570 4 11 4
-121.679203884164281 -40.784807593066766 -1.690283699452777 2 9 2
-121.702821685064677 -40.132767145216604 -1.463979034502842 2 9 2
-121.753816343203198 -39.356697527504394 -0.782418529760577 1 8 1
-121.818682515398962 -38.515131674652096 0.126821643949256 2 9 2
-121.856719213882883 -37.793674200373218 0.581027485595087 5 11 7
-121.935817329523161 -36.880738203696559 1.718059293363012 8 14 10
-121.960877683178495 -36.216080025058893 1.944924189964667 10 16 13
-121.965804401018858 -35.646128094564610 1.830555428431836 10 16 14
-122.005039542795188 -34.914773844795640 2.285232728759013 10 16 14
-122.071854915942012 -34.050437768258654 3.195171008171371 9 15 13
-122.002587769593603 -33.838957024095599 1.829550346202012 8 14 12
-121.926627854607091 -33.666976946294788 0.350275601938876 10 16 14
-121.905465643312937 -33.234366885307637 -0.218595824690993 10 16 14
-121.980291681372066 -32.332107362964599 0.805643249198852 11 17 15
-122.082904506680435 -31.288453888193509 2.285155527562921 12 18 16
-122.117442710852856 -30.579941892879269 2.626962070919717 13 19 17
-122.118017652985230 -30.042155349563810 2.399983644373066 12 18 16
-122.132600308786209 -29.435415197270235 2.400714455735425 9 15 13
-122.257464298933684 -28.266378526233517 4.222157637623070 9 15 13
-122.307176575015987 -27.477345720766277 4.792112333661066 10 16 16
-122.336613657784767 -26.792122019918892 5.020859351217069 11 17 17
-122.352611438011309 -26.177262198343954 5.022183573419085 10 16 16
-122.223984657355572 -26.323009232937633 2.634112626563251 6 12 12
-122.247389847889778 -25.676637750024817 2.749515048026268 4 10 10
-122.236553879206497 -25.213262487186974 2.296125863708767 4 10 10
-122.288322792010831 -24.417917749161067 2.866999475812321 5 11 9
-122.236507181124182 -24.179771678653058 1.731170858830382 6 12 9
-122.247351471969239 -23.607951841780441 1.619613816640538 5 11 7
-122.286330300428730 -22.884487561331795 1.963390828052837 6 12 10
-122.464893392116409 -21.394586449611033 4.583232851619044 5 11 10
-122.567573529216645 -20.314620145690974 5.951544660600717 5 15 7
-122.865162772541055 -17.109461536462909 9.830120114154454 6 16 8
-124.147998888352461 -2.931044218679541 25.485546176792212 121 128 116
-124.419154508757330 -0.776494348925103 29.362290319284028 118 125 114
-123.302658666095937 -4.727439623838968 8.914232313996109 50 56 52
-123.231383014318254 -4.718019595999456 7.328012932532715 24 30 28
-123.145751679767386 -4.807193959096698 5.514222953392363 5 13 12
-123.132810245019854 -4.445412649555512 4.839154509083414 5 14 9
-123.200255684177534 -3.577719198492779 5.416782996011648 2 11 6
-123.239222984266775 -2.892342846177153 5.539228780628179 0 9 1
-123.234938388157659 -2.486392647867087 4.978705970610491 0 6 0
-123.238376288584519 -2.035358856413453 4.532272393313320 0 7 0
-123.234917251673465 -1.633153322120627 3.972183073694111 0 5 0
-123.253919444647437 -1.089872427511287 3.753963624668728 27 33 21
-123.162946369354955 -1.266615950595447 1.827660683501762 42 46 32
-123.094154846430783 -1.307552317704118 0.243148044437163 28 30 16
-122.609227813773487 -0.784868982178500 -12.632132508875571 85 87 76
-121.101188791350111 -174.641387569694899 -20.986985942481027 34 27 9
-121.170630043724685 -174.552303625615053 -19.513516967191890 25 18 2
-121.169206880939569 -174.104302068936221 -19.186232653708231 44 39 23
-120.991094286033174 -172.782024836611640 -21.723947440650392 23 20 3
-120.849133155531831 -171.645790500728793 -23.688158033342603 23 21 6
-120.841920840640697 -171.172362091982109 -23.474763846665070 14 12 0
-120.926554293254895 -171.141220706766063 -21.771712773148664 12 10 0
-120.990067432849060 -171.000668224091072 -20.412468463137628 12 13 0
-121.060651837627447 -170.887292267915200 -18.938702657540659 18 16 3
-121.390741624332392 -171.996655988028124 -13.226425350942804 23 21 8
-121.054852914653537 -169.947830057658393 -18.396852774287453 21 19 6
-120.797095667093672 -168.284034816438663 -22.306491325535120 16 14 1
-120.798659271115184 -167.838190361533663 -21.977755948916780 12 10 0
-120.884116096404000 -167.776381217698940 -20.274626655380729 13 12 0
-120.934744963748926 -167.547375901327683 -19.144174396343175 13 10 0
-121.054991430009466 -167.628662984739691 -16.868634471860332 21 0 0
-121.001537447195346 -166.917288149936070 -17.455823637154737 122 71 72
-120.990056322114128 -166.395018815696830 -17.355833263742056 116 61 62
-120.944197789246687 -165.718956511931822 -17.828166417275042 82 34 29
-120.974756013304287 -165.380256027809452 -17.041021687418947 90 42 37
-120.970912337842520 -164.887192634676154 -16.826218067943188 117 75 68
-120.967290913149029 -164.393335765576154 -16.611316292108427 112 72 62
-120.936328544855058 -163.780279160846419 -16.854156852416764 105 65 55
-120.940058668446540 -163.315254102581321 -16.524582455848275 115 75 63
-120.937112079354904 -162.819818731709233 -16.309374089286450 110 73 65
-120.920646261676879 -162.266036546234318 -16.322951638254864 115 78 69
-120.883850580077819 -161.627081662047942 -16.679708304574547 115 81 71
-120.888432536700833 -161.159339063902877 -16.349754367006710 117 83 71
-120.886359498508710 -160.662277192479394 -16.134144839076100 116 82 67
-120.877652556610371 -160.136723870586593 -16.032861109672439 101 69 54
-120.862332140965904 -159.583506176846640 -16.045884891637144 93 64 48
-120.840418036511380 -159.003450472782873 -16.173198213770320 81 56 36
-120.811929398981135 -158.397382429213792 -16.414783412989749 66 43 25
-120.797293742162651 -157.845767228767727 -16.427463113410738 51 30 12
-120.796463852775730 -157.346938112399812 -16.211277058492897 59 39 23
-120.836548311404187 -157.003202936775864 -15.308767950359680 52 33 19
-120.815694351243920 -156.423828722417710 -15.435567088180477 46 28 14
-120.788285735391867 -155.819799227260489 -15.676614624928163 40 25 12
-120.774643161436771 -155.267429999154530 -15.688826999496825 34 22 8
-120.801767187731983 -154.864609213889025 -15.014844085470259 31 22 7
-120.829008722879351 -154.458692432316525 -14.340836824256854 25 18 2
-120.836122778141970 -153.976669968402888 -14.009818529211117 23 16 1
-120.823166140140245 -153.421022117819575 -14.021736502879037 24 15 2
-120.796929086647324 -152.818011327171121 -14.262213082172707 25 15 3
-120.824735711143319 -152.404369929126887 -13.588014997509731 27 13 3
-120.866098311684141 -152.034082660070311 -12.685167744703080 48 31 22
-120.880679105888618 -151.567750891394951 -12.239556990212492 77 60 50
-120.935656712750642 -151.235495149124944 -11.108087117598586 84 69 62
-121.091267277773298 -151.234014747121989 -8.262186672189785 152 141 136
-121.536280294617242 -146.087420133907671 1.542452533991764 94 98 99
-121.446193384280505 -145.271102351305160 0.160645876813845 89 93 94
-121.349743504380768 -144.442947099221072 -1.335185537132986 86 92 88
-121.326454660704954 -143.823207535677824 -1.574423900618967 84 89 87
-121.329817506045515 -143.276746501366347 -1.356722355038556 82 88 86
-121.326689529787060 -142.711580801714604 -1.253177417699732 84 90 88
-121.231120364576412 -141.901494864468106 -2.748401504223267 83 89 89
-121.208495588253356 -141.287747861371827 -2.987260495728862 87 92 90
-121.060556652701891 -140.353804554589146 -5.395684106363944 86 90 89
-120.932732456652445 -139.481406204321104 -7.461274726652476 82 87 83
-120.923904715989622 -138.913614844698685 -7.471342449225119 83 88 84
-120.862478954253561 -138.217171592990525 -8.394768242706448 76 81 77
-120.886873991015648 -137.730891830364698 -7.833808838018882 68 74 68
-120.852109005999168 -137.102048558398678 -8.300348827070366 64 69 63
-120.830656606277316 -136.506042984617039 -8.538464336184035 57 63 56
-120.710720669410875 -135.686218151223216 -10.488881189777771 68 74 67
-120.702740114334915 -135.126150231376045 -10.498464120424018 65 71 64
-120.740844842143233 -134.667351224674206 -9.708945403466060 60 66 58
-120.759321911594455 -134.162272999439239 -9.261869520994651 66 73 65
-120.797561079665314 -133.696816889388344 -8.472355013184995 66 74 66
-120.803082084436014 -133.159450718993270 -8.253527393527605 54 62 55
-120.808699527502583 -132.621074755147532 -8.034664032431323 65 72 65
-120.748926253592813 -131.950813422455894 -8.957029777755707 57 65 58
-120.728587649241661 -131.361886906109504 -9.194539582687355 72 79 73
-120.708368944527180 -130.774129364012907 -9.431979995204642 50 58 50
-120.734035716341367 -130.273413895412602 -8.870560790800823 39 46 38
-120.766306576622256 -129.782034569369472 -8.195027226585609 52 59 52
-120.765981774994827 -129.228839852603102 -8.090018036771227 42 49 42
-120.752694521971875 -128.652269814654403 -8.213168423037473 42 49 42
-120.719937848006126 -128.042784566576131 -8.678548381101706 49 55 50
-120.700348124754598 -127.457352991760828 -8.915663948693350 51 57 54
-120.719979706114216 -126.936855250077798 -8.468194472511186 39 45 41
-120.687556306017356 -126.331378056524912 -8.933373736580194 40 45 41
-120.668276320865857 -125.748310826318075 -9.170316789139719 40 45 42
-120.623062173516189 -125.127145969226660 -9.863494353693937 42 47 43
-120.669068396826162 -124.642850201680133 -8.959599154419465 44 46 43
-120.676095159264875 -124.098647999427044 -8.740121552165107 38 43 39
-120.663696614505483 -123.526427016234493 -8.862802016438962 40 45 42
-120.657889770291646 -122.963521700030270 -8.871374258005716 41 46 43
-120.678151195721910 -122.434455206098747 -8.423691669050527 41 46 43
-120.653028090615948 -121.846028945827129 -8.774344098276828 40 45 43
-120.647475847860136 -121.282990645253406 -8.782795908253661 38 43 42
-120.616058180717530 -120.689476995050498 -9.247370886363029 38 44 42
-120.597713556846855 -120.112900278820902 -9.483799655170998 40 46 44
-120.579460905002833 -119.537454213034721 -9.720172786523705 39 44 43
-120.561299078954107 -118.963137194603675 -9.956490845275624 39 44 44
-120.543226964490628 -118.389947650278273 -10.192754380655344 39 46 43
-120.544667428983033 -117.836684417321877 -10.086901398851609 38 45 41
-120.585014401601484 -117.318876049983771 -9.296917412655063 44 50 47
-120.638344986040153 -116.808728993278706 -8.278925479507848 51 56 52
-120.685242601958677 -116.288259439514903 -7.374976196018537 57 61 57
-120.673992673930144 -115.716869598444106 -7.497098610622089 68 72 69
-120.598193595699058 -115.097010721472415 -8.759188882766580 80 83 81
-120.567743728382965 -114.515596724080709 -9.223176320951552 73 76 74
-120.647180425906001 -114.010498903058419 -7.749207798787694 65 69 68
-120.649157857916705 -113.449299067066676 -7.643179629005829 66 70 69
-120.567298993235127 -112.837988785687017 -9.018939772148656 62 64 63
-120.492015006137308 -112.236781113202184 -10.280591640243216 62 64 63
-120.481348872264604 -111.674285297605579 -10.402343219051545 64 66 64
-120.496549860268402 -111.124343856412878 -10.068155287254768 66 68 67
-120.492470869324237 -110.564611888591486 -10.075868264870820 61 64 62
-120.488461754457546 -110.004897550048469 -10.083547632543912 64 66 65
-120.490964319782478 -109.447379954987895 -9.977230337628839 67 70 70
-120.448449732275094 -108.875977315905359 -10.668604214499538 74 78 79
-120.418903053414240 -108.311128135088680 -11.131989060444909 67 71 70
-120.402312440446295 -107.751197115409553 -11.367407373932593 61 65 64
-120.372926890610685 -107.190185333993924 -11.830675636024864 59 65 61
-120.356489011078608 -106.633000000407321 -12.065992619634102 57 63 59
-120.346556414239089 -106.077459720019689 -12.187321680022023 57 63 61
-120.355983105629321 -105.523294317500856 -11.966798516208883 58 64 62
-120.333329187320643 -104.968038678848046 -12.315928253063220 59 65 63
-120.355736630013723 -104.412528393785266 -11.867491216031766 60 66 64
-120.333223293785409 -103.858645515330807 -12.216539568390374 58 64 62
-120.330055387525363 -103.303954586251834 -12.223764796272320 57 62 61
-120.333375214480753 -102.748178924120012 -12.117038595603816 59 63 62
-120.349598555658432 -102.189140624002874 -11.782455212091833 61 64 63
-120.397973293878991 -101.620308159353783 -10.878297102093541 62 65 64
-120.407886589443095 -101.058545436340395 -10.657619351547964 57 59 58
-120.405028470872253 -100.500045600148070 -10.664735585055610 57 59 56
-120.382992672572229 -99.948890508902323 -11.013527406422156 65 69 68
-120.367444619009206 -99.396644122962954 -11.248367861268576 77 81 80
-120.384028437068253 -98.830513457183486 -10.913685032134822 71 75 74
-120.375028024884585 -98.275807208222943 -11.034559553474139 61 66 64
-120.372506389346540 -97.718100179383612 -11.041506653887893 50 56 54
-120.344418240153260 -97.175627777595935 -11.503963408812098 48 55 53
-120.367664077746042 -96.602660530681263 -11.055304979812377 50 59 56
-120.333313570823179 -96.066702424985351 -11.631549455207107 50 59 56
-120.407926002355708 -95.454785400651701 -10.271847273998446 66 75 72
-120.469772830512596 -94.846119541946763 -9.139936417647789 85 94 91
-120.525264640986634 -94.237165169265452 -8.121927634713160 90 99 96
-120.523190928030118 -93.672295897948231 -8.128734175059094 51 61 58
-120.533988889757723 -93.095976017154328 -7.907783047391234 74 83 81
-120.538453469205706 -92.524538523671922 -7.800670416152087 74 80 80
-120.549386134160983 -91.946275569965692 -7.579674847947416 82 88 88
-120.617970454314644 -91.308094671995718 -6.333985726725473 12 17 20
-120.680211061908821 -90.670706237735686 -5.202182143540909 28 37 39
-120.774491467438452 -89.992451455051651 -3.501177064098698 32 43 47
-120.798468854545007 -89.386866283350997 -3.052504417004798 32 43 47
-120.739379115139400 -88.878187172812147 -4.083738799701280 19 30 35
-120.667588577869893 -88.390177955144935 -5.342554204811051 13 25 31
-120.621463346104349 -87.875459330412482 -6.145930809403779 10 22 29
-120.581816108513380 -87.356084644842170 -6.835397406040812 9 20 24
-120.542252509782443 -86.839949170852208 -7.524790647301842 14 25 27
-120.528340672138683 -86.291106491589247 -7.758813305998331 22 33 35
-120.476159538267368 -85.798873688482558 -8.675714460463126 22 34 34
-120.436846409124428 -85.291904047797800 -9.364893529405066 14 26 26
-120.391226772157466 -84.797973031101478 -10.167814281886848 23 34 37
-120.415984611742005 -84.196978966146887 -9.718721010434535 12 23 29
-120.434429927969944 -83.604114537669872 -9.383422831006754 14 25 31
-120.472123256007407 -82.977708927333353 -8.706685070179077 21 32 38
-120.516284852676279 -82.337095437975904 -7.916140275725184 38 49 55
-120.586082863026078 -81.647953103093371 -6.670395100944489 44 56 64
-120.579295013662971 -81.090042890335383 -6.790244119823399 41 51 54
-120.630092065052651 -80.427219291904919 -5.885894681465146 18 28 30
-120.610699906431776 -79.891819578716266 -6.233259616649605 11 21 23
-120.616950900182985 -79.308974133533383 -6.125409798708858 9 19 21
-120.616902909645077 -78.738061377654759 -6.131309449015902 10 20 22
-120.648888366125604 -78.103077240254407 -5.568249502385129 11 19 22
-120.623468974373665 -77.582995231680840 -6.029199057331795 11 16 19
-120.623696898797377 -77.011641629960550 -6.034971248714641 8 14 14
-120.649574673267708 -76.385740336487800 -5.585598586867263 7 13 13
-120.681938754610599 -75.743699248897570 -5.022430148133537 9 15 15
-120.624952066791522 -75.297214975494185 -6.052018235457012 9 15 13
-120.631954803409727 -74.711170209835743 -5.943841718518286 5 11 9
-120.664617579301648 -74.065656623764795 -5.380566129507457 3 9 7
-120.716556241906204 -73.372382483230737 -4.475983990984020 5 11 9
-120.730259938972139 -72.766226958046886 -4.253949882766193 3 9 7
-120.763243836383126 -72.112305622695743 -3.690607215508351 4 10 8
-120.745204810766722 -71.582025831930480 -4.037272114568111 2 8 6
-120.733662447696148 -71.037226844316322 -4.270119601001170 0 6 2
-120.728619736869376 -70.477087077567845 -4.389156701505385 2 8 4
-120.762048575449981 -69.817655461687139 -3.825657896002781 3 9 5
-120.750835837407493 -69.273699242558109 -4.058339015912821 2 8 4
-120.758919757308945 -68.679230714775855 -3.949731974612661 1 7 3
-120.735140440648522 -68.171354176671073 -4.409771286218245 2 9 2
-120.743456326719524 -67.576975461781899 -4.301052348608465 2 9 2
-120.751892998813787 -66.981954318737436 -4.192282240214837 2 9 2
-120.805245463763441 -66.258424000423261 -3.287335185532925 4 11 4
-120.788336676916288 -65.734354221313396 -3.633395459469995 4 11 4
-120.797150751377586 -65.136568369387803 -3.524473261615043 5 12 5
-120.786886349529325 -64.595390120970919 -3.756672105692331 5 12 5
-120.802360048980006 -63.977753983089727 -3.533909410114546 3 10 3
-120.843589251766971 -63.280372162796681 -2.856210692711102 0 7 0
-120.884967273101438 -62.579589338641526 -2.178475789265946 0 7 0
-120.888050118930906 -61.996495561732218 -2.183003043555146 1 8 1
-120.878451181207822 -61.454192570539028 -2.414895109418353 4 10 6
-120.836930215802738 -61.016512072442438 -3.215276056628255 3 9 5
-120.846827838060250 -60.414505847520914 -3.105878935641073 2 8 4
-120.844042854024934 -59.854377613382944 -3.223835828676158 4 10 6
-120.886311596536430 -59.143795332502322 -2.545775678003963 5 11 7
-120.864570144835412 -58.648053624620545 -3.004715172094620 5 10 6
-120.836542973793314 -58.176466588406612 -3.577271981523154 5 10 4
-120.815069157102542 -57.685103582479513 -4.036038367763439 4 9 4
-120.825851643058087 -57.082538689412218 -3.926223681668034 4 9 4
-120.843219758594813 -56.456349548115021 -3.702642744289022 5 10 5
-120.860754438830725 -55.828907667719875 -3.478995018001740 7 12 7
-120.872027964921912 -55.223682715087079 -3.368972801317966 5 10 6
-120.934932133928058 -54.427757677828836 -2.349342554445542 5 10 6
-120.978739527670243 -53.698789897962982 -1.670735569475767 7 12 8
-120.990556352710456 -53.087844020748413 -1.560512328787723 8 13 9
-120.957466638961648 -52.648185927939245 -2.246021265560501 8 13 9
-120.950291370090980 -52.112255962797910 -2.476688255793704 7 13 9
-120.962618924099132 -51.501873129690438 -2.366214888422235 8 14 10
-120.988028303791410 -50.839955275577879 -2.028295926503432 8 14 10
-120.981378211923840 -50.304564414332752 -2.258706124591299 7 13 9
-120.987809755826120 -49.718180169648292 -2.261665243638646 6 12 8
-121.007343788352671 -49.079145519579455 -2.037180364270654 5 11 6
-121.046463271907783 -48.359301574951296 -1.471581028166469 5 12 5
-121.053486720215432 -47.770372613555757 -1.474283176222627 7 14 7
-121.067173744102718 -47.154176577803874 -1.363219281335972 4 11 4
-121.087537645314825 -46.509880913726853 -1.138391549893441 5 12 5
-121.140491220749297 -45.726235848693072 -0.345112998795855 7 14 7
-121.141873938842664 -45.161537140725393 -0.461123123601396 8 13 7
-121.149939910324662 -44.568998728804203 -0.463363686031869 8 13 7
-121.177675478616663 -43.890921014989466 -0.124498225014406 7 12 5
-121.186179580867574 -43.297066458993520 -0.126542734918957 7 12 6
-121.194901790555292 -42.702960209726164 -0.128485493778669 7 12 6
-121.184350718227677 -42.196384660577088 -0.471324181984670 6 11 4
-121.154491167516440 -41.779825721187308 -1.155050048642153 3 10 3
-121.150833890506306 -41.247056698659328 -1.384001506457736 5 12 5
-121.160411402966744 -40.654936148640552 -1.385514651602819 4 11 4
-121.209317538241663 -39.880313044139100 -0.704938399352471 0 7 0
-121.238954848616530 -39.194021550864086 -0.365247699999486 3 10 3
-121.301488793671055 -38.351146475178759 0.542863267751869 3 10 3
-121.344755007690836 -37.597141179168460 1.110094745545609 3 10 3
-121.394855948815831 -36.808572323995250 1.791099038201679 3 9 5
-121.379866373427404 -36.333944353484711 1.335606952900861 10 16 12
-121.352000305646470 -35.925294946102689 0.652916178430473 13 19 15
-121.370188653046142 -35.293453104884200 0.765972440920763 11 17 15
-121.382094887982348 -34.693316605836444 0.765490836435731 10 16 14
-121.466454991891993 -33.731250730877257 2.015393127757733 10 16 14
-121.387009097861366 -33.591473499320870 0.423923298222093 8 14 12
-121.373415273885499 -33.124855362518538 -0.030818615145080 9 15 13
-121.360051888914384 -32.660110299715605 -0.485431006790606 9 15 13
-121.531336630100171 -31.245580209565048 2.242563795552286 10 16 14
-121.584543052961479 -30.434074305928931 2.924817637463946 11 17 15
-121.552332685403428 -30.067934291132886 2.129627250483509 12 18 16
-121.566567053228539 -29.461534124063032 2.130194941710783 11 17 15
-121.640612747134242 -28.538780011958767 3.153849740524379 10 16 14
-121.748182440230579 -27.433646496746913 4.745959407426767 9 15 15
-121.809876064279692 -26.569913244585599 5.542594779880289 9 15 15
-121.772488522262947 -26.241028547518660 4.634452253165051 9 15 15
-121.695464265325455 -26.133561746020995 3.044473514002107 10 16 16
-121.678389463511706 -25.704938585778521 2.477598529229397 6 12 12
-121.721467000696890 -24.947570048511245 2.933846240219907 4 10 10
-121.764938800415422 -24.187492677709994 3.390254681670484 5 11 9
-121.815482508771851 -23.387342675199395 3.960492697164597 5 11 8
-121.779620430848681 -23.073138920356278 3.053231065556247 5 11 7
-121.730600933777495 -22.838789355712663 1.918779179181399 3 9 7
-121.835768467266206 -21.731030533063347 3.398853752632618 5 11 11
-121.954921835840452 -20.538464546630763 5.106463908750072 4 11 7
-121.980717069818212 -19.879586928475113 5.222880986871473 4 11 7
-122.053953106074857 -18.946291385767637 6.135181055079812 3 11 6
-122.141171005645518 -17.929267105975814 7.275025906660204 4 12 7
-122.087413369963230 -17.737885791280455 6.027890719876439 4 13 8
-122.067585815495832 -17.352697811533794 5.349287042882224 5 14 9
-122.291361617161073 -15.523860488009829 8.763282025673817 6 15 10
-122.577038282627385 -13.313212459661671 13.200689964423788 4 13 8
-122.572412701270110 -12.831969021004490 12.750087882005658 2 11 6
-122.602071340436083 -12.147212164437731 12.868086811924883 6 15 10
-122.686569745206398 -11.130703604202170 13.895777090154382 5 16 10
-122.533964650083277 -10.576908723204353 10.158727644445577 0 9 1
-123.612041735469518 -2.370480136711476 26.775400333148099 5 15 6
-123.407384770160490 -2.158414860692053 22.019237081371188 128 137 128
-123.304931468859195 -2.323193490597218 19.865601108935465 59 67 58
-122.718513659163790 -5.145138820073790 9.304232242144991 26 32 28
-122.643244147147470 -5.176097079201337 7.605658960704858 29 35 33
-122.526299394468651 -5.486975305788814 5.224876434304491 30 36 34
-122.520953470500189 -5.079118130725490 4.663826259207156 28 34 34
-122.578913304687546 -4.260048272301102 5.126558487376457 7 12 6
-122.637506606884997 -3.437813238284428 5.589561183728023 4 9 3
-122.668663616858368 -2.798403503449793 5.597884824889462 1 6 1
-122.679256014417987 -2.298501786945988 5.265229797315840 0 3 0
-122.676208381462686 -1.893632783418046 4.705309875512057 0 6 0
-122.708884729703087 -1.253890345487414 4.714356938212489 0 3 0
-122.612747306189831 -1.074800660806456 2.116767311072948 35 39 25
-122.405013077479737 -2.079754540536331 -1.741469624055185 28 30 16
-122.374928459935177 -1.889952253098127 -2.755545696544402 22 24 10
-122.293558420979750 -1.297112346570465 -5.682906251174956 50 56 42
-122.228667216070320 -1.372992592759653 -7.265193296568839 56 64 49
-122.192731075966933 -1.256039343317391 -8.392177730569074 64 72 57
-121.958403915558108 -1.156954918399356 -14.935114292051253 93 93 83
-121.835970174574129 -1.693592440202735 -17.427057762725212 93 95 84
-120.631706186618189 -175.283736073853589 -20.872396140730189 45 38 22
-120.543618110910828 -173.525478912365600 -21.265212453205123 36 30 14
-120.317308126811000 -171.928927204007152 -24.715679030259849 25 22 5
-120.282494271053167 -171.319404469633952 -24.960325753066229 23 21 6
-120.397482926216895 -171.467137486984228 -22.686617186012313 17 15 1
-120.505562216585787 -171.569963351899247 -20.527535172192756 14 13 0
-120.660944517445657 -171.899035192363016 -17.567482502369614 14 15 1
-120.660570113374789 -171.443239573535038 -17.239776694509004 18 16 3
-120.619926685696143 -170.786801623600496 -17.598554071342647 22 20 7
-120.458300437443953 -169.539407594443986 -20.016752151207129 20 18 5
-120.277191699397832 -168.206171315695343 -22.777730859568550 16 14 1
-120.311920846497785 -167.923104118303343 -21.877159228137202 13 11 0
-120.481003982643216 -168.278045478902811 -18.688568067868545 9 11 0
-120.542593922360581 -168.108458766546619 -17.330542673998025 16 6 0
-120.537306067669647 -167.617049549071368 -17.116412917654259 70 32 32
-120.478786453361010 -166.874731903935640 -17.817202858503634 151 87 91
-120.487387346287136 -166.445993331024169 -17.374065902638023 119 60 61
-120.469519391177968 -165.892520621260957 -17.388311043758421 84 31 28
-120.491850315862450 -165.521962606707575 -16.716289036206717 100 50 46
-120.454505116201730 -164.877014925114906 -17.073370276957689 71 25 18
-120.463938735974153 -164.443171664730414 -16.629887492535687 118 75 68
-120.447032779894045 -163.889031401794682 -16.643679288078204 71 28 21
-120.470106768289199 -163.511099537106560 -15.971377704138035 144 99 93
-120.447028421228225 -162.926856443582949 -16.099291098846692 124 81 75
-120.437418786925335 -162.400985606397740 -15.998442482739620 119 78 68
-120.395041824606778 -161.732429295231128 -16.469032801903353 102 62 52
-120.392501234125930 -161.235611570539220 -16.253644436260061 120 81 68
-120.390159866437031 -160.737959744038420 -16.038169348944933 124 86 73
-120.374866247213319 -160.184166510645355 -16.051186235912553 124 91 75
-120.346663060196633 -159.575890148723687 -16.292657607914919 125 94 76
-120.344948360467711 -159.077369361830364 -16.076891669441608 101 73 56
-120.330317678468035 -158.524354524010391 -16.089583397096959 70 44 27
-120.322446528938002 -157.998131647509496 -15.987906719551120 58 36 19
-120.301697106168689 -157.419065708100675 -16.114652673813453 61 42 25
-120.346478049487288 -157.100691633225864 -15.098776844031875 42 26 11
-120.306529778050077 -156.443298225649926 -15.568090380428401 42 26 11
-120.286390503796540 -155.864656549479776 -15.694540074577560 39 25 9
-120.246933540918064 -155.211308127795490 -16.163576933571818 35 21 8
-120.285771500200738 -154.859006956061450 -15.261752320554166 32 18 5
-120.298710028986761 -154.404067937279365 -14.816809948912692 26 15 1
-120.292316380709551 -153.874132721110584 -14.714464652809028 24 14 0
-120.318521879627937 -153.464138206501673 -14.040995001930980 27 15 1
-120.325404306895095 -152.979692237127580 -13.710112463283451 29 16 3
-120.377739329770748 -152.658332325485873 -12.579794637532359 39 26 13
-120.371940335092077 -152.122581745286595 -12.477224721648810 56 40 27
-120.366309503486278 -151.586470656411535 -12.374578068024562 66 47 36
-120.406024432629948 -151.208753533851109 -11.472595534781135 95 76 67
-120.503858324494487 -151.028455962056313 -9.543046986091781 89 74 67
-120.956921966833733 -147.108984211005151 0.388933888725745 82 90 89
-120.927212313514261 -146.462609352774393 0.035490776525819 91 97 96
-120.808290561211734 -145.550510663685856 -1.915390715799930 90 94 94
-120.670540931582224 -144.591375305995882 -4.208340226922900 84 88 89
-120.622390343326259 -143.903180890900131 -4.903612543654788 83 89 85
-120.638152715169113 -143.401265333511247 -4.457802808285095 85 91 89
-120.405719037230014 -142.194830917830217 -8.461477690812984 85 91 89
-120.453677621070014 -141.788159813638231 -7.444990574377385 82 88 86
-120.387252256228280 -141.062330947457156 -8.481969526659583 80 86 86
-120.448107919619531 -140.685348440540224 -7.237289122087219 73 78 78
-120.394716836014183 -139.997967070517149 -8.045918989670355 66 70 69
-120.385929580569226 -139.431027460484103 -8.055958576767125 63 68 64
-120.345567020998033 -138.782353996775981 -8.636239433344628 53 58 54
-120.356064232463240 -138.265283859696353 -8.303963411274367 52 57 52
-120.328666089549586 -137.651747340715815 -8.655962683296877 44 49 43
-120.307742736203650 -137.055501199121210 -8.893827574723019 63 68 61
-120.261657257032979 -136.399350022025573 -9.587782113201200 18 23 16
-120.215736799224089 -135.746576093512118 -10.281622942309298 21 26 19
-120.157344923081268 -135.067721067638502 -11.203416290878039 24 29 22
-120.155945212657286 -134.523417485847858 -11.098829812828598 40 45 38
-120.167268873391066 -134.007016458523367 -10.766151532778252 49 54 47
-120.229126497799683 -133.600321340563340 -9.521297640321364 24 29 22
-120.253201349116722 -133.105892190293901 -8.960575296994222 26 31 25
-120.245856132322217 -132.542006755192205 -8.969893579586653 46 51 45
-120.200847657464621 -131.899672866806924 -9.663190654599248 40 45 39
-120.155985856001436 -131.260693473541068 -10.356383032059227 37 42 38
-120.155285279936166 -130.712857867589975 -10.251498447428077 36 41 35
-120.179818727821740 -130.213623168251502 -9.690606179005130 20 25 19
-120.204419309427522 -129.711728567485693 -9.129709173742128 24 29 23
-120.210251681226694 -129.172004531361495 -8.910756867862091 47 52 46
-120.184794062017446 -128.574006702475032 -9.261667852452831 55 60 54
-120.153180196735576 -127.966534325273571 -9.726480375268778 32 38 34
-120.109148968695607 -127.339499977820921 -10.419152452892860 29 35 33
-120.127904717206974 -126.822111095843155 -9.972069971088501 29 35 31
-120.115415238440733 -126.250807198104667 -10.094784497858228 27 33 29
-120.090503484289343 -125.659935108517871 -10.445360993662121 32 39 34
-120.059442442753053 -125.060942271277526 -10.909821763328523 32 39 32
-120.097284767906871 -124.569123416847063 -10.120768468781478 36 38 35
-120.097668599968117 -124.017935099496412 -10.015399618162292 33 35 32
-120.079388708917136 -123.439268139561761 -10.251818934939735 33 35 32
-120.073695836951075 -122.879183878400795 -10.260307614037089 33 35 32
-120.136755900171877 -122.412086543920580 -9.015500229332190 33 35 32
-120.112480722209042 -121.824565907377902 -9.365737691079659 29 33 31
-120.107015743489583 -121.262436403693613 -9.374138399537713 31 35 34
-120.064224061992647 -120.654561625068013 -10.066020263277522 34 37 36
-120.065168322674907 -120.101509316358772 -9.960402492526498 38 40 39
-120.053727588057257 -119.533778813072686 -10.082578520946129 40 42 41
-120.036143113391603 -118.959817527937275 -10.318616715033869 40 42 41
-120.018645898095457 -118.386982609588841 -10.554601570279203 39 44 40
-120.001234872184099 -117.815272548283218 -10.790533614099644 40 45 41
-120.015008051046351 -117.274666321217353 -10.456932649253446 47 52 48
-120.028841902803137 -116.732457319548104 -10.123319156866643 51 56 52
-120.042735992773657 -116.188644339193260 -9.789693357283227 53 58 54
-120.019412645125300 -115.612153822718284 -10.139361928103938 59 64 61
-119.977543703137172 -115.022607170244356 -10.830613695815941 68 72 71
-119.966815478968115 -114.459525800082275 -10.952401005816455 74 78 77
-119.962369096170065 -113.901376259774565 -10.960273453714763 67 71 70
-119.970401552706022 -113.351429198026267 -10.740373865576231 62 66 65
-119.891667235406572 -112.746981600899375 -12.114568594904938 33 37 36
-119.881251579074842 -112.188080556802205 -12.236163343327291 43 48 44
-119.864710625710828 -111.626472771427444 -12.471575159622347 49 54 50
-119.904009010999260 -111.092970558954903 -11.682254358642098 63 68 64
-119.887601723016274 -110.531127988949748 -11.917604646633180 62 67 63
-119.908421565744561 -109.985121687093013 -11.469829282709554 61 66 62
-119.923102847238226 -109.434770061512410 -11.135894198959789 65 69 69
-119.913086418285516 -108.875157988880900 -11.257305277346376 60 64 65
-119.847462174761219 -108.301361945314824 -12.403194910638859 56 60 61
-119.819047549458347 -107.741218911272426 -12.865989743309569 47 51 52
-119.833992198415729 -107.190919699914133 -12.531928125941988 53 57 58
-119.799542459971832 -106.632427907347960 -13.108452023915163 54 58 59
-119.777533251915457 -106.077765923235987 -13.457267222810231 58 59 61
-119.792664646326145 -105.526405189710005 -13.123127193838826 56 60 61
-119.801674089064520 -104.973413528502121 -12.902791558441606 54 60 60
-119.810740984552851 -104.419338743508575 -12.682439586982980 57 62 62
-119.782828178773315 -103.867421345488722 -13.144909680310008 58 62 63
-119.767334190716483 -103.316060926382661 -13.379715150701998 56 59 59
-119.764249433726178 -102.763622781192950 -13.386877411222031 55 61 57
-119.798237945865694 -102.203043928526142 -12.711234433735598 58 64 60
-119.819938672064055 -101.642457206090697 -12.263187741772896 63 69 65
-119.841691569723551 -101.079691946942972 -11.815138515934791 77 83 79
-119.851168983707396 -100.519094853029571 -11.594657291237297 44 50 46
-119.823728875886516 -99.972083107331144 -12.056850751137461 52 56 56
-119.814847459730984 -99.419090681870969 -12.177650703938610 59 63 64
-119.818352723334570 -98.860656754624259 -12.070863153871471 63 68 68
-119.828078326902684 -98.298409573413522 -11.850280181305010 61 67 67
-119.825548251303246 -97.742137008913019 -11.857216553753176 52 58 58
-119.816926426286585 -97.189664117272429 -11.977886971220670 51 57 55
-119.814526866452525 -96.633646990517875 -11.984758276024991 50 56 53
-119.818346288835244 -96.073267660476105 -11.877840458483064 48 54 52
-119.834534512024149 -95.503083679841581 -11.543388603385125 51 57 57
-119.863085454512046 -94.921460077235039 -10.981422449685226 82 88 88
-119.879390424092023 -94.347438036239765 -10.646954250597418 81 86 89
-119.932654283922687 -93.739119185828272 -9.630004769863802 49 55 55
-119.973669954590306 -93.137310082384047 -8.840565542587740 65 71 71
-119.953261938775668 -92.591531734417387 -9.188523292873157 69 75 75
-119.945221591553391 -92.034852436917831 -9.308958832005658 74 80 80
-119.961835811002516 -91.452575459351380 -8.974427661049447 49 55 55
-120.046110942941027 -90.793809472240241 -7.388867347155326 38 43 46
-120.087422649945253 -90.176923531562792 -6.599441690570188 36 44 48
-120.122650721529524 -89.563548808911690 -5.923749166506383 42 50 54
-120.114941792634667 -89.000222613961938 -6.044094576101543 48 55 60
-120.082738384698331 -88.468986017200237 -6.619263285837434 40 47 52
-120.038332028110048 -87.956776625049969 -7.421791757645650 32 39 45
-119.969445151188680 -87.482103025390842 -8.679080791382432 31 40 41
-119.925206423656689 -86.978553648900103 -9.481439928133113 21 29 31
-119.917887751768291 -86.424893117436952 -9.601499146584189 12 20 22
-119.922923206410942 -85.853235480904118 -9.494115676651774 10 18 20
-119.878924711866816 -85.357218810537944 -10.296282348836229 13 21 23
-119.816594819770032 -84.894382236347255 -11.439453814138346 12 19 22
-119.852553514779501 -84.275800226758150 -10.763465363552683 9 16 19
-119.851761292307444 -83.715980280905370 -10.769606867999869 13 20 23
-119.869458596450684 -83.124268370506513 -10.434654671541892 8 14 19
-119.868823667170190 -82.563550881290809 -10.440730166330098 13 19 24
-119.905087639423655 -81.935814315326823 -9.764689904604893 10 16 21
-119.965975047091391 -81.259020630212461 -8.633939305669315 23 33 34
-119.990125733742303 -80.646976950624392 -8.185250233333619 29 39 40
-119.983680441425903 -80.092608385164411 -8.304898918140765 28 38 39
-120.032542190658788 -79.428454899209385 -7.401489010901003 15 25 26
-120.069218154965228 -78.784939474104490 -6.725414073313658 9 20 22
-120.105981839176792 -78.138098394949395 -6.049331403452129 9 19 21
-120.093750111019702 -77.592503216255636 -6.282516875374398 13 18 22
-120.069337610000659 -77.074631780455093 -6.742961982709716 11 16 19
-120.112510060353500 -76.409093776898331 -5.953146953008542 11 16 19
-120.112826026367600 -75.836907204264520 -5.958885599784395 10 16 16
-120.119372792591875 -75.250495376850992 -5.850930995870300 9 15 15
-120.113743224782581 -74.692345670513021 -5.970228362051813 2 8 5
-120.163440511364556 -74.002294983956986 -5.066685309503697 1 7 3
-120.213241818778059 -73.307808476652866 -4.163138153877611 2 8 4
-120.250874897887854 -72.639393246543051 -3.486861642050513 1 7 3
-120.276339752340348 -71.998684675482536 -3.037838938471026 2 8 4
-120.246667709456744 -71.497926308995602 -3.611482924107349 2 9 4
-120.210957239242802 -71.015895932074812 -4.298681780996219 2 9 2
-120.212183285768802 -70.438979541359103 -4.304033734768240 2 9 2
-120.219657616067011 -69.845360954801151 -4.195709570172795 2 9 2
-120.214961669102166 -69.284899652563368 -4.314584089760388 2 9 2
-120.204234264660883 -68.742065707467091 -4.547021475608858 2 9 2
-120.156763224361470 -68.304879013101726 -5.461102720203627 1 8 1
-120.158538132040093 -67.730264631622205 -5.466168404944057 2 9 2
-120.172716941816574 -67.119582594666284 -5.243953598093640 3 10 3
-120.236176857295249 -66.361625583431177 -4.112807775127862 3 10 3
-120.207586962422880 -65.876112717501869 -4.685777135268950 4 10 5
-120.215990463210204 -65.280387421411888 -4.577030144115952 5 11 5
-120.212223274837513 -64.722173539299249 -4.695437214952221 6 12 5
-120.263923218114655 -63.990205327800510 -3.791367576447442 3 9 3
-120.315770258623076 -63.253748278230724 -2.887273772996679 1 6 1
-120.373919693364684 -62.492895814438384 -1.869557155080884 2 8 2
-120.382999517754257 -61.888408462092542 -1.760576805281488 4 10 3
-120.373752596253283 -61.344603950684558 -1.992315923692615 6 12 7
-120.327699014768712 -60.926116460912056 -2.905526580542414 2 8 4
-120.306390118426734 -60.427894739800770 -3.364284669654040 2 8 4
-120.297527151641162 -59.889192658041374 -3.595787583573724 5 11 7
-120.338088249082801 -59.179086098295336 -2.918539467613016 5 11 7
-120.348000171026030 -58.574656461455547 -2.809160451101491 4 9 5
-120.333403543367737 -58.057918175127483 -3.154039129269762 2 7 1
-120.300444561744584 -57.609790364508946 -3.839572707301983 2 7 1
-120.292287141289691 -57.074236807137638 -4.070705680932264 6 11 5
-120.333639336124122 -56.356291230498975 -3.393159797629352 7 12 6
-120.356653659397310 -55.704476298454075 -3.056282628039753 8 13 7
-120.367488983368759 -55.097791514797677 -2.946485072522194 7 12 6
-120.384666384486422 -54.466656116639122 -2.723046286574174 6 11 5
-120.408195547569051 -53.810241848764854 -2.385970162658737 6 11 5
-120.431904680488913 -53.152010893980545 -2.048826641860956 6 11 5
-120.418690070357158 -52.639353878485288 -2.393002157010784 5 10 4
-120.442753288765729 -51.979125271862429 -2.055709805762859 5 11 5
-120.448436533253968 -51.392413926011116 -2.059030275701531 3 10 3
-120.466680818958636 -50.754735834699837 -1.835148443051452 4 11 4
-120.466529213163241 -50.192766887219229 -1.951864484350210 6 13 6
-120.472751560307458 -49.605213570900773 -1.954935716251128 6 13 6
-120.491560545988776 -48.965028400313031 -1.730809539694320 5 12 5
-120.529181771460088 -48.244061182594280 -1.165938527536042 3 10 2
-120.529779687753930 -47.680740034297486 -1.282309918918685 1 8 0
-120.549196520983557 -47.036626407761034 -1.057933387748903 1 8 0
-120.525323844716468 -46.582430794864109 -1.628323682460575 1 8 0
-120.532703550576556 -45.992794250611759 -1.630862681630589 3 10 2
-120.577611507326765 -45.235701399648413 -0.952018696575749 5 10 4
-120.622767646466343 -44.475063664315321 -0.273092471192228 7 12 6
-120.630805664944134 -43.881418219969525 -0.275357801484972 6 11 5
-120.663984790844594 -43.172728228028859 0.176655616196854 8 13 7
-120.678701381137458 -42.548508823648206 0.288129463558960 8 13 7
-120.681163767989275 -41.981989030418298 0.172617103241237 11 16 10
-120.627639294846190 -41.681534432468460 -0.964670400560721 5 12 5
-120.605498271216575 -41.237316237018106 -1.534129576016284 4 11 4
-120.602299954315299 -40.705346061827001 -1.762853245951987 6 13 6
-120.661888922021248 -39.870598928587235 -0.856067480274959 2 9 2
-120.677949195621025 -39.245603773401861 -0.743958804617279 4 11 4
-120.769457419862448 -38.248779030562567 0.730723102322202 3 10 3
-120.804886785280090 -37.525183916465892 1.183659600965854 3 10 3
-120.815495150570683 -36.924949089843807 1.182556087955930 3 10 3
-120.782382661624311 -36.546645315283122 0.386808921505775 4 10 6
-120.724304926134820 -36.300023130231764 -0.862961608246906 10 16 12
-120.716702840436525 -35.800761938063488 -1.204314221006882 10 16 12
-120.740813346641872 -35.139931008598175 -0.977864332371126 9 15 12
-120.859749403025546 -33.984738528092194 0.951744336451469 8 14 12
-120.878207956179338 -33.349971026168049 1.064899749152943 8 14 12
-120.846436456638202 -32.981644075915426 0.269896803902213 9 15 13
-120.840138539722844 -32.482076597330519 -0.070835051742279 7 13 11
-120.973256339510030 -31.236345044063789 2.086343920195702 7 13 11
-120.986578233178776 -30.630487718629514 2.086480674655917 8 14 12
-120.993850535055117 -30.058785628580790 1.973216017214384 8 14 12
-120.976023528553924 -29.626512720835962 1.405943611613026 8 14 12
-121.085456235120404 -28.494761424344532 3.109529432499812 10 16 14
-121.201748012103792 -27.318836880311608 4.926800796655868 8 14 14
-121.159442108521517 -27.024888105915267 3.905806070708309 7 13 13
-121.117324269554359 -26.735560839829581 2.884948885734701 8 14 14
-121.088152992679071 -26.378422255328047 2.091305045563701 8 14 14
-121.123062338540109 -25.659820532273798 2.433185283195940 10 16 16
-121.139158324138663 -25.049418389361236 2.434602371637112 7 13 13
-121.258001961865162 -23.845641149416814 4.252807835434680 6 12 10
-121.338971568384807 -22.856432302294383 5.389949843258506 6 12 9
-121.330603298600948 -22.387803737681669 4.937687122761702 5 11 7
-121.238994445178193 -22.413671398666175 3.009526986474384 4 10 8
-121.256818886220003 -21.799500069250922 3.011732163944885 5 11 11
-121.345850805198964 -20.761697253614432 4.263089837205058 6 12 8
-121.428977646370612 -19.755918798006636 5.401093299388066 4 10 6
-121.486808262582002 -18.900089751587608 6.085103099173296 5 11 7
-121.499844520680057 -18.315531484951141 5.974463563547062 4 10 6
-121.416094159137586 -18.324957594594103 4.160752546611576 4 10 6
-121.332432187854394 -18.342896216624577 2.347171438839467 1 10 5
-121.372259604058854 -17.606217608977307 2.691218390012097 3 12 7
-121.510099241754503 -16.260533184787622 4.738768522987499 1 10 5
-121.674739311211141 -14.741102556179492 7.240786973370376 2 11 6
-121.853265837636457 -13.126520989381969 9.970186990602713 5 14 9
-121.771319792686484 -13.149745495031532 8.157481186362247 6 16 12
-121.754911950048225 -12.765584709930698 7.480524061215789 7 18 14
-121.751913376045707 -12.300461540624894 7.030866267569877 5 16 11
-121.801784412355573 -11.499705500744485 7.489917355894988 7 18 12
-121.950825042978394 -10.059335626549702 9.652710245510661 8 19 13
-122.054614845594983 -8.906525841323347 11.020803100125249 10 21 14
-122.067125004019630 -6.008528138576359 8.558061902600485 18 24 20
-121.794848359131706 -7.379673779242432 3.453269758434800 19 25 21
-121.876149858141744 -6.389330258076742 4.368841092877545 17 23 19
-121.891185546054629 -5.846787881313407 4.148731683362172 23 29 27
-121.940218456300812 -5.076546775306019 4.496837035674588 25 31 29
-122.016732672973518 -4.120145500038880 5.299608650324274 19 25 18
-122.134375506639486 -2.881698331037994 6.784306123817373 3 9 3
-122.104385632405084 -2.657448697283156 5.769920792362484 4 10 3
-122.169385983449615 -1.782742540122375 6.346307372211697 0 5 0
-122.180835042551166 -1.280756646796411 6.014040715104301 0 4 0
-121.916674618721416 -1.500012360291573 -0.539891142373563 20 24 10
-121.765235347638310 -2.180353883596309 -3.598525966348546 24 28 13
-121.757885328223111 -1.099171873598616 -5.386913498738750 49 57 43
