ply
format ascii 1.0
element vertex 681
property double x
property double y
property double z
property uchar red
property uchar green
property uchar blue
end_header
-102.066463003781720 -17.510222057876277 -16.744614071943317 3 10 3
-102.091739778853395 -17.180867539871649 -17.401065270420759 3 10 3
-102.080079322600568 -16.216244698212122 -16.418842975933245 3 10 3
-102.068785841646402 -15.246110917695505 -15.436501848582822 3 10 3
-102.065264074331992 -14.399767209321242 -14.781745181428505 1 8 0
-102.091613898109358 -14.070201757699541 -15.437685208328872 0 7 0
-102.108365619512497 -13.568837958977067 -15.656549801514473 2 9 2
-102.120487937621476 -12.980192232080395 -15.656809752260131 3 9 5
-102.142676773175637 -12.567947456362543 -16.093873671640353 4 10 6
-102.167553242199190 -12.201938365478595 -16.640034794170873 7 13 9
-102.185379156444512 -11.703827780863824 -16.858352010215725 8 14 10
-102.191365676250769 -10.980916015998570 -16.530352718854488 6 12 8
-102.195284650682026 -10.210390297558149 -16.092973763536605 3 9 4
-102.226093577464169 -9.939086475774559 -16.857039739540483 3 9 5
-102.252319740311464 -9.579312080725343 -17.402490996315834 7 13 10
-102.293183693978293 -9.499024940878714 -18.603215990939987 11 17 15
-102.336609077508371 -9.470865456970927 -19.913037915068628 9 15 14
-102.375425189487672 -9.355356537648809 -21.004246260686244 9 15 15
-102.374046527733071 -8.444893292030345 -20.238265468865251 9 15 15
-102.387317738433921 -7.813881637887903 -20.127553002184527 10 16 14
-102.415106873341927 -7.467430636939993 -20.672119394094892 11 17 15
-102.433757044189221 -6.931515000203934 -20.779572550079251 6 12 10
-102.448055751317270 -6.299100501621759 -20.668382972812282 15 21 19
-102.465063686261644 -5.713917776519873 -20.666270014793241 34 40 38
-102.477780089258360 -5.030494674471548 -20.445503578658531 37 43 41
-102.504808510757343 -4.639568288983928 -20.880032815811347 27 33 31
-102.520591999381608 -4.003485077863632 -20.768170688067102 4 11 9
-102.562075873435049 -3.912053146239760 -21.857854948923205 11 20 17
-102.592302555431104 -3.576020334423056 -22.401147987007448 22 31 28
-102.613694712581989 -3.041271851201027 -22.507277372045507 17 23 23
-102.590015088943701 -1.496386508347260 -20.428189090255842 17 23 21
-102.598777904899478 -0.650739508510681 -19.878407233922587 21 27 25
-102.675618653959731 -1.333637868548378 -22.606089590093490 20 26 24
-102.837566049284902 -3.982038794734198 -29.485462940093385 17 23 19
-102.795522521552186 -1.965584113686619 -26.422284022886174 27 32 25
-102.816672835848067 -1.386501086943151 -26.418126577524845 145 150 143
-101.885356017076575 -151.692183783324452 -17.888948162580959 199 203 206
-101.905561056355680 -150.906065466962588 -18.995962900993874 156 157 161
-101.899847701203399 -150.346760238357263 -19.004453360203854 128 129 133
-101.917705601651051 -149.590855420393837 -20.001421074150983 147 148 149
-101.922638797668654 -148.947850179579007 -20.449115365729455 133 135 134
-101.945979329914422 -148.157944539539159 -21.665527964800418 109 111 110
-101.938052994378822 -147.626550557472001 -21.563930916837791 77 79 78
-101.945919792844393 -146.970103802147833 -22.121219028242450 58 60 59
-101.938155871761055 -146.439403640909632 -22.019537139916252 45 47 46
-101.935712381965317 -145.867791080736424 -22.137448877214752 40 40 40
-101.928093263319525 -145.336684685273440 -22.035701897471739 41 41 39
-101.920541492498614 -144.805099241402530 -21.933927629846096 42 42 40
-101.915687543189904 -144.253630562723544 -21.941926286701118 36 36 34
-101.908267902249378 -143.721352654331668 -21.840095936478718 29 30 25
-101.903547501051008 -143.169731731715984 -21.848032271498880 33 35 30
-101.898892527455075 -142.618167574681962 -21.855936721861639 36 38 33
-101.894301314573113 -142.066658072647101 -21.863810106726049 39 41 36
-101.884484987484683 -141.551282622379659 -21.652093452528675 39 41 36
-101.880011973152534 -140.999331987410926 -21.659914832414870 35 37 32
-101.872949913159474 -140.464926470310701 -21.557935317238162 32 34 29
-101.868591074366819 -139.912799215333592 -21.565703893976121 29 31 28
-101.869592610577271 -139.326812524249675 -21.792974387712718 29 31 28
-101.865348108382676 -138.775317577120120 -21.800681757551729 28 30 27
-101.858499918398493 -138.240272104477697 -21.698606515079746 26 28 25
-101.846381951432292 -137.736994353335632 -21.377007544895577 22 24 21
-101.839622660785579 -137.200394530082889 -21.274905772996959 16 21 15
-101.830245329929426 -136.678879276604988 -21.063042304585565 17 22 16
-101.826236051756126 -136.125671002368705 -21.070654780195724 21 23 18
-101.819606038289351 -135.587544341970158 -20.968506879039069 20 22 17
-101.815684784564070 -135.034129714895244 -20.976079368148419 23 24 19
-101.806466001375043 -134.509754163607766 -20.764169493558853 24 25 20
-101.802625520835193 -133.955855661744238 -20.771708321819432 24 26 23
-101.785455428841175 -133.471787058838714 -20.230610771677732 26 28 25
-101.787036730377949 -132.889206826421741 -20.457568843279205 27 29 26
-101.769919557998819 -132.401655907132778 -19.916481821807054 29 31 28
-101.771577133699253 -131.819397422638303 -20.143400092197027 28 30 27
-101.751827174412227 -131.341232646029539 -19.492617085754944 28 30 25
-101.753554378352092 -130.759019454572694 -19.719501580009847 29 31 26
-101.739212889135942 -130.251889865821312 -19.288147099227473 31 33 28
-101.727575851953716 -129.730548258535919 -18.966503994228958 33 35 30
-101.705206122801926 -129.254737003685847 -18.206091165808061 33 35 30
-101.698982003846481 -128.706055954821892 -18.103857727731054 31 33 28
-101.687399788483816 -128.179332392690213 -17.782243795326792 27 33 29
-101.678528432580379 -127.640024191441157 -17.570321421982214 28 33 29
-101.669676959969209 -127.099644283886320 -17.358400568150188 31 33 30
-101.658147688016044 -126.568618484380337 -17.036805592890857 30 30 28
-101.657426530082120 -125.995356539078344 -17.153910350480089 30 30 28
-101.645932239175067 -125.462183483665385 -16.832320743192014 33 30 23
-101.642555677644992 -124.898558263780728 -16.839737756183354 41 34 25
-101.641904046733885 -124.325605120383230 -16.956806073630048 33 20 14
-101.627752103320404 -123.798545520745236 -16.525566064399413 21 5 0
-101.613607203637486 -123.269322304848927 -16.094344956661331 17 3 0
-101.602176611651487 -122.729410577178754 -15.772794240566469 17 5 1
-101.601593172987677 -122.154867186106287 -15.889846304293968 16 7 2
-101.601030202812510 -121.580875860502502 -16.006882893279482 19 10 4
-101.595061337984092 -121.022854362007180 -15.904623488443292 20 11 5
-101.591819361520109 -120.456859554941829 -15.912000507751600 22 13 7
-101.588592302872556 -119.890871837916805 -15.919370317446294 22 14 8
-101.585379408917234 -119.324890757788097 -15.926733282483895 22 15 11
-101.582179949785427 -118.758915885940183 -15.934089756443001 21 17 14
-101.576272746831890 -118.199297396958386 -15.831817291402615 22 18 15
-101.570374540641907 -117.639140917471963 -15.729546060147896 24 20 17
-101.561761172877894 -117.084253264927270 -15.517660633280315 23 19 16
-101.555877538194039 -116.522748066739823 -15.415396314106147 22 18 15
-101.555454114612928 -115.950176346044501 -15.532351531772861 20 20 12
-101.549587185564675 -115.388136282114814 -15.430084726321667 23 22 14
-101.540996712657702 -114.830277041090199 -15.218218934686035 23 21 13
-101.540601821969418 -114.257988554367458 -15.335157586845128 23 19 12
-101.545682914161986 -113.677892807844970 -15.671274681452189 24 19 13
-101.550780377832254 -113.099430314424382 -16.007367132105770 35 27 19
-101.553158207696342 -112.526234462006414 -16.233847549148066 35 24 15
-101.561022430029084 -111.947404210570625 -16.679479062379642 30 17 9
-101.566166089033175 -111.373840201946692 -17.015498990779093 24 10 2
-101.565844383531612 -110.807545749969719 -17.132340931784910 23 5 1
-101.565530895323974 -110.241796851694730 -17.249173326007138 25 5 0
-101.570711030534298 -109.672042997173776 -17.585136584484303 38 19 9
-101.575904562651857 -109.103921149497396 -17.921076634860697 51 32 21
-101.583856986441234 -108.535699362757796 -18.366556754561401 54 35 22
-101.578088690985496 -107.976953387212077 -18.264208855431036 68 46 34
-101.575069933497090 -107.416477166348670 -18.271422281966494 80 57 44
-101.572054660096057 -106.856002425689624 -18.278634026489982 91 67 54
-101.585552675726376 -106.291658485544403 -18.943139007280593 98 70 60
-101.596318150957018 -105.730949419396779 -19.498054925527470 102 73 64
-101.607101109686795 -105.172958366858239 -20.052934501848824 102 73 64
-101.609633269142549 -104.617175449800811 -20.279161848052297 102 72 63
-101.614931383687491 -104.062921948332885 -20.614909112699479 104 74 65
-101.622999712227440 -103.511012826295385 -21.060165869512275 104 73 62
-101.639363330692305 -102.964232970410407 -21.833978044707010 107 75 62
-101.650225979501556 -102.418744211029065 -22.388690805183387 111 77 65
-101.672158717721643 -101.882086302850226 -23.381452312125020 114 77 66
-101.680296165240307 -101.341319407103853 -23.826561310122713 117 78 66
-101.707810962508091 -100.817228260257281 -25.038240793003098 118 78 66
-101.699380654992140 -100.268651292174454 -24.826202831695014 117 78 65
-101.704792496218204 -99.732063283925569 -25.161713850091729 117 78 65
-101.696362927505504 -99.182672482248805 -24.949683912540650 118 78 65
-101.704562122330259 -98.651145594170998 -25.394668258798049 120 78 64
-101.701682019412075 -98.108072417635356 -25.401636215184567 119 77 63
-101.701579754347875 -97.568701288312013 -25.518096041352123 124 78 63
-101.698707239373675 -97.025900405472740 -25.525057564836459 128 82 67
-101.695838091957796 -96.483099705236910 -25.532017475412800 128 82 67
-101.698530860496149 -95.949332516673380 -25.757941367828522 126 80 65
-101.687330233330471 -95.392710079868664 -25.436452649075733 125 79 64
-101.681689181547455 -94.844577594918647 -25.333934627018067 126 80 65
-101.681616586597613 -94.306564971733749 -25.450366275318487 127 81 69
-101.695475957995939 -93.797112313194447 -26.114133361211685 119 76 68
-101.709357471753933 -93.290919198991801 -26.777856302148621 109 81 73
-101.720473719537353 -92.781838732933295 -27.332072972891950 84 75 67
-101.723242502457040 -92.256218894785206 -27.557876635517516 75 77 71
-101.717651448183972 -91.711614445708790 -27.455298378976835 86 93 85
-101.720440045339018 -91.187350732210504 -27.681078603267878 88 95 87
-101.720447933580857 -90.656938846122259 -27.797393510480049 80 90 79
-101.709287022871521 -90.097048180205618 -27.475919433034761 58 65 52
-101.684144820758917 -89.496641574464363 -26.607256583792633 62 55 46
-101.686964500671408 -88.972370707958163 -26.833022011828518 83 59 55
-101.684200900266873 -88.432543806929360 -26.839900818267267 101 59 60
-101.684247275476991 -87.901306002522333 -26.956205815037919 118 72 74
-101.678703166515746 -87.352881474380695 -26.853644422013872 129 83 85
-101.684379527898912 -86.840450993595312 -27.188780229308236 133 89 90
-101.687271073035504 -86.320239993469954 -27.414469487023069 141 95 97
-101.678956794242922 -85.762397325423606 -27.202471394475850 144 99 101
-101.659421035534223 -85.163662319715286 -26.552827005148629 145 99 102
-101.659542307504665 -84.633215761233885 -26.669088026874050 147 98 102
-101.676539771732649 -84.166269104442335 -27.441775209205389 147 96 101
-101.682325954507434 -83.660058939334533 -27.776794449488307 143 91 96
-101.671260411443853 -83.089250308807650 -27.455387132582644 134 80 86
-101.648947833036175 -82.471569546429052 -26.696407297551758 122 65 74
-101.640709997452390 -81.907979767941782 -26.484431792730334 107 55 65
-101.640934476732070 -81.378851644246197 -26.600629869121207 114 64 74
-101.632727149201273 -80.813886613408229 -26.388653925515115 120 73 81
-101.618896368968720 -80.223034174499034 -25.957916924660992 123 82 90
-101.602255785156459 -79.617330615637968 -25.417818109325964 116 84 90
-101.582802655673675 -78.995959978178462 -24.768367190389085 110 87 90
-101.532305923464506 -78.225998071204913 -22.915849215045711 59 48 50
-101.464846300394456 -77.365889268067022 -20.407220846311532 18 19 19
-101.434084127860316 -76.672072830591503 -19.320490316137636 15 24 23
-101.425936017712203 -76.085015641207605 -19.108713448824659 15 24 23
-101.426293619965080 -75.539749785038794 -19.225013953428771 9 14 17
-101.415366440262957 -74.936733005058315 -18.903871978627535 12 17 20
-101.424272300009036 -74.435958242144110 -19.348201711735953 11 16 19
-101.416230730693343 -73.846660712514478 -19.136396936601557 12 17 20
-101.402551640245832 -73.225487007181300 -18.705899479901632 22 27 30
-101.380396039161525 -72.555148355779608 -17.947386581562114 18 23 25
-101.389439824665146 -72.056197578157935 -18.391631556264002 16 22 22
-101.395692210165237 -71.543198484592295 -18.726497648612195 13 19 19
-101.399150998338598 -71.015334483201940 -18.951994315389214 10 16 16
-101.388462808940929 -70.404812370459524 -18.630815264605985 8 14 14
-101.383485300032930 -69.826664894646285 -18.528288765290540 6 12 12
-101.370026649320806 -69.196082522982550 -18.097782699105835 8 14 12
-101.370806275392539 -68.651094921821809 -18.213878444742932 9 15 13
-101.363105597625577 -68.053125727257310 -18.001999850063584 11 17 15
-101.369659771418085 -67.544554980685660 -18.336675984726952 10 16 14
-101.350671989659290 -66.872202652797256 -17.687527225184624 8 14 12
-101.337410017311043 -66.233846929748992 -17.257007083755610 11 17 16
-101.332726551581160 -65.650037195671445 -17.154398199660420 12 18 18
-101.339477478684913 -65.142410958605268 -17.488970485903280 12 18 18
-101.343438256919669 -64.616913228965302 -17.714202645131735 11 17 17
-101.344607731955193 -64.072726324084172 -17.830103646391791 9 15 15
-101.342984921796926 -63.509032394335357 -17.836682378003388 10 16 16
-101.327170726963615 -62.843894887131313 -17.296800004500824 10 16 14
-101.314257610346829 -62.196540793390362 -16.866205596435577 9 15 13
-101.292845686339703 -61.484488744541729 -16.107766302486340 9 15 13
-101.291447609349675 -60.916247069442292 -16.114284334748078 8 14 12
-101.290112911203110 -60.347951564409371 -16.120772600886880 7 13 11
-101.288843261455767 -59.779600075914580 -16.127230324360369 8 14 11
-101.296200834924491 -59.276928180030239 -16.461461395539033 7 13 9
-101.277943783813356 -58.576165694899110 -15.812255496980100 8 14 12
-101.271168895623020 -57.961901629360639 -15.600101739033420 10 16 14
-101.270174204649450 -57.391941935570664 -15.606444477237005 10 16 14
-101.274964346145111 -56.867918066558147 -15.831264700736369 10 16 16
-101.279831818045210 -56.344913434065496 -16.056037438121848 10 16 16
-101.259072131506215 -55.611006229302326 -15.297511082102488 10 16 16
-101.258383021834831 -55.039942716649179 -15.303718993420603 11 17 17
-101.260632155107629 -54.492892433381378 -15.419132964072901 10 16 16
-101.257250877326570 -53.897577960362177 -15.316019541783959 9 15 15
-101.262526290565731 -53.375544414063263 -15.540587125553088 11 17 17
-101.250744662236386 -52.705058920234151 -15.109689520490889 10 16 14
-101.247623892927592 -52.107848234962361 -15.006470990506983 10 16 14
-101.233163425070643 -51.408180780836460 -14.466296432749118 11 17 17
-101.244515376076805 -50.937236048541962 -14.909148908692742 12 17 20
-101.241674225629012 -50.338373418529301 -14.805813614301314 12 17 20
-101.238930612351083 -49.738862570257851 -14.702438330898332 12 18 18
-101.239144328621748 -49.165245914889240 -14.708240614160985 12 18 18
-101.259461646283825 -48.779251681237788 -15.478506306030511 11 17 17
-101.262736772697636 -48.234415650592418 -15.593406652666403 11 17 17
-101.254689231959759 -47.580550255640837 -15.271410478793285 13 19 19
-101.238181325433374 -46.842012737419040 -14.621756632852737 8 14 14
-101.238925664731156 -46.267540730469030 -14.627313872441533 10 16 14
-101.248350413936649 -45.777494360187639 -14.960426052955881 11 17 15
-101.252176493651135 -45.232041048400390 -15.075069179406086 10 16 14
-101.258973548374797 -44.715730391001010 -15.298849906534429 8 14 12
-101.268741989012625 -44.229378851015547 -15.631759633501218 11 17 15
-101.270067057616984 -43.656691483306140 -15.637020683992148 13 19 17
-101.260103783127093 -42.965651229128504 -15.205464765160002 9 17 15
-101.247420363776072 -42.242445656723859 -14.664682363164047 4 13 12
-101.274794168816740 -41.937730955262616 -15.652453374444093 10 18 19
-101.290881389441509 -41.516293338089326 -16.203389796947619 35 45 46
-101.295694042848069 -40.974844088494351 -16.317519734101609 20 30 30
-101.297791584547511 -40.402853804742307 -16.322404060676263 4 12 14
-101.300027086248932 -39.830690460066322 -16.327224169061907 6 14 16
-101.310942341140375 -39.352754984638452 -16.659498633240361 10 18 21
-101.310612515347259 -38.749311075194051 -16.555009087152882 9 16 22
-101.321806401084558 -38.273199490088665 -16.887131481070412 21 28 35
-101.335982859861872 -37.830833256784089 -17.328338549331164 15 24 29
-101.350298434073864 -37.390465668288876 -17.769458492189813 14 24 26
-101.359075526637255 -36.886411790705679 -17.992165810810718 14 22 25
-101.356649088961149 -36.250789271006305 -17.778151622341454 10 18 21
-101.340204613476459 -35.446906197745641 -17.018281180912368 8 13 16
-101.335283847453695 -34.773616390732158 -16.694989113964567 10 15 16
-101.350368445109311 -34.336031182532778 -17.135712518205622 11 17 17
-101.359942810329372 -33.831987152267509 -17.358038322956958 10 16 15
-101.366849664989090 -33.294318712263689 -17.471127483637360 8 14 12
-101.359789235319582 -32.583133140096031 -17.038390219671498 9 15 13
-101.361395553026640 -31.974619913754101 -16.933026610195469 6 12 10
-101.360361735058376 -31.329985982013266 -16.718438956222627 6 12 12
-101.365159146088871 -30.755174013097317 -16.722060719586551 4 10 10
-101.370140888685896 -30.180096038304725 -16.725597037493031 3 9 9
-101.378125520472153 -29.640889518460799 -16.838186425518842 5 11 11
-101.377856439923306 -28.992696432387255 -16.623269559949364 5 11 11
-101.380601681763991 -28.379809238242185 -16.517406116519595 6 12 12
-101.386356639750048 -27.803049440713803 -16.520589842680636 4 10 10
-101.392311470484842 -27.225990246742750 -16.523681032241711 5 11 11
-101.398469346079409 -26.648624686153720 -16.526678239423404 5 11 11
-101.399236057349427 -25.995340741024911 -16.311318257367844 7 13 13
-101.416998207526319 -25.569104827188465 -16.750643905672348 6 12 12
-101.407024253910336 -24.761192215327199 -16.098578351745857 6 12 12
-101.427984896730905 -24.374589005734375 -16.646824777719075 7 13 11
-101.426846860071350 -23.679126609812577 -16.321951299606241 7 13 11
-101.437080626042828 -23.138403379037580 -16.433480321814784 7 13 11
-101.461424731621435 -22.795209842220046 -17.090520158153538 7 13 11
-101.466531980450199 -22.176773098545521 -16.983583862978094 6 12 10
-101.485732483262140 -21.757519824062804 -17.422149532497599 5 11 9
-101.488537854852055 -21.098304935367896 -17.205875312514507 5 11 9
-101.488836691418598 -20.397006836046366 -16.880374509002223 3 9 7
-101.492162397456951 -19.734496219858574 -16.663885287381305 2 8 6
-101.492998958036210 -19.029325206913057 -16.338167104389981 3 9 5
-101.499612262596756 -18.404895072225713 -16.230572010299369 3 9 5
-101.517469004044557 -17.946261726815525 -16.559327004581831 3 9 5
-101.538296579572815 -17.530844578266745 -16.997074800919648 3 10 3
-101.578494065384831 -17.413003493494795 -18.198505193101681 3 10 3
-101.558784145569163 -16.365106689467840 -16.999273145278323 3 10 3
-101.536730117518147 -15.267771829660971 -15.690812516623055 2 9 2
-101.506916348644822 -14.033950407637178 -14.054892391367474 1 8 0
-101.537261131209902 -13.745492467215010 -14.819356988334420 0 7 0
-101.559687568353084 -13.329498359114989 -15.256345833690574 2 9 2
-101.576951057676496 -12.827370756489735 -15.474973461074597 3 9 5
-101.583693860775512 -12.148976163457469 -15.257013013685707 4 10 7
-101.601523048486669 -11.646931307224627 -15.475369161149871 9 15 11
-101.608886949705223 -10.966346485164520 -15.257134127677205 10 16 12
-101.608542930409442 -10.148891670403593 -14.711418753789133 5 11 7
-101.619263923247090 -9.509441244495045 -14.602013167109817 2 8 4
-101.640978439508686 -9.051371540617923 -14.928916813299310 4 10 10
-101.684250348281410 -8.961715135841347 -16.128586293005185 8 14 14
-101.730348800541208 -8.923890022876716 -17.437228923391530 13 18 21
-101.784544194022814 -9.031702660211907 -19.073075537086794 11 16 19
-101.828299734939932 -8.960365101752092 -20.272325083744846 9 14 18
-101.861700454328243 -8.706469732019324 -21.034971961107601 14 19 22
-101.842850676433500 -7.509299048370374 -19.615147205528359 14 20 18
-101.874249144288100 -7.208793820308835 -20.268372846927832 13 19 17
-101.929376862109947 -7.342163869783029 -21.903510364572355 4 10 8
-101.940403694781679 -6.664257897996135 -21.683495422496406 3 9 7
-101.941444473265179 -5.790646449020990 -21.026836729623540 23 29 27
-101.940357582478256 -4.864156765355684 -20.260881323749572 25 29 28
-101.957782504377718 -4.276266507345266 -20.258596750596922 21 27 25
-101.970442671685973 -3.588994420461386 -20.037896836957231 2 10 9
-101.993745639168012 -3.098314065236960 -20.253517366423637 10 19 18
-102.050531920669187 -3.256809872680919 -21.887602800840170 12 21 19
-102.066787679010247 -2.620081505558224 -21.775521381797091 30 37 37
-102.027778436874527 -0.871408639357487 -19.262428884621102 14 20 19
-102.075316153177695 -0.834865401991327 -20.459510896112448 18 24 22
-102.195864514161670 -2.284587040574135 -24.821273657138335 15 21 19
-102.203469452937398 -1.445950282672369 -24.271973565337220 46 52 47
-102.229017795311393 -0.965064351377110 -24.486419096226001 159 166 158
-101.411633345647871 -151.400075546415735 -19.559747785598262 195 201 201
-101.417370880844388 -150.751992590988237 -20.007109551537923 176 177 179
-101.400385147638815 -150.283204654260061 -19.576625398130943 150 149 154
-101.420603308531511 -149.528198701794793 -20.572454719097351 149 150 152
-101.420936940857430 -148.929262632843887 -20.800178030214511 141 142 144
-101.447122014198968 -148.139701955812882 -22.015226259697954 104 105 107
-101.439067670807461 -147.608668579086697 -21.913686738362912 76 77 79
-101.445422081220457 -146.973336389013554 -22.360622143280239 61 62 64
-101.437524105139943 -146.442720245090840 -22.259003521572765 54 55 57
-101.432567470215005 -145.891407168581139 -22.267049701183367 47 49 48
-101.419059606792132 -145.400005314999305 -21.945993408120358 46 48 47
-101.414238807626347 -144.848005213842328 -21.953981676259190 43 45 44
-101.409486969124814 -144.296066680957722 -21.961936320099483 33 35 34
-101.407683933128325 -143.725055985761117 -22.079535471197175 34 36 35
-101.403067144632715 -143.173506112445068 -22.087421506909351 38 40 37
-101.398514179532683 -142.622011180998442 -22.095276444183611 36 38 35
-101.394023380989111 -142.070569104990994 -22.103101097122732 35 37 34
-101.386702618968059 -141.537220541912291 -22.001234464350773 31 33 30
-101.376543807859790 -141.021147113914850 -21.789688837969919 27 29 26
-101.372223400486504 -140.469035299652944 -21.797438870309549 28 30 27
-101.370855719291399 -139.899742245809506 -21.914812068617238 25 27 26
-101.372445440366377 -139.314082330329597 -22.141797813065295 25 27 24
-101.365393073315005 -138.779598836406137 -22.039814463473135 24 26 23
-101.358387843868286 -138.244611034114200 -21.937813754511865 19 21 18
-101.348523313560349 -137.725255521195010 -21.726161129353699 23 25 20
-101.338699174369651 -137.204848542005550 -21.514500004494096 19 21 18
-101.326005167515561 -136.698982874297258 -21.193203248543057 21 23 20
-101.319166886132805 -136.160874348538073 -21.091154795374592 23 25 22
-101.315281780498893 -135.607203618193040 -21.098712627560559 23 25 22
-101.314354197786642 -135.038785067209147 -21.215866282565315 23 25 22
-101.304722178375854 -134.514459092656580 -21.004153588449526 27 29 26
-101.300959695633509 -133.960604145576895 -21.011654654499893 28 30 27
-101.279714712280480 -133.490552166406388 -20.361503353346848 28 30 27
-101.284783899645504 -132.894045292024856 -20.697795071165899 28 30 27
-101.272357276829851 -132.379707745449650 -20.376457604912446 32 34 31
-101.280434321486041 -131.771731995343288 -20.822287313933259 33 35 32
-101.262213116760364 -131.281830617316672 -20.281752652203977 32 34 31
-101.264510860199664 -130.701007267426434 -20.508349895980558 32 34 31
-101.255123748171926 -130.170617557719993 -20.296582456084280 32 34 31
-101.257490308381449 -129.590919838935235 -20.523135191467446 34 36 33
-101.248155959109027 -129.059479248163427 -20.311353327296615 33 35 32
-101.238842980292134 -128.526968223387911 -20.099572258088017 33 35 32
-101.223675175373231 -128.015874865535324 -19.668653884972116 32 34 29
-101.211459347550274 -127.491649573843745 -19.347317354644360 30 32 27
-101.199258633805243 -126.965807838376321 -19.025990232661400 33 38 34
-101.195899690964268 -126.407061406883201 -19.033348597112507 35 36 31
-101.189619611592178 -125.858485028338492 -18.931140852882805 39 34 29
-101.180412570976202 -125.319262708274664 -18.719378185935881 44 35 28
-101.165325464833870 -124.798192430495817 -18.288523904250582 53 37 29
-101.153194722602890 -124.265616587856996 -17.967232625683209 73 55 45
-101.129271591667091 -123.767701979217648 -17.207790460275504 101 80 72
-101.114201147129876 -123.239596323586142 -16.777000626413951 99 78 71
-101.099135742755990 -122.709325599567038 -16.346230667492080 94 74 64
-101.092940315165364 -122.152123540672250 -16.244071214601348 90 71 61
-101.089714495479029 -121.586402203291755 -16.251437689601744 69 50 39
-101.077628813751815 -121.043823501227820 -15.930227818700843 55 36 28
-101.071467958856644 -120.484741028232364 -15.828071182398020 37 18 13
-101.065317611515624 -119.925121402934650 -15.725915048495807 27 10 4
-101.065102863199016 -119.351170839435994 -15.842784629752998 24 9 4
-101.061938819413712 -118.784394106441127 -15.850132415091338 25 13 11
-101.055820225206915 -118.223975708790277 -15.747969312763644 27 17 14
-101.049709326932103 -117.663018613507532 -15.645808073813839 29 19 16
-101.037667586572496 -117.113142245987333 -15.324652300049848 30 20 15
-101.028596734330492 -116.556101579466230 -15.113007894242912 31 22 14
-101.028444548142858 -115.982178449265817 -15.229847263607269 30 20 13
-101.025330158381720 -115.413797000483328 -15.237187812776398 29 19 10
-101.025198353755229 -114.840695696886399 -15.354008972197676 29 18 9
-101.028053036429284 -114.263689372528830 -15.580300487592126 30 19 9
-101.030920242294272 -113.687772594498824 -15.806574796687215 31 18 8
-101.027840765596054 -113.120761226657905 -15.813884540635314 38 23 13
-101.036690196333879 -112.539206860622343 -16.259072774222972 40 22 12
-101.051521152118838 -111.953098877717608 -16.923164109238002 46 27 16
-101.063390716959361 -111.373346158105491 -17.477747860691863 81 59 47
-101.072294055213362 -110.799133494706581 -17.922834733275153 93 69 57
-101.072252995034802 -110.234744930818024 -18.039522796256875 99 73 61
-101.081182903555870 -109.664067604273171 -18.484560566717249 97 71 58
-101.087138152342831 -109.097571548134695 -18.820119479360898 97 70 56
-101.111051533762819 -108.522299607355052 -19.812330927020298 98 70 55
-101.120031190352293 -107.959233753188343 -20.257266549466436 99 70 55
-101.120042951294479 -107.401916282737560 -20.373856556688082 98 68 52
-101.117064351418676 -106.846062945023348 -20.381003186300688 103 71 55
-101.132069085446105 -106.286323628543357 -21.044739960470167 102 73 57
-101.156088090666927 -105.728717013656180 -22.036719039991624 104 72 57
-101.165135845725274 -105.176524182005323 -22.481510162880738 106 73 59
-101.177197938258075 -104.626672956273055 -23.035694018648798 103 67 54
-101.180267771623164 -104.078222938689450 -23.261588662279053 110 74 61
-101.183344659418637 -103.530860572568429 -23.487468735351030 110 76 60
-101.189434138539838 -102.985568017266715 -23.822745174377047 113 77 61
-101.192526391627425 -102.440652524646239 -24.048592709847867 115 79 63
-101.204651076990928 -101.901401208820673 -24.602637511222667 116 78 62
-101.210771443605950 -101.361273019946665 -24.937846014359508 120 81 64
-101.222924439435914 -100.826913437732401 -25.491826919032718 123 82 67
-101.210990252855993 -100.276546855471864 -25.170624737935810 124 83 70
-101.211105822275243 -99.734999896805178 -25.287002749737610 123 81 69
-101.208209864400303 -99.191113066863323 -25.293986666424360 122 80 66
-101.214366926172303 -98.656693613753433 -25.629118851838854 121 77 64
-101.211478317839635 -98.113623050740728 -25.636090850284205 120 76 63
-101.211611522552886 -97.574251959257751 -25.752438028127841 124 78 63
-101.208727998731774 -97.031454118341330 -25.759404786894748 129 83 68
-101.205846587573063 -96.488656712443102 -25.766370530493361 131 85 70
-101.202967514342163 -95.945859671492499 -25.773335151878712 128 82 67
-101.203116875364486 -95.407848516207309 -25.889660602092988 126 80 65
-101.188135534514075 -94.845094555035331 -25.459184793747880 127 84 68
-101.191318188268710 -94.312140970130031 -25.684865951924138 131 88 76
-101.194510050496703 -93.780274059193019 -25.910531519117285 127 83 76
-101.209837813756181 -93.272982818456839 -26.573573882818096 103 67 64
-101.222153884687401 -92.762807414369860 -27.127227833027320 128 111 106
-101.225385415935463 -92.236101457561617 -27.352821298403740 50 48 43
-101.222555814876813 -91.697107049892722 -27.359723110056819 89 94 87
-101.222768851108981 -91.165070879115305 -27.475956594751864 73 80 72
-101.229067953827268 -90.648038405867453 -27.810841855346354 52 62 51
-101.211060696787413 -90.072616422389572 -27.271085148331224 31 38 25
-101.183921366841702 -89.471154457181186 -26.403388581544078 53 47 38
-101.184153397166867 -88.937755003412462 -26.519627012486865 89 65 61
-101.187440432094832 -88.413214398085003 -26.745171636042500 112 73 73
-101.193787224403465 -87.898347397608120 -27.080011791801326 130 87 88
-101.178821161250610 -87.323083336306482 -26.649657447403200 140 96 97
-101.176047740730851 -86.782172574056545 -26.656552108479417 135 93 94
-101.170234547393903 -86.231854744943391 -26.554138933196413 140 97 98
-101.170532079513364 -85.700341594890958 -26.670326611633556 141 101 102
-101.158633022921919 -85.129578451619167 -26.349317576519411 140 102 105
-101.158954246122178 -84.598057362906331 -26.465494002941341 143 102 106
-101.162346554239051 -84.077565821185345 -26.690946585118439 140 98 102
-101.174928336211735 -83.590443374765201 -27.244236124402164 140 97 101
-101.166130937528635 -83.028793267643195 -27.032508346637627 140 95 100
-101.151224301125040 -82.443438677780051 -26.602229439565889 124 84 90
-101.136322922256383 -81.855903960568412 -26.171970458453472 105 70 77
-101.130614184141052 -81.301736270480887 -26.069546940703475 121 88 95
-101.115730060078278 -80.710654592529693 -25.639316215599791 124 96 100
-101.103918790357127 -80.129783575012809 -25.318369228975172 113 93 95
-101.067590577068728 -79.445958218346334 -24.123339745484941 78 66 69
-101.040456531391314 -78.794953655065086 -23.256150617571933 37 33 35
-100.985705723492018 -78.020720594673662 -21.405711742584771 21 22 25
-100.943214008495119 -77.291155693394373 -19.992383907454524 13 19 21
-100.912998019281943 -76.609518706478752 -19.016125600769442 11 21 23
-100.907363776055604 -76.035161633565380 -18.913874264379558 8 19 21
-100.898679461143942 -75.445952329905182 -18.702376068380943 10 15 18
-100.896167091915615 -74.884774235557742 -18.709354465244900 13 18 21
-100.893682952657713 -74.323580332771968 -18.716319519711931 15 20 23
-100.885073673394658 -73.732149478095394 -18.504808294456808 17 22 25
-100.867254931953866 -73.093468102627995 -17.965612562925855 18 23 26
-100.852535859506830 -72.467703598067473 -17.535659885452418 15 20 23
-100.862486341905637 -71.967148303656614 -17.979487615564864 12 17 20
-100.884807435519392 -71.533535345990813 -18.860143756255837 14 19 22
-100.885600978264122 -70.988965578872822 -18.976228543228558 12 17 20
-100.877181062092035 -70.394693241817478 -18.764655976125425 12 17 20
-100.862624363055545 -69.765283270779378 -18.334663144386695 11 16 19
-100.860443003208104 -69.202810862509068 -18.341496510520813 9 15 15
-100.861389323584106 -68.657867480229513 -18.457512055006987 10 16 16
-100.862379484032658 -68.113439003508944 -18.573501326371144 11 17 17
-100.857236349652723 -67.533323484020642 -18.471074319775937 10 16 16
-100.839775027608667 -66.879143614676991 -17.931867133813967 10 16 16
-100.822350143969302 -66.222211119103392 -17.392670850008642 10 16 16
-100.817331731335244 -65.638188422547941 -17.290224395494050 10 16 16
-100.821639466719319 -65.111149170545545 -17.515306439275605 10 16 16
-100.816719721685544 -64.526779378890822 -17.412816355343494 9 15 15
-100.805660860962021 -63.902361411460788 -17.091957669465017 7 13 13
-100.800841634363962 -63.316277438052097 -16.989437142791758 7 13 13
-100.796075968498414 -62.729605517814107 -16.886897044879674 8 14 12
-100.785171297504974 -62.101247381168726 -16.566005153303962 8 14 12
-100.752635547905626 -61.325467269554068 -15.480966789591633 9 15 13
-100.748032658342851 -60.734026227483902 -15.378397911021096 9 15 13
-100.746589657029560 -60.163353234781759 -15.384962461698535 9 15 13
-100.751410191528137 -59.635899222431185 -15.609803453478065 7 13 11
-100.756298622944456 -59.109477449804601 -15.834601338242834 8 14 10
-100.748851917579259 -58.495361577844349 -15.622767449898816 9 15 13
-100.741471669249407 -57.880095743777389 -15.410913605874555 10 16 14
-100.731057604201027 -57.240951810006294 -15.089898033724495 10 16 14
-100.730021111520458 -56.669101826681306 -15.096280227421232 10 16 16
-100.732162073938767 -56.120453604725263 -15.211762395025175 9 15 15
-100.721965573662089 -55.478108628468426 -14.890675690572493 10 16 16
-100.718052648606019 -54.881685619106612 -14.787828017238979 10 16 16
-100.717323257640643 -54.308728775303187 -14.794074687998744 10 16 16
-100.722884977121666 -53.784412648625661 -15.018528799589660 9 15 15
-100.737846243147374 -53.335002050248733 -15.570291814861861 11 17 17
-100.731159429800286 -52.713896927886793 -15.358166340646591 11 17 15
-100.727664554378975 -52.116791472110087 -15.255125698564541 11 17 15
-100.711836953634716 -51.417248840187703 -14.715603887636178 12 18 18
-100.714733219496182 -50.869223476751067 -14.830718309266246 13 18 21
-100.720828937381356 -50.347642168425082 -15.054888806991841 13 18 21
-100.720809167085946 -49.774514613062095 -15.060797754875324 12 18 18
-100.714675930658245 -49.148200784905953 -14.848461067184672 11 17 17
-100.724170389301591 -48.654759755323767 -15.181574841876397 10 16 16
-100.724449963971125 -48.081584335135048 -15.187341076851396 14 19 22
-100.718623193416207 -47.453574729761257 -14.974875232424495 16 21 24
-100.697378770472795 -46.686189332368961 -14.216925380494189 14 19 22
-100.691770208395511 -46.054390980966943 -14.004394145345657 12 18 17
-100.704900105339902 -45.590451718991282 -14.446323947221458 13 19 18
-100.715036376495675 -45.100116262568427 -14.779098713782560 13 19 18
-100.725285477926633 -44.611287614989408 -15.111803992386371 5 11 10
-100.735649203253260 -44.123962375579765 -15.444438959975827 8 14 12
-100.743026919612717 -43.608864268934191 -15.667929419173873 8 14 12
-100.738116832788791 -42.976530369130025 -15.455069548527092 8 15 13
-100.727131353336361 -42.283313872407504 -15.024025050202994 5 14 13
-100.741081722066355 -41.828503341942941 -15.465468374569582 10 18 19
-100.752055446398671 -41.345357575890347 -15.797768499306756 27 37 38
-100.750760553590055 -40.741128625286294 -15.693748718794552 15 24 25
-100.749601321929049 -40.136185756398554 -15.589671387173865 8 14 14
-100.760967763258435 -39.655279415778686 -15.921760585914825 11 17 17
-100.781754135713442 -39.270230172034800 -16.580933271402870 15 20 23
-100.790289684035073 -38.761342181381643 -16.803805903915361 10 15 19
-100.795870424127941 -38.221355218417798 -16.917553338980525 17 22 28
-100.801594502210278 -37.681727450506962 -17.031228504267688 14 21 27
-100.807464309283958 -37.142454098904949 -17.144830305119854 12 20 24
-100.819661176925536 -36.669199042812139 -17.476443472244199 12 20 23
-100.816562804847919 -36.031842156104958 -17.262768587600362 14 22 25
-100.810540220067821 -35.359793283775048 -16.939990853405277 10 15 18
-100.801601479597139 -34.652222012932050 -16.508114963069204 5 11 12
-100.814419830007125 -34.179763814369402 -16.839422612512550 7 13 13
-100.830473662423614 -33.742936846593530 -17.279674533216678 10 16 15
-100.843600593990658 -33.273594816616367 -17.610802482203496 9 15 14
-100.847653359995249 -32.701390203383021 -17.614753642373557 7 13 11
-100.848803255225491 -32.093908062010513 -17.509597770370419 4 10 8
-100.843986176779580 -31.415006468083302 -17.186313864583099 5 11 11
-100.839360764908463 -30.734195555946734 -16.862957919734924 5 11 11
-100.841068424207748 -30.123189563916434 -16.757571488078042 5 11 11
-100.849098657732355 -29.583636050153501 -16.870142632171280 6 12 12
-100.851183965884530 -28.971533496129844 -16.764586822061091 4 10 10
-100.853465344271456 -28.358596523744957 -16.658945801710104 5 11 11
-100.859004927087284 -27.781783012811829 -16.662233115513345 8 14 14
-100.858629769211745 -27.130190741047308 -16.447401986499301 8 14 14
-100.852360076603048 -26.402153542199034 -16.014459898892937 7 13 13
-100.837167012003363 -25.558208738411086 -15.254403162303447 8 14 14
-100.858790447617551 -25.166927550608335 -15.802380663255775 6 12 12
-100.856241358340824 -24.471302280626670 -15.478183904422849 5 11 11
-100.869130048620150 -23.966808960501702 -15.698928772192630 8 14 14
-100.885260675362616 -23.501986636470100 -16.028573240099576 7 13 13
-100.907659645875839 -23.116841442480695 -16.576116566947718 7 13 13
-100.936308047472664 -22.813032992691383 -17.341550717259565 8 14 14
-100.931837316344286 -22.075656538722519 -16.907844146291922 9 15 13
-100.939718570524107 -21.495741804947954 -16.910043134985870 6 12 10
-100.947833450994551 -20.915448417864162 -16.912134255331893 4 10 8
-100.953170373459031 -20.294197630165520 -16.805117051445222 5 11 9
-100.955745276407185 -19.631145310147538 -16.588992587478771 2 8 6
-100.955574841731192 -18.925446024740456 -16.263761585339665 3 9 7
-100.958681341212340 -18.259066389476690 -16.047417057141331 3 9 6
-100.974049956981602 -17.757890707785556 -16.266941386938129 3 9 6
-100.989656641338755 -17.257400170438146 -16.486344773003651 3 9 5
-101.020447537831302 -16.968810742752975 -17.250597304061301 3 10 3
-101.015628945900289 -16.173393517975740 -16.706795706399930 3 10 3
-100.996232770200891 -15.160695420345814 -15.617910131420018 5 12 5
-100.977209901400286 -14.141924030324674 -14.528908483148825 3 10 2
-100.994189618106248 -13.637445834883081 -14.747696062213009 1 8 1
-101.017355837360782 -13.220889213078676 -15.184336788579003 2 9 2
-101.014145585568812 -12.410735199693692 -14.639917459676269 3 9 5
-101.037848359487327 -11.995129761494422 -15.076291709119488 4 10 8
-101.067691308148895 -11.670230686274998 -15.730512603692233 8 14 12
-101.083059973483415 -11.124322196719717 -15.839638482119938 9 15 13
-101.078178855136741 -10.263062809443678 -15.185685658415878 5 11 9
-101.091245382774488 -9.669875051288791 -15.185540655968907 2 8 6
-101.136759849394821 -9.577916245504007 -16.384161003457535 4 10 9
-101.167871062112042 -9.262097219070082 -17.037681699349747 8 14 14
-101.205037156470297 -9.041455085686485 -17.909043826887256 21 26 29
-101.236612761467441 -8.731815691550386 -18.562278749044907 15 20 23
-101.277113482421242 -8.565224867691226 -19.542348110287804 11 16 20
-101.297602445443744 -8.073887355090754 -19.759321614292986 13 18 21
-101.306873667781346 -7.393786560023901 -19.540169142601769 17 23 21
-101.328001916519625 -6.902322541320844 -19.756838116702710 30 36 34
-101.372361708522888 -6.794450525042695 -20.845315774319573 10 16 14
-101.394053568947271 -6.306234160530842 -21.061681688785711 15 21 19
-101.390419142402365 -5.382360249319513 -20.296918089826164 25 31 29
-101.375887881040981 -4.258822538270215 -19.095987199404021 30 34 33
-101.410058160576995 -3.961807719999598 -19.747850887054597 25 31 29
-101.404952694853804 -2.977074532402543 -18.873558598380129 1 7 5
-101.462302556024198 -3.078307361503849 -20.397104969896816 9 18 17
-101.497327886601909 -2.787706757845643 -21.048493579326703 9 19 18
-101.493456373048815 -1.797299587190935 -20.173669377321659 29 38 37
-101.498483320182984 -0.952916814108893 -19.625661734506053 24 30 29
-101.584592110296640 -1.576759598114635 -22.238659295395820 16 21 17
-101.651251377579598 -1.856352587651193 -24.088492782967791 36 40 34
-101.651743010164068 -0.912978670120620 -23.321956014824764 159 162 155
-100.926069124869244 -151.244118878842841 -20.569657579212475 194 200 200
-100.895752168445682 -150.866861747484251 -19.701173325054697 195 196 198
-100.899597899790294 -150.241902949786578 -20.038343209979928 164 164 168
-100.903544045206772 -149.618662912699676 -20.375447365091020 148 149 151
-100.920016048559958 -148.910800336314452 -21.150865794689850 137 138 140
-100.933494772137834 -148.228142221347639 -21.816597871969549 107 108 110
-100.940858025729739 -147.590907362595175 -22.263070234892638 80 81 83
-100.942088474829617 -146.997458023682498 -22.490308034270640 62 63 65
-100.930935507385186 -146.487146561885311 -22.279178698060662 58 59 61
-100.922964750460878 -145.955589888919235 -22.177604575797289 55 57 56
-100.911938445045507 -145.443503001461039 -21.966432920255045 44 46 45
-100.910343803539817 -144.871355411138524 -22.083944078775289 25 27 26
-100.905694907940983 -144.319217662413820 -22.091851525712514 28 30 29
-100.904240192446494 -143.748004035066401 -22.209286130358578 33 35 34
-100.899723166651071 -143.196251267745851 -22.217126528426860 33 35 32
-100.901534292946792 -142.607373696228279 -22.444039474326303 31 33 30
-100.894009394598456 -142.074586305653753 -22.342264723243034 32 34 31
-100.886539160496028 -141.541303697618872 -22.240468918494031 30 32 29
-100.869704004503816 -141.060841791282940 -21.810032895498011 25 27 24
-100.868615194886843 -140.490745867569643 -21.927280946941465 26 28 25
-100.867584857884850 -139.921237526389717 -22.044494977004234 25 26 26
-100.872902424337298 -139.318402060807273 -22.380733014487589 22 24 21
-100.859398088115398 -138.817345007018133 -22.059774419849902 24 26 23
-100.852230569383551 -138.281869268412777 -21.957856372099883 23 24 22
-100.838804481507907 -137.778166941300356 -21.636887572848707 28 29 24
-100.831720441229805 -137.241130863300214 -21.534945650649831 27 29 26
-100.818367439227018 -136.734777355847427 -21.213969177298651 29 31 28
-100.808204394121319 -136.211499637876841 -21.002499733823498 32 34 31
-100.807553847017374 -135.642006822510069 -21.119531913885794 34 36 33
-100.806948429904494 -135.073086975027621 -21.236536606068825 34 36 33
-100.806386733156543 -134.504738683923023 -21.353514499262189 34 36 33
-100.812196481372283 -133.908486608960203 -21.689449312530286 33 35 32
-100.799056292959946 -133.397681608502239 -21.368416851340612 34 36 33
-100.798613997796309 -132.830496282326379 -21.485325652243063 35 37 34
-100.785530561957458 -132.317563072652149 -21.164287947543357 36 38 35
-100.797843200818647 -131.697823642127815 -21.719071337207509 36 38 35
-100.784818790772704 -131.183845114311794 -21.398016154755595 34 36 33
-100.784515469422786 -130.617831206682439 -21.514846413062344 34 36 33
-100.774715335885119 -130.089381746663946 -21.303256589275975 34 36 33
-100.771294182597401 -129.535737721745591 -21.310592193357451 33 35 32
-100.767900785209889 -128.982110110187762 -21.317914350160436 34 36 33
-100.764534035799912 -128.428497995159489 -21.325223599148757 34 36 33
-100.754826089873887 -127.897394566918720 -21.113616991753076 34 35 30
-100.748321136926066 -127.354242583133669 -21.011460990250953 32 34 29
-100.741836430248611 -126.810560059804999 -20.909300764112544 34 39 35
-100.738559212274865 -126.255914478558850 -20.916577819555613 34 36 31
-100.725734000808174 -125.731760413207184 -20.595532083105780 45 39 31
-100.716111193535312 -125.196098390058410 -20.383931669577663 51 36 29
-100.700115691118285 -124.678592598944448 -19.953475270504640 70 48 38
-100.687320872360246 -124.149577613654301 -19.632465030177997 105 78 67
-100.661750052424878 -123.655233448887046 -18.873774361167449 111 83 72
-100.645767435608661 -123.130689383192092 -18.443384246163106 112 85 74
-100.629788587190561 -122.603979322643568 -18.013014624043166 111 84 72
-100.620214215770943 -122.058586935860887 -17.801491198489941 108 81 68
-100.610648213636978 -121.512114450966564 -17.589974887091557 108 81 70
-100.591478461438996 -120.987704906887700 -17.050249217110263 110 83 72
-100.581922366515769 -120.438255753716462 -16.838758806478154 107 83 71
-100.578786022804536 -119.873383030312311 -16.846073741268810 104 80 70
-100.572452809632921 -119.315414720780836 -16.743988091930419 96 74 66
-100.556497896935241 -118.776790725130738 -16.313729655162916 77 57 52
-100.546963665235126 -118.223285469241233 -16.102270536742736 55 37 30
-100.537432846103130 -117.668697407859753 -15.890820931622528 47 29 23
-100.521476263543349 -117.124651445185890 -15.460619104741653 42 25 17
-100.505515934229464 -116.578435333047537 -15.030441408733793 39 21 13
-100.502420216548387 -116.008971948162710 -15.037784162155646 36 17 7
-100.512206247294586 -115.419521329649285 -15.482605609603155 36 17 7
-100.518790232674988 -114.836972711175520 -15.818028973903864 42 22 11
-100.535053767331348 -114.242694189357877 -16.481519071558779 61 42 28
-100.544893956983856 -113.660043078864788 -16.926244618819368 83 65 50
-100.551526060947225 -113.083478294449037 -17.261583368744937 93 71 57
-100.561397268357595 -112.504906414088651 -17.706252087651478 98 73 60
-100.577738987368861 -111.921774918204036 -18.369590040241349 101 74 60
-100.600559522658855 -111.335713761797578 -19.251576475639411 98 71 57
-100.616945567874751 -110.759649122551195 -19.914820480019387 100 72 57
-100.610728694206458 -110.204712666014188 -19.812647965875442 104 75 58
-100.627144394177066 -109.633269301806621 -20.475830214416959 101 71 55
-100.640344725849260 -109.067096334750261 -21.029637548365059 104 72 55
-100.679450977440226 -108.489742635088348 -22.458037747283385 107 74 57
-100.682981983385403 -107.935575894739145 -22.683770612631292 107 74 55
-100.683280793562531 -107.383690887297391 -22.800167377412066 106 71 51
-100.680342826574702 -106.833272537043811 -22.807238623334115 106 71 51
-100.693615642089270 -106.279602031124952 -23.360882587147358 105 73 52
-100.706903456942143 -105.728649229381659 -23.914491400634205 104 73 52
-100.703981518184122 -105.180950464118922 -23.921526984651564 107 73 53
-100.707552520668671 -104.633581402690467 -24.147170743868116 106 69 50
-100.714377229635573 -104.087736004427327 -24.482101142146462 109 72 54
-100.714712104359847 -103.542106021760759 -24.598416267659218 114 76 60
-100.708548381586439 -102.995061398389581 -24.496137091706089 115 77 62
-100.712138142566687 -102.451227590677320 -24.721735486780204 116 78 62
-100.722240795076672 -101.911526881234963 -25.165893362654941 119 81 65
-100.732354909659861 -101.374000405880381 -25.610023374629492 122 85 69
-100.732710971285030 -100.832449794502423 -25.726286373383516 122 85 69
-100.716780055065016 -100.279754402417609 -25.296161300735719 124 87 69
-100.710615780247508 -99.732714854980031 -25.193882336629429 121 82 65
-100.707709560113486 -99.188013916958269 -25.200879542769172 121 79 65
-100.717852787939947 -98.655925005022880 -25.644939655496046 121 77 66
-100.721480430045375 -98.119161286388078 -25.870447152391108 124 77 67
-100.721849156323401 -97.579788857446701 -25.986681671292615 126 80 67
-100.718954798780373 -97.036992675818666 -25.993653595795024 124 80 67
-100.709525107984405 -96.485718208755912 -25.782121502734611 127 85 73
-100.706629835910348 -95.942380016158836 -25.789099443936720 126 84 72
-100.703735914584115 -95.399042411746450 -25.796076732891265 126 83 72
