ply
format ascii 1.0
element vertex 684
property double x
property double y
property double z
property uchar red
property uchar green
property uchar blue
end_header
46.696316066960819 -1.724168613979778 -43.952875243238424 139 136 117
46.452420431360238 -1.216139687552293 -44.284861343804806 141 138 119
45.898356845012515 -0.920826609665293 -45.020568993414599 141 138 119
44.599723292024677 -1.139317132682073 -46.725094703624791 143 140 121
42.866731262636009 -1.667907990491729 -48.994644983497409 149 146 127
41.816374683207158 -1.738774701537696 -50.376029573210531 147 144 128
40.641943253082175 -1.905136123397229 -51.918791974453796 147 144 129
39.901977589760719 -1.776940119620539 -52.896421142423520 142 139 122
38.789694350801213 -1.917770071239405 -54.358318948622752 142 139 122
38.298105607538986 -1.627466291627215 -55.013003900874736 137 134 117
37.496258754563314 -1.562932355873090 -56.071232899098135 134 131 112
37.377240710790133 -1.014442741405859 -56.241658723896933 136 133 114
36.513465095578212 -1.005375765864302 -57.380549150175312 140 137 118
36.022191642377507 -0.732676263673979 -58.035203726440869 147 144 125
35.034386598470661 -0.827501801850410 -59.335407251174985 147 144 125
34.108706159059921 -0.885041233366649 -60.554855893461053 146 143 124
32.810585134440331 -1.226352736144512 -62.258362537441201 144 141 122
31.760819944965220 -1.393795340312973 -63.639035941897674 143 140 121
31.269873758701323 -1.151414326061915 -64.293534998116968 143 140 121
31.151548270573045 -0.632212369376244 -64.463990666587989 146 143 124
30.039866414167761 -0.867033717086635 -65.925208671482636 143 140 121
28.928215535815241 -1.111362877109370 -67.386343627483086 145 142 123
27.133520569141254 -1.889150733403349 -69.734669208687563 143 140 123
26.705001832171689 -1.628542567478740 -70.308362078974113 140 137 120
26.338677252767297 -1.323197310630024 -70.801410037486477 137 134 117
25.413492644673184 -1.456868396736975 -72.020312222408904 142 139 122
24.053585550104884 -1.939530962263805 -73.803664509733466 141 138 121
23.811703133395426 -1.551711203269402 -74.135376353968354 143 140 123
23.694163162343699 -1.067083240985883 -74.305851923623408 140 137 120
23.079796891618486 -0.979618130567872 -75.121430377104787 142 139 120
22.279137878445212 -1.046746521256367 -76.178872367350465 140 137 118
21.664909482372266 -0.970250754176702 -76.994403866631359 139 137 116
20.312408951194826 -0.933789827419379 -78.786643027385850 140 135 116
20.009075415266381 -0.618274438985556 -79.199071486534876 138 133 114
175.189459914796828 -0.982369047634865 122.605535743423161 144 144 135
167.599667822459935 -1.383885123205864 112.715815311139522 151 148 138
166.045314267715099 -0.780273535821613 110.681727323542106 152 150 139
163.619600965038387 -0.526306485504062 107.516069530563840 158 156 146
153.415479349065123 -2.192549059949722 94.233980679753245 156 153 144
147.815423698320302 -3.290970896877156 86.947035072609907 155 152 143
147.132337527786888 -2.456823666080542 86.045787124558217 156 154 142
147.756325457399555 -1.096339022610821 86.841858135203950 156 154 142
143.898949132499041 -1.575400878547145 81.818894106330646 156 154 142
141.659836732856320 -1.414895255429422 78.897505781137824 156 154 142
138.860538160976546 -1.509458020386743 75.249004183355282 154 152 140
135.501043782365514 -1.866393541059077 70.873469109617474 152 150 138
132.639477579158893 -2.038999707558903 67.144700588243381 152 149 140
130.400337769536122 -1.966818291057480 64.224234541320072 153 151 139
127.601001604040448 -2.159426406531618 60.576760158241115 152 150 138
125.922059116619593 -1.881132327037266 58.383905975674111 150 148 136
124.554351375569951 -1.478570169399250 56.595173428113611 150 148 135
122.377469679399368 -1.452747760128660 53.756259394588398 149 145 133
119.764872217677052 -1.644233075789029 50.352014952929864 149 145 133
118.210461704051227 -1.372282122652898 48.321368163786246 148 144 132
116.593821046682038 -1.142774474043814 46.210070067437073 143 139 127
114.541465957879069 -1.131369085572143 43.533449103267174 144 140 128
112.364625865271563 -1.196679453333929 40.695453242195128 144 140 128
111.121520516196910 -0.835707515143556 39.069257216277890 143 141 127
109.629445691474459 -0.605394981657234 37.120076737323018 142 140 125
104.032851161352852 -0.546235498186045 29.819559775887456 142 139 124
102.105104074595104 -0.590026681549481 27.305612706542831 137 136 118
94.954578919646679 -0.643769080533309 17.978180862377371 139 137 124
93.089183699348510 -0.736532194187524 15.545767851443117 139 137 124
91.659595409344917 -0.616880118392461 13.678691997067205 140 137 122
89.918758507188400 -0.674289022914428 11.408044564890105 139 136 121
83.702761403787861 -0.646826649382025 3.295585096448008 145 142 127
82.335615345551801 -0.570790424117994 1.509944937209241 145 142 127
77.674025716175947 -0.729556809668941 -4.572748669561008 146 143 126
75.622114870552650 -1.092317964885725 -7.245730673945985 147 144 125
74.068334290891499 -1.187756304744096 -9.272897098785791 145 142 125
72.639114393757197 -1.224818531961359 -11.138536052000205 146 143 126
71.458994059573826 -1.129515988686268 -12.681270339683692 145 142 125
69.780775781063866 -1.335998501525165 -14.869480932315582 138 135 118
68.787537016185325 -1.153057536395905 -16.169944173718534 143 140 123
67.794347234417785 -0.978662683029526 -17.470342879052367 148 145 129
66.240769512639332 -1.148181811522443 -19.496843799635457 148 145 130
63.815412839742891 -1.856605168660480 -22.652765835150831 147 144 129
62.822334299538198 -1.716497912372776 -23.952864818605690 145 142 127
62.202951866941646 -1.356455522162030 -24.768849332313664 147 144 129
61.023153394757742 -1.346818321134930 -26.310855801272112 148 145 130
59.220627753036538 -1.733527818857645 -28.659460780381011 147 144 127
58.227736071054807 -1.630220943235982 -29.959270351364069 146 143 126
57.484013421416293 -1.378773107173119 -30.936370882983738 145 142 125
56.055260592363197 -1.567438369187037 -32.800672753771266 146 143 126
54.252843257073351 -2.006645245771211 -35.148789164412648 146 143 126
53.010994145078172 -2.101613927302175 -36.770892943998973 144 141 124
52.392038280355649 -1.804754782917288 -37.586431149425948 144 141 124
51.773151166446766 -1.513123721429548 -38.401948429722950 145 142 125
50.282292229517608 -1.797824728321590 -40.346409292138702 144 141 124
49.040618877785860 -1.931097904837319 -41.968202867423173 145 142 125
48.235026081819413 -1.785662418410128 -43.025472579662306 142 139 122
47.242612401051176 -1.771898366521818 -44.324589115520325 138 135 116
46.873203073347426 -1.347781783541268 -44.817383913945378 139 136 117
46.254690490056248 -1.095302630979930 -45.632677358139290 141 138 119
45.324754505556058 -1.060152089175949 -46.851044266700200 143 140 121
43.647260389411116 -1.545314451739337 -49.036732704435309 147 144 125
42.530499735682127 -1.658177657154436 -50.496776406524106 148 145 127
41.600694807287368 -1.650848112013365 -51.714919636381893 147 144 129
40.733249370329858 -1.607903547093447 -52.852403151562413 145 142 125
40.052787462721128 -1.440937530115786 -53.748038906605103 141 138 121
39.372394663710537 -1.279682064164826 -54.643648941393764 136 133 115
38.131251336519426 -1.523177947418823 -56.264561500910133 132 129 110
37.637924215635906 -1.241954802594884 -56.918321347731165 134 131 112
36.708455402739730 -1.278986020120948 -58.136168746476329 139 136 117
35.965998266546336 -1.188421489558765 -59.112218642705955 140 137 118
34.662703266504067 -1.512992701165883 -60.813422390805414 144 141 122
34.169654268525704 -1.254532605052390 -61.467080979175392 144 141 122
33.676689791223254 -1.000107234580206 -62.120738470489101 145 142 123
33.183810462786539 -0.749710599507513 -62.774395226930949 144 141 122
32.254688493790042 -0.829051387587897 -63.991973040944629 144 141 122
31.013939181446560 -1.150282390142617 -65.612273929179793 145 142 123
29.710873150170897 -1.529203652655516 -67.313027762775278 144 141 122
28.470162098413752 -1.871930004562955 -68.933125692314547 144 141 122
27.416500020211416 -2.082375374178493 -70.311492189493833 143 140 121
27.173376631579288 -1.678999791918218 -70.642770480918045 141 138 119
26.431567005287462 -1.662870266448028 -71.618363946764759 138 135 116
26.001582479222662 -1.410649371373051 -72.191269254180185 141 138 119
24.636357094620536 -1.892867375557288 -73.972081865875310 142 139 120
24.268870987102076 -1.602640107834834 -74.464418536262627 142 139 122
24.213294648003327 -1.068851053646422 -74.554184449945353 141 138 120
23.783660392021147 -0.832537412082765 -75.127093584016194 140 137 118
23.229384162264978 -0.699312970335411 -75.861031045990131 142 139 120
22.550446075164174 -0.670834104516407 -76.755970273723733 144 142 121
21.933951948436118 -0.597576312677474 -77.570384525119721 142 140 119
180.859445793851478 -0.577988572536896 127.981570041789496 139 139 131
174.114644089436496 -0.581563502212157 119.235537285072155 151 148 139
163.497317620042168 -0.999404433426172 105.473120485010753 160 158 146
160.499676077996753 -0.990057664075093 101.585859236494969 155 153 141
158.001889737464012 -0.810550091725914 98.344588501672774 152 150 138
148.630728081004463 -3.381554951667328 86.225352022983344 155 153 141
147.570037694368153 -2.698622175487082 84.841151854418598 155 153 141
147.134211618760162 -1.771514598067576 84.264094176626116 156 154 142
143.761546935248020 -2.052396546270976 79.894076873981589 157 155 143
142.013515200481379 -1.689477951777085 77.622544782961540 157 155 143
139.890563238994361 -1.498775389677827 74.866992639898115 155 153 141
137.080247900191864 -1.617314867586795 71.224008230000351 153 151 139
133.894996202523458 -1.920513579533588 67.097139569747725 153 150 141
131.647055981775026 -1.846804481808093 64.180867884151326 154 152 140
129.336627734105321 -1.819898605019274 61.184113140587613 152 150 138
127.338646349195912 -1.675515449087132 58.590970060810207 150 148 136
126.153036686068262 -1.187307959905326 57.046817481291129 152 150 137
123.967605168621873 -1.158331896591106 54.211961190812616 149 145 133
121.344745718600834 -1.346635434598478 50.812593297545277 149 145 133
119.846725279730876 -1.042969601426607 48.865502117655467 148 144 132
118.348723417465109 -0.752332865844946 46.918536165828698 145 141 129
116.163328810982819 -0.795241163666329 44.084402159112244 145 141 129
113.790466008083541 -0.945347845234179 41.008479087028775 144 140 128
111.980048054420408 -0.848928413743352 38.658676674128770 143 141 128
110.482115595064343 -0.618471531503746 36.712296981650127 142 140 125
104.926042802382455 -0.528041993016983 29.502931566455743 141 140 122
102.678248619104835 -0.726549693952915 26.589392081292544 140 139 121
95.249657684490785 -0.912402604651001 16.952910293171158 142 138 122
93.689433840803176 -0.845226442923395 14.927152431000593 142 136 120
92.129238307003433 -0.791546063028922 12.901519944338901 139 136 119
90.506570823221566 -0.784283258060421 10.795392738909158 141 138 121
88.883931022294689 -0.791047591752474 8.689396678481245 142 139 122
87.511328278363877 -0.677961656685985 6.905985607699762 142 139 122
85.888747914122476 -0.711683030199671 4.800238595318234 144 141 124
84.516211658599971 -0.623378941404874 3.017050808703146 144 141 126
83.206215613847888 -0.512636779696614 1.314571918189387 145 142 127
81.708740318912547 -0.516843652176608 -0.629610968268850 144 141 125
79.711245541394760 -0.812541068172523 -3.218456868950113 146 143 126
77.276216704906631 -1.371131507737330 -6.371294080046795 146 143 126
75.778817831838424 -1.420301701215031 -8.315050696413692 146 143 124
74.468979332339089 -1.375471838797047 -10.016926487628240 146 143 126
73.096668751624918 -1.377820709811890 -11.799289099842639 145 142 125
72.161974352268984 -1.138746421221265 -13.017478688615199 139 136 119
70.664719124202747 -1.235710278249452 -14.960812060070253 144 141 124
69.542577477684858 -1.125250389109023 -16.420580290453501 144 141 124
68.608025348448962 -0.913451554996924 -17.638557180808846 145 142 126
67.298431001387740 -0.933213946809128 -19.339884893191737 148 145 130
65.676290678484065 -1.151882194338772 -21.443938668757312 147 144 129
63.929140725306866 -1.460111936035148 -23.708984134086819 143 140 125
62.994764999181044 -1.288413602744224 -24.926632640485707 146 143 128
61.935401402520185 -1.201386323022888 -26.305333586194649 146 143 128
60.438432123132017 -1.393739088864297 -28.247821868559413 147 144 127
59.129063065884310 -1.482283236230548 -29.948549353653988 146 143 126
58.069830869808570 -1.425411821318411 -31.327002751486930 145 142 125
56.760542472800338 -1.535315693085640 -33.027548957790088 146 143 126
54.700958933333112 -2.132878226500272 -35.694443443200100 145 142 125
53.641842894455948 -2.108575142395603 -37.072617168048765 143 140 123
53.145551206014787 -1.731086679411506 -37.725949683191260 139 136 119
52.461738821538944 -1.479294244425346 -38.620855742518870 141 138 121
51.527858241104823 -1.396430851833995 -39.837826702247952 143 140 123
50.031212324714915 -1.691071773720414 -41.779416776987404 145 142 125
49.347575090919264 -1.461186266644749 -42.674181128785989 142 139 122
48.038616185934927 -1.653127187886295 -44.374040514381875 138 135 116
47.230016815363300 -1.521221969404315 -45.429732617790563 139 136 117
45.921138120845455 -1.733367661981337 -47.129422397937361 142 139 120
45.237736200277453 -1.532451422993358 -48.024001127548075 143 140 121
44.054032284657026 -1.678849555708015 -49.562533095677622 146 143 124
43.058011760890508 -1.706428454439487 -50.859498566448821 141 138 122
41.749288888782303 -1.958677411460259 -52.558850088455159 135 132 117
41.128671587922881 -1.743424193034270 -53.372753457738042 145 142 125
40.758346424038777 -1.358180757444250 -53.864709982439336 143 140 123
40.388112892598741 -0.975914299459332 -54.356679700261850 134 131 114
39.079588169694944 -1.261665160798609 -56.055781164237288 132 129 110
37.958772920599628 -1.424756324944102 -57.513368140189243 133 130 111
36.525178676320948 -1.821793839125767 -59.373209014259061 138 135 116
35.967520449128429 -1.598888946816116 -60.106451666181187 138 135 116
34.596554524750985 -1.971188026549731 -61.885649474032675 140 137 118
34.477019805353564 -1.441086745590749 -62.055638842629520 145 142 123
34.295027409622648 -0.957708959889672 -62.306126609467356 145 142 123
33.800267755221597 -0.706887541213047 -62.958888196924192 145 142 123
31.741132503752638 -1.623317777483748 -65.622714876325034 145 142 123
30.870992967204685 -1.668227506567964 -66.758005215113684 147 144 125
29.875739260264623 -1.814608762244867 -68.054114636085018 145 142 123
29.631568994151863 -1.401151624263666 -68.384995879428487 143 140 121
28.511253575402165 -1.656309222802413 -69.841874286445062 142 139 120
27.954300755188200 -1.489830074729135 -70.574873584116517 140 137 118
26.834069246869063 -1.761523079472407 -72.031621926352756 138 135 116
26.214654132747754 -1.655069449751946 -72.844980488827588 139 136 117
25.657916453339155 -1.504972046316842 -73.577914083595857 141 138 119
25.414285940894814 -1.114360865574029 -73.908818378329471 142 139 122
25.108162166074422 -0.774796636264203 -74.320159543556969 142 139 121
23.619634388593894 -0.800331407279156 -76.268403352922263 140 137 118
23.000701678895965 -0.722127140300739 -77.081701911137714 145 143 122
22.193979333776539 -0.800165692967510 -78.136130920385710 142 140 120
176.092941485623186 -1.499361705478626 119.850598338627520 149 149 140
174.400938103085366 -0.900704734561185 117.660694787337434 155 152 143
160.603998010751468 -3.685021280990756 99.900809321986060 153 151 139
159.790098896998302 -2.839774067008310 98.840309810037382 158 156 144
156.092239162745699 -1.980303113181054 94.059832055104692 151 149 137
151.640013410859012 -2.604018159637415 88.325200976801625 154 152 140
149.885147711313095 -2.188138708126616 86.056393078400674 157 155 143
146.060172337426764 -2.623891749481442 81.128341631158889 157 155 143
143.866174967147998 -2.426784128180584 78.295852552725648 158 156 144
143.052262435503053 -1.679228899779142 77.236365052534325 157 155 143
140.670071470656211 -1.592720825763573 74.162468946608016 156 154 142
137.911483798653990 -1.685438037350512 70.605331281581869 155 153 141
136.344807248470772 -1.294787901616773 68.579330691966987 155 152 143
133.962611542065019 -1.268344484124095 65.506055130069740 153 151 139
130.702147752220014 -1.643900296337098 61.305053599970535 153 151 139
129.762825688286057 -1.029780071045832 60.085217333836454 152 150 138
127.443371231431783 -1.035024597065306 57.093111638054438 151 149 136
125.249390315932402 -1.004247133837898 54.262326807585282 150 146 134
122.428063548784934 -1.275688861233418 50.626184126929246 150 146 134
120.485035259391623 -1.171225723759596 48.118021476344893 149 145 133
118.855700634972393 -0.939259666083328 46.012770824681695 147 143 131
117.226384474043243 -0.721398172192770 43.907656525508656 146 142 130
114.718765904969942 -0.929307729528880 40.675077374255721 145 141 129
112.713055410220534 -0.921482205615912 38.087037530439659 144 142 129
111.146528231379037 -0.721367597592682 36.062926759990404 143 141 126
105.631468699160067 -0.602108009664700 28.944502864310977 142 141 123
103.123921203137940 -0.925077465009724 25.713074081285328 140 138 123
101.369277566474636 -0.894092424159381 23.448121860285710 142 140 125
100.179335038986864 -0.594115718933241 21.907979662242980 144 141 126
97.671831947460205 -0.973055498772645 18.677105766925990 143 140 125
95.980000236734398 -0.956172004995904 16.493108575087632 143 138 123
93.911729899872228 -1.148162514650348 13.826195067193112 143 137 122
92.219945737785963 -1.162062617196288 11.642491999269964 140 137 120
90.653679007416500 -1.124688721089444 9.619931803066123 141 138 121
89.275680896756526 -1.001217959051556 7.838994960993233 142 139 122
87.583982138714717 -1.056926448760592 5.655681390799685 142 139 122
86.331545904516744 -0.891045514491508 4.035957398050527 141 138 121
84.639907511204029 -0.973970692057249 1.852895104618170 143 140 124
83.826791043406530 -0.591568456881178 0.796785473407226 143 140 125
82.323471575725762 -0.596153132643293 -1.144597691922769 144 141 126
80.506428462644138 -0.787745296733931 -3.488266003228148 146 143 128
78.752161773237901 -0.959867107275972 -5.751307873649949 144 141 126
76.684154342667057 -1.323863352607597 -8.416576613567543 145 142 127
75.306459490802709 -1.313695574973888 -10.196492249071781 145 142 125
73.238493501055814 -1.710265216526251 -12.861445519806722 141 138 121
72.362912191691208 -1.437318072963653 -13.997404393600419 141 138 121
71.299112755117065 -1.281173009848130 -15.374694712765887 147 144 127
69.984327431542212 -1.280979715174810 -17.073744493683762 146 143 126
68.920620252756265 -1.144096354087317 -18.450880678283625 147 144 127
67.982483568771258 -0.941779706107832 -19.667045125028523 146 143 126
66.479542655553928 -1.085213599164114 -21.607180144770808 145 142 125
64.662817768706674 -1.430517614731154 -23.949418461110525 144 141 124
63.159934690126335 -1.601045140731463 -25.889302260370300 144 141 124
62.284741000687205 -1.401009321761284 -27.024696057316191 145 142 126
61.033001721442119 -1.440090150629770 -28.642643696533924 146 143 126
60.220683457205780 -1.217656053676775 -29.697488553184598 146 143 126
59.157346292923648 -1.158730114370919 -31.073999296549943 145 142 125
57.717430676766298 -1.345425084617798 -32.932981209452606 145 142 125
56.089228545289572 -1.663525993084312 -35.033111526245307 144 141 124
54.712146138154267 -1.835669024288448 -36.811443536468175 142 139 122
53.711752919991099 -1.778100906391285 -38.107193586244733 140 137 120
52.899744388594556 -1.607472539850392 -39.161653355616210 140 137 120
51.899460271009289 -1.566061826734760 -40.457289282451057 141 138 121
51.150351729054449 -1.368889401768455 -41.431254537575825 144 141 124
50.150178770084011 -1.343346899517607 -42.726780302845043 142 139 122
49.087273627246773 -1.367881974346690 -44.102638617643123 139 136 117
48.024416879146813 -1.401430602872639 -45.478427303281393 140 137 118
46.584880173393344 -1.696890155479374 -47.336470917137575 143 140 121
45.459317931351265 -1.792514553046749 -48.792481417255914 144 141 122
44.145423300007849 -2.025775470114426 -50.489554240805433 145 142 123
43.396703932642652 -1.883505285414960 -51.463140539380333 140 137 120
42.522459121574457 -1.833987050100643 -52.597438923384289 126 123 108
41.585474517231518 -1.835340318692048 -53.812058044314739 144 141 124
40.962544306125608 -1.625654615895289 -54.624797616028417 143 140 123
40.779305665495258 -1.112703982003607 -54.874993591760671 138 135 117
39.842519650600664 -1.133096863011769 -56.089511732907198 133 130 111
38.277718914537701 -1.607459435487627 -58.107505695216787 134 131 112
36.775733781233953 -2.050299860207002 -60.045016014954228 138 135 116
35.901873722875976 -2.054394587219739 -61.178946598181852 138 135 116
34.902441922133079 -2.156682376306232 -62.473511109601475 140 137 118
34.719671270826680 -1.673242612963976 -62.723627199606625 145 142 123
34.474193481584294 -1.237072300072961 -63.054116726486143 145 142 123
33.349319542388912 -1.450276857391986 -64.509246196675548 145 142 123
32.475777765220656 -1.486885563403863 -65.642994361813862 145 142 123
30.911192449973811 -2.045639005870139 -67.660222703084344 145 142 123
30.728859458173957 -1.582046588750402 -67.910343869192133 141 138 119
30.672308625967034 -1.025005315989409 -67.999882935478922 140 137 118
30.238873010096711 -0.753880853927969 -68.571331837272027 140 137 118
29.177145825549076 -0.965239881724309 -69.945830610477913 140 137 118
27.989770576495303 -1.281911814336344 -71.480853511516642 139 136 117
27.179486508701061 -1.317906278021631 -72.534011385774591 136 133 114
26.809197262648993 -1.019520722955247 -73.025091021645807 143 140 121
23.946129596455023 -0.951072143400946 -76.755622545869954 139 136 117
22.821908238575332 -1.274464309019233 -78.209929992318195 146 144 123
22.137786756361649 -1.254602033359847 -79.102300806705898 141 139 119
21.893840354063485 -0.885653808705964 -79.432830993126686 140 137 118
21.587139461041161 -0.569373217085210 -79.843656396805102 139 136 117
174.302924795260395 -1.358778844902275 115.605980391284845 156 153 144
171.596735787291607 -1.155025303349676 112.131582547516928 157 155 144
158.251224790702082 -2.697647629181518 95.029824647108370 155 153 141
154.285443354876719 -3.100624494224714 89.947079185766370 154 152 140
153.909172524866506 -2.124312966408615 89.451882886559360 156 154 142
151.454747154260076 -1.978649775062425 86.301075674489454 158 156 144
147.929733856336327 -2.284998912971957 81.782485803508479 158 156 144
145.916113009615003 -2.007102310257548 79.195450267675142 159 157 145
143.524635050359166 -1.901918372164356 76.125804787990035 158 156 144
141.322081704630534 -1.738939140733482 73.297760159546129 158 156 144
138.489759569183775 -1.859230202301031 69.665321755660557 158 156 144
136.665065255958950 -1.576851296107388 67.320434929948476 157 154 145
134.777400267238903 -1.337209546990155 64.895254089654514 156 154 142
131.945071326132393 -1.522415368908600 61.263487141811908 155 153 141
129.616566087558738 -1.511991162124249 58.275550022842879 154 152 140
127.980833349813494 -1.216101653393144 56.172702210469822 153 151 138
125.967238554291939 -1.102625761529090 53.587346676806533 151 147 135
123.701734243255927 -1.119792653467201 50.680413024012893 149 145 133
121.184315546476554 -1.270844642124289 47.451936956745300 149 145 133
119.422672310619291 -1.097262564522326 45.188865497073579 149 145 133
117.912972024747106 -0.822343171198133 43.247657817500823 147 143 131
115.521546284135610 -0.972057912899794 40.180611156756498 145 141 129
113.445041444512910 -0.994000047658631 37.515886613409350 144 142 129
111.746449402115942 -0.854161946777011 35.333857907531979 144 142 127
110.110862775366428 -0.698733185122907 33.232386029190451 145 143 128
108.475299907061640 -0.557380432753880 31.131047676325238 145 143 128
104.448423063948923 -0.689183487054737 25.963879835231467 141 139 124
102.560984126256812 -0.718457768975568 23.541358940699865 143 141 126
100.043698850225624 -1.079616370909713 20.314981778322647 145 142 127
98.093308693505108 -1.175869450115139 17.812407092682804 144 141 126
96.142938965350126 -1.288874060274847 15.309995066010543 144 139 124
94.570522939270163 -1.224355062805402 13.290097253631814 143 137 123
92.620199020162190 -1.369224214600406 10.787991309802862 140 137 120
91.299799422239289 -1.201633034024043 9.089904267955973 142 139 122
90.357383028774379 -0.846217547198067 7.874211296298085 143 140 123
88.659110435325971 -0.900401029917158 5.694026928766789 142 139 122
86.960865831389185 -0.969141836656121 3.513979016998263 141 138 121
85.199655747623396 -1.086438127611997 1.253694496023030 143 140 124
84.383388870451228 -0.704721931488255 0.199099071602916 144 141 126
83.000217072419034 -0.640865624884516 -1.578749054627593 145 142 127
81.239105294735126 -0.797731161659019 -3.838673298770374 145 142 127
79.415022848352223 -1.004759519516912 -6.178815124656296 143 140 125
77.842957528801620 -1.085974707835775 -8.197380598651705 143 140 125
76.207924991784395 -1.216261097991563 -10.296176542033351 139 136 119
74.194920882436776 -1.575921966129198 -12.876944423583382 136 133 116
72.937949047333333 -1.518773675409984 -14.493379360683463 143 140 123
71.492012193581914 -1.581669408855735 -16.350755061895910 147 144 127
70.235121396752263 -1.546772317443228 -17.966999724655892 146 143 126
68.915268259390942 -1.559571030222120 -19.663491347569959 147 144 127
68.099501820792128 -1.285584979448728 -20.717217259583180 147 144 127
66.905752490837500 -1.243659727890443 -22.252882043127840 145 142 125
65.333998467008740 -1.438673697005270 -24.270425051911218 141 138 121
64.014312538443917 -1.494823554772603 -25.966550431827272 142 139 122
62.757677202616918 -1.523868545809747 -27.582259118278870 144 141 124
61.879157550300278 -1.331934004375629 -28.715978395465129 144 141 124
60.685628310499141 -1.341839690758460 -30.251214947503030 144 141 124
60.122294594755658 -0.970337681623840 -30.983272049928587 144 141 124
58.865852909516576 -1.037223410253278 -32.598683864436055 145 142 125
57.546435004133585 -1.154479804064957 -34.294308465450769 145 142 125
55.848937993931315 -1.522768211683475 -36.471630629563776 143 140 122
54.214481022370236 -1.865288085333090 -38.568517295624247 139 136 117
52.832136005721694 -2.059680648099132 -40.344102665889153 141 138 119
52.269141693000847 -1.735606214870285 -41.075833941692991 141 138 119
51.454119186741423 -1.580434277682891 -42.128692735029119 141 138 119
50.954299439541600 -1.225453143867003 -42.780105759708817 142 139 120
50.076382965826312 -1.124202718129664 -43.913180138311873 137 134 115
48.757306082503590 -1.323456880644867 -45.608123838885916 141 138 119
47.312196423408977 -1.618196565625140 -47.463508780925309 142 139 120
45.804076852635959 -1.967635454615142 -49.399045835732721 141 138 119
44.422052157685485 -2.244510803400580 -51.173935410047733 143 140 121
43.796526450778458 -2.017521830355721 -51.985611416719877 142 139 121
42.855869067254247 -2.011906144012723 -53.198545227633218 130 127 110
42.230484041072629 -1.796631212210089 -54.010167956971060 141 138 120
41.163855204476263 -1.893023366394260 -55.383505208422775 142 139 121
41.042990775006899 -1.337517329715761 -55.553119952191992 141 138 120
40.543938198828045 -1.048788055387233 -56.204218025186691 133 130 111
39.288342102718474 -1.299391894348142 -57.818143263833605 132 129 110
37.843611710728609 -1.695258477144264 -59.672668695994815 136 133 114
36.588067941414380 -1.967927445563303 -61.286391840139174 137 134 115
35.647851092243698 -2.024075693830055 -62.498900633970806 139 136 117
35.338309929548842 -1.631075520405613 -62.909156975569658 144 141 122
34.650482247135244 -1.516324045928410 -63.800731498677152 145 142 123
33.521253647157138 -1.731008293181105 -65.253762482882763 145 142 123
32.392059676847580 -1.955208970996177 -66.706712076402738 145 142 123
31.704411204392372 -1.861315819112951 -67.598157627747270 144 141 122
31.079910730414340 -1.726009627610428 -68.409380365410499 142 139 120
31.527829284175837 -0.790832220849153 -67.857277122590943 142 139 120
28.645776992968877 -1.187644730509534 -71.573937301164392 142 140 119
27.706214868281677 -1.319832407896722 -72.785976600901819 138 136 115
27.334548456729493 -1.021287984948859 -73.276399040825225 140 138 117
25.210510192835699 -0.935822983127516 -76.030348237466029 141 138 119
24.145024714069976 -1.201370010493793 -77.402491271299112 142 139 120
23.332013936534082 -1.275401252145963 -78.453953165299367 145 143 122
22.708404910666061 -1.204979389725405 -79.264934481688499 143 141 121
21.650788445019742 -0.926456576366125 -80.646442408612927 138 136 117
172.300617348825568 -1.313195952513643 111.131322841610199 158 156 144
161.811295940974588 -1.744181158294337 97.751239699174334 156 154 141
157.387593886862419 -2.307720749251751 92.113202450354493 157 155 142
150.942422061622892 -2.596390848087180 83.891915723803436 159 157 145
148.288786125990242 -2.554284220528237 80.504899468177371 160 158 146
147.152425423104091 -1.920440012804797 79.046546127904975 161 159 147
144.625221738494218 -1.865751601295544 75.820633375981402 158 156 144
140.960033968773246 -2.303491368125382 71.148737191737723 158 156 144
136.915498283887644 -2.931237684332554 65.995122273154010 158 156 144
135.779145266710657 -2.365945095854917 64.537470892318993 158 155 146
134.516364525572385 -1.864388070296247 62.919240393595288 157 155 143
132.558150323065206 -1.673275113396586 60.417450701671214 156 154 142
129.714819724993561 -1.884043548029804 56.791210037624410 155 153 141
126.934709485852082 -2.091454351822888 53.245549293706148 153 151 138
125.671976839276951 -1.649671537665367 51.627911072694218 151 147 135
124.282817183034865 -1.275387978566140 49.849732133651457 150 146 134
121.882077366527810 -1.370421137700961 46.786578429890568 150 146 134
119.544569902765531 -1.457200988264755 43.803948514788203 149 145 133
117.776106154954562 -1.301894317762746 41.544328082602448 147 143 131
116.197341111266866 -1.073573455520062 39.525781523603541 145 141 129
114.492144511764849 -0.918138411990157 37.346751868040798 144 142 129
112.913425146267372 -0.717452151872241 35.328467913594380 144 142 127
111.145045523300169 -0.620933183520952 33.069412367722350 145 143 128
108.934085363334219 -0.752932756026472 30.248425895406996 146 144 129
106.976057864917578 -0.780870011517680 27.748801678763442 142 141 123
105.270970876956156 -0.701491998844066 25.570502478641856 142 140 125
103.249754974760577 -0.793174961833985 22.990904659444368 143 141 126
100.912400801352646 -1.059973662485161 20.010054435219615 145 142 127
98.764755938572975 -1.251275462107591 17.270247454292075 143 140 125
96.743593724366477 -1.396743681007141 14.691177589603143 143 138 124
95.101852997024110 -1.365250193559803 12.593925539927881 143 137 123
93.776312850700066 -1.184563246094008 10.898162917508387 141 138 121
92.450809496747397 -1.015198482848284 9.202499238674505 141 138 121
91.378287276538813 -0.724402993218819 7.827995844817877 141 138 121
89.420495391927687 -0.911161846241302 5.329893741825941 141 138 121
87.968626089930893 -0.844815320646500 3.474025748021319 141 138 121
85.631454477494700 -1.266844559285550 0.494686053162042 143 140 124
84.938516061968826 -0.817814757070961 -0.397884407497116 146 143 128
83.739713630474483 -0.650988998636319 -1.932417468247735 145 142 127
82.098267074311408 -0.738050880755489 -4.028589898430710 146 143 128
81.026030505791681 -0.523360677988695 -5.402446557126524 143 140 125
79.321411615561559 -0.671318867236053 -7.578629607868010 141 138 123
77.806554027587921 -0.726929153512971 -9.513967743757178 137 134 117
75.532789394057403 -1.226183731149461 -12.411987315854532 144 141 124
73.828249946964206 -1.419335154002617 -14.587743175263824 143 140 123
71.744254120052034 -1.845628807030939 -17.244721862662345 147 144 127
70.482502150443608 -1.812471339747737 -18.858623050202596 146 143 126
69.031044064714735 -1.900966514848703 -20.713093905049249 148 145 126
67.832625091591453 -1.852791469956192 -22.246589079570640 148 145 126
66.444495153364088 -1.927345959175334 -24.020640516673865 146 143 124
65.499176467571090 -1.749127411893611 -25.233121064515331 143 140 121
64.743677479182878 -1.464694503506680 -26.204927367962767 143 140 121
63.671962679323840 -1.378294712696069 -27.577713081339454 143 140 121
62.347269539703973 -1.455387285289267 -29.271227454765665 144 141 124
61.528686622207047 -1.232666312357032 -30.323078275728506 144 141 124
60.520385825175737 -1.134277439783246 -31.615465555413891 144 141 124
59.638662856726967 -0.965543921049094 -32.747413557360829 144 141 124
58.503947578539083 -0.963002328129378 -34.200055748215448 144 141 124
56.673367937589575 -1.409681075061639 -36.534622496646449 142 139 121
55.095866913978412 -1.710964098306672 -38.548322279673897 140 137 118
53.644926583814993 -1.944608289424604 -40.401546735269847 143 140 121
52.636904650991866 -1.905062140171897 -41.693461724925385 141 138 119
51.755479150888803 -1.791884718586086 -42.824980167892335 141 138 119
51.317026888913617 -1.396798333751090 -43.395305125728754 142 139 120
50.562285382833977 -1.213282377582076 -44.366435017230657 140 137 118
49.491227721862344 -1.245418482954697 -45.738314954071939 141 138 119
48.230383295844845 -1.413000221016325 -47.350583997871922 141 138 119
47.222699732717757 -1.421550808877388 -48.642165778553391 140 137 118
45.772089387665019 -1.737396883623352 -50.494701952612331 142 139 120
44.384787714077419 -2.022554272521216 -52.266981787235949 142 139 120
43.503808383108307 -1.973542136445715 -53.398053190469540 141 138 119
42.686177969312098 -1.888375673285205 -54.448943768267355 140 137 118
41.931902963437437 -1.766231091950129 -55.419665105476810 138 135 116
41.304283710717172 -1.562226602176480 -56.230102976175232 142 139 120
40.929925960694121 -1.186054338605767 -56.720036951359674 136 133 114
40.049279545478768 -1.169679892950436 -57.850931664205547 132 129 110
38.788888863211355 -1.429912625174967 -59.462464074233480 137 134 115
37.338618559477268 -1.836224025562846 -61.314231717850987 137 134 115
36.458112501064363 -1.845960087578602 -62.444924808337788 138 135 116
35.704280884227359 -1.771622239241274 -63.415366162624252 142 139 120
35.203760964933196 -1.519609208663858 -64.065384324960633 144 141 122
34.070194856153648 -1.734124615950192 -65.516341997777943 144 141 122
33.063296562308622 -1.865106420310693 -66.807039202576675 144 141 122
31.993124302011950 -2.051304088362149 -68.177756879007404 143 140 121
31.239600888840158 -2.011089915660229 -69.147994424735288 142 139 120
31.119394428134996 -1.503579416235449 -69.317429896330083 145 142 123
28.859516677895087 -1.430518181424150 -72.227984039957761 138 135 115
27.599658280029331 -1.806188638795740 -73.838582834523066 135 133 113
27.163243052025848 -1.558977079607180 -74.408360152562864 140 138 118
27.106991035903633 -1.021147884498775 -74.497844411873672 140 137 118
26.797489725681729 -0.680549119269906 -74.907580424740217 141 138 119
25.727891747993894 -0.936979071002025 -76.277849899824901 140 137 118
24.278197262263504 -1.501382632908986 -78.128265690764522 139 136 117
23.652143821234233 -1.426564309538606 -78.938122862300418 141 139 118
23.596425554445972 -0.903271278064799 -79.027712837428425 141 139 118
22.970563604317277 -0.836070942903382 -79.837583201775146 140 139 119
22.534889365441387 -0.621074683201119 -80.407383398212517 138 137 117
174.714926777983834 -0.838540253126993 112.299476200030711 156 155 146
169.385747017801719 -1.625776042523870 105.544894610536090 156 153 146
166.848867751902787 -1.403621474276222 102.321886810257041 156 153 145
162.535011832747045 -1.882226233754057 96.852143039948061 156 153 144
160.378871943372047 -1.564107553062942 94.111156329710525 158 156 144
155.049541698414373 -2.504055541263791 87.358218674995044 157 155 143
149.212454343513201 -3.690105519884838 79.963852453285568 159 155 144
147.754362799604849 -3.178136112098970 78.106374138495113 161 157 146
147.311714118875955 -2.269055868655278 77.532765936011401 160 156 145
146.170968031708071 -1.648466654479274 76.076646988854861 159 155 144
139.826051567312220 -3.181607202421598 68.041926170664652 159 155 144
137.098647324759042 -3.263271823458562 64.580615574931500 160 156 145
135.577101278500635 -2.861243524786071 62.643766470706851 158 155 146
134.880637762451840 -2.121827536608100 61.749893315165252 157 155 143
133.232188875100547 -1.796850386314288 59.652829451469444 157 155 143
130.504800240196118 -1.953488465906314 56.192283128562934 155 153 141
127.967815600912530 -2.050149095381629 52.972607463539021 153 151 138
126.636740596097496 -1.635743171728292 51.277086911617488 152 148 136
125.749972577384952 -1.034568399248869 50.143101109359179 150 146 134
123.784248831292373 -0.926898510931983 47.645762878768892 150 146 134
121.120366523831819 -1.153418287541482 44.266413558828191 149 145 133
119.408550435373925 -0.965852145215353 42.090219902551098 147 143 131
117.252455450084938 -0.998678758488003 39.352824166563238 145 141 129
116.048452972101131 -0.604957637655765 37.818443242281376 144 142 129
114.209757199947774 -0.520882774862619 35.482295909665766 144 142 127
111.863297945193295 -0.694157113540025 32.504838831907165 144 142 127
109.770745542157684 -0.765553344801068 29.848300443749167 144 142 127
107.614736237810149 -0.885554104250109 27.111761045571768 140 139 121
106.220442574506805 -0.651734505538124 25.337484064016536 142 140 125
102.606762349908934 -0.630036640661046 20.747076509314780 145 141 129
100.196928659442008 -0.944675536283517 17.690533795851223 143 139 127
97.787106937294325 -1.279853815113249 14.634196778974172 143 137 125
96.456429639242174 -1.085255208757857 12.940748552639207 142 136 123
95.443185146793482 -0.738772432395179 11.648172564712524 141 138 121
93.668227088299588 -0.795855999499476 9.393845227908201 141 138 121
92.147219290370145 -0.735311902132323 7.460253695958954 141 138 121
90.626245575968298 -0.687703360689103 5.526779010742274 141 138 121
89.041823919441271 -0.686750717422121 3.513278971234342 141 138 121
87.266985496706383 -0.801253565896925 1.259485446601161 144 141 125
85.492174914831793 -0.930844765734333 -0.994166085023920 147 144 129
83.717392077920508 -1.075520117019140 -3.247675620995835 146 143 128
81.815664765037312 -1.304892585960185 -5.661301294652731 146 143 128
80.612317993794022 -1.164550766941595 -7.193387746351306 141 138 123
79.662968362344941 -0.893002004718954 -8.404900598395329 143 140 125
78.396227291251876 -0.807582496794396 -10.016952976325030 142 139 122
76.875569693965303 -0.876460322830068 -11.949379838187866 146 143 126
75.227965119435410 -1.030556876636474 -14.041916271941119 146 143 126
72.501021874439147 -1.818015735705651 -17.496182312672687 148 145 128
71.234419672367139 -1.784427781534006 -19.107767596845349 147 144 127
69.650387771748385 -1.946436754098432 -21.119776648467194 145 142 123
68.193379103102345 -2.047368894083719 -22.971464103544747 146 143 124
66.545915032239606 -2.273191585972525 -25.063329440599347 146 143 124
66.168447283406792 -1.757148151202808 -25.553215367243808 142 139 120
65.727559899127186 -1.282262775498260 -26.123196782017288 140 137 118
64.778742482021258 -1.117682124669316 -27.333863167072025 140 137 118
63.512470306963777 -1.154100778255275 -28.944885721855229 140 137 120
62.246241885222574 -1.201202223536878 -30.555819244733499 141 138 121
61.107067764984350 -1.180684866032501 -32.006513374409963 141 138 121
59.650408377075749 -1.366860018270494 -33.857490475047541 143 140 123
58.447816472965457 -1.406567920454080 -35.388084710365547 144 141 124
57.054740081460338 -1.576294845705799 -37.158790123481026 142 139 121
55.598187568644946 -1.798012371125350 -39.009452497294774 140 137 118
54.078153189467940 -2.072534291167098 -40.940060706598700 142 139 120
53.129781454628812 -1.992865874567019 -42.150066260239072 140 137 118
51.990916948721065 -2.044292138449338 -43.600167956513644 140 137 118
51.677841346525568 -1.568050952962944 -44.009590275924268 140 137 118
50.666135156755360 -1.551866225161478 -45.299502258838118 139 136 117
49.781527883706403 -1.460407653913710 -46.429274989496861 141 138 119
48.769933779841935 -1.460608936569914 -47.719071924486570 140 137 118
48.203077513896460 -1.172357329281483 -48.448586912762153 139 136 117
46.937491826999221 -1.358321484637332 -50.058398534153241 142 139 120
44.973108648107740 -2.027505597408613 -52.548381539006243 141 138 119
43.644039877225154 -2.280981607584357 -54.237987022104278 142 139 120
43.458626187685212 -1.762485633769140 -54.487199542863237 145 142 123
43.209784934057950 -1.289109463333122 -54.816462978492382 143 140 121
42.516275319753191 -1.125998409106036 -55.705817074307276 143 140 121
41.441591148359464 -1.234562683604874 -57.075175387454237 137 134 115
40.684673440572965 -1.129093849401841 -58.044460813285042 135 132 113
39.991372479169073 -0.984987945015020 -58.933719098377850 136 133 114
38.789755285705127 -1.207777065883114 -60.462895084971990 138 135 116
37.016208972684254 -1.849463660354918 -62.711880183331516 138 135 116
36.068852612226010 -1.912064212486204 -63.920907042630347 140 137 118
35.630003860810731 -1.614745242704930 -64.490035952160355 144 141 122
34.682774876270784 -1.690893243517729 -65.698984296966955 144 141 122
33.672035796324749 -1.821432704450512 -66.987848636123204 144 141 122
32.470646897891356 -2.100784269333550 -68.516551612626643 144 141 122
31.714262556246155 -2.060682401986411 -69.485419343963883 145 142 123
31.593657525059498 -1.553294626808122 -69.654662877544183 141 138 119
31.155310162135990 -1.284726226387688 -70.223735705556635 139 136 117
30.526330050619649 -1.163303122217473 -71.032672494384258 139 136 117
28.816562074643741 -1.865980455650922 -73.200682237336537 139 136 117
27.806185899488085 -2.050151238043593 -74.489168134766715 136 133 114
26.986611082103835 -2.096536476356397 -75.537774388803712 136 133 114
26.930181327439016 -1.561590011095225 -75.627143945218535 138 135 116
26.873893373150921 -1.026739717312003 -75.716580348506170 138 135 116
26.118176917356948 -1.037136479750147 -76.685247786380586 138 135 116
24.917319270735319 -1.402570767495116 -78.213318819219126 137 134 115
23.843685617197650 -1.677833282725723 -79.581463787773629 140 137 118
23.978641314834420 -1.004583978821514 -79.431238454389188 141 138 120
22.086116825474960 -1.385494074580144 -81.847706874356447 139 136 119
167.650376175647182 -1.516572923747572 101.496175054008120 156 153 146
164.721461859333374 -1.462584415577683 97.797293186276704 156 153 144
161.155451117934774 -1.678786567442408 93.297388423513183 158 156 144
152.558060665682945 -2.778842105452592 82.455724506491578 159 155 144
149.820190444152303 -2.763308013671230 78.998420284047427 161 157 146
148.101661446214052 -2.361559006617933 76.823233368832831 160 156 145
145.554909326507584 -2.310830737417891 73.606713284987251 159 155 144
144.091227170751210 -1.837442496111829 71.752306635070056 160 156 145
138.996047485584370 -2.882069645288705 65.331865210023778 160 156 146
137.341231583607538 -2.529215617673189 63.237560353598099 156 153 144
136.323542644472127 -1.920966571918334 61.944416082021093 156 154 142
135.497011604867737 -1.239765115174312 60.891648245489904 157 155 143
132.886557797718467 -1.335518856629667 57.596251758567234 154 152 140
129.575263359236430 -1.758944837954834 53.420060188241678 154 152 139
128.111650122101594 -1.397507246344094 51.566772932168703 149 145 133
127.030341375917644 -0.878715958859967 50.194126106938455 148 144 132
125.057059070306536 -0.769253296421460 47.700385411388623 149 145 133
122.637787505659858 -0.878542423699656 44.646243976257892 147 143 131
119.645085448205904 -1.270501206555067 40.871609419812557 147 143 131
118.755011823640530 -0.718048974935546 39.739706533652793 146 142 130
116.781792940433547 -0.677421124892542 37.246644048345814 143 141 129
114.744875529060096 -0.683513957381852 34.673676755108744 143 141 126
112.899129542086911 -0.616325710155472 32.341076043514079 144 142 130
110.734814074509657 -0.717197532085056 29.608313381591188 144 142 130
108.060763378865772 -1.082414990053032 26.235256268613000 142 140 125
106.533673078930718 -0.912100729970220 24.303444665345495 142 140 125
105.070333600660490 -0.723475378160810 22.451805287167701 144 142 127
103.479584782682920 -0.610388472427747 20.440177885715002 144 141 127
101.506536406319881 -0.701764340669723 17.948392611103770 144 140 127
99.151176065423911 -1.002470964894843 14.976505506976423 142 139 126
97.114445333007936 -1.161331634391352 12.405021423256301 141 138 124
95.587527207374592 -1.076365270877466 10.474005981167551 141 138 121
94.251817000215041 -0.905615336809076 8.783210967662512 141 138 121
93.171047998319935 -0.613459943163879 7.412638807721919 142 139 122
90.053741724573300 -0.562399107706524 3.471336487917341 143 140 123
88.080907744015107 -0.777616330142846 0.980723408359125 144 141 126
86.108096814911889 -1.009546379239072 -1.509728665415480 148 145 130
84.708878160351603 -0.947376645618323 -3.279882669743984 147 144 129
82.672389988610945 -1.245087589336585 -5.850053538034814 147 144 129
81.591900481195950 -1.033898645561335 -7.219925978834112 143 140 125
79.874131741358468 -1.185291448661886 -9.389782832391603 139 136 121
78.411328543493724 -1.208736837746908 -11.239495814605903 142 139 122
76.948563287686142 -1.244535463806467 -13.089099790096384 146 143 126
75.931989070147296 -1.039560109686704 -14.378626241968931 149 146 129
74.150621039475610 -1.280312984491906 -16.627996469603232 149 146 129
72.815448522857693 -1.279199152513713 -18.317302562803604 146 143 126
71.225359698392552 -1.437234034784723 -20.326454910126557 146 143 124
69.125376012491841 -1.906651031052090 -22.975341170351527 147 145 124
67.471599251203116 -2.131208113545706 -25.064199565497717 147 144 124
66.646516439502278 -1.878474357253214 -26.113249796009455 145 142 122
65.821496332259045 -1.632634951967768 -27.162259057100442 141 138 118
64.996539557796225 -1.393684819569851 -28.211227701629753 138 135 116
63.789160925606012 -1.393236012084708 -29.739945335827429 140 137 120
62.773076618350842 -1.286302954172099 -31.028696960493278 140 137 120
61.374544716734860 -1.422752718778646 -32.797135014803246 141 138 121
60.294811032585230 -1.373874588474180 -34.165698292120936 142 139 122
59.023869093648813 -1.453107292127821 -35.774046141345792 143 140 123
58.263012610894066 -1.223312645537147 -36.742727018775639 143 140 121
56.864655736719030 -1.402171285728114 -38.510812269752591 142 139 120
55.466334562945747 -1.592780452819153 -40.278793645603031 142 139 120
54.323089852128604 -1.632023855842016 -41.726925271169989 141 138 119
52.988606953831820 -1.803986934236887 -43.414779707826625 140 137 118
52.291801083639641 -1.573916107780786 -44.303246136696885 138 135 116
50.829878339809710 -1.848740404198653 -46.150792755728418 138 135 116
50.069429482353499 -1.675295894181323 -47.119088599440232 138 135 116
49.117741506889601 -1.634557038224639 -48.327106953408617 139 136 117
48.867601619039689 -1.135178526494871 -48.656016782038336 139 136 117
48.107374632351906 -0.979201435006368 -49.624238967051468 142 139 120
46.263027475360190 -1.559812856036252 -51.950840746702511 139 136 117
44.737568930799540 -1.939809594677143 -53.877768348585562 137 134 115
44.041272748029840 -1.767040660851939 -54.765888773004832 142 139 120
44.046660557995523 -1.118401441808746 -54.775143052154533 143 140 121
43.924604991188900 -0.557556027623951 -54.944242920799383 144 141 122
42.590709195096096 -0.839702723479067 -56.631244049811926 142 139 120
41.448211079594401 -0.999216108763659 -58.078494844672861 139 136 117
40.433339389252154 -1.078504842737633 -59.365909706659693 138 135 116
39.546108451653694 -1.075922344211431 -60.493512439127016 140 137 118
