ply
format ascii 1.0
element vertex 699
property double x
property double y
property double z
property uchar red
property uchar green
property uchar blue
end_header
-119.862339815694838 -107.750779021232248 -12.069168270077768 48 54 52
-119.809260851292080 -107.186545967366058 -12.987240078342154 55 61 59
-119.799542459971832 -106.632427907347960 -13.108452023915163 37 43 41
-119.796071412772591 -106.079412485499731 -13.115805026545701 44 46 43
-119.829730903737754 -105.528064614693079 -12.440224432527828 46 48 45
-119.832554407747679 -104.973434983729760 -12.333723874380667 47 49 46
-119.866311028901023 -104.416926871368574 -11.658149930572279 53 55 52
-119.856902575619898 -103.860938222963128 -11.779232857755716 56 58 55
-119.859903912339632 -103.303872935451935 -11.672672296486155 58 61 57
-119.844456761462027 -102.749520330886014 -11.907486160200165 56 60 59
-119.872257610337670 -102.186759038672065 -11.345684689476798 54 60 59
-119.832272367169068 -101.639198517883869 -12.035603117784859 54 60 60
-119.810864464835575 -101.089200018127514 -12.384082650495941 56 62 60
-119.838840932390795 -100.523442623181083 -11.822228004788741 62 67 64
-119.916168800164300 -99.935390750210018 -10.350122227277865 79 81 78
-119.956558024332239 -99.356566769873552 -9.560746092441121 40 42 39
-119.960033356773778 -98.791870492595152 -9.454037322854106 34 36 33
-119.945094721652481 -98.236412840701291 -9.688619289180679 34 36 33
-119.930226077813202 -97.682037450416416 -9.923156631655360 37 39 36
-119.915427424631702 -97.128743249764710 -10.157649361611249 41 43 41
-119.894543651272073 -96.580609009640511 -10.505858963056909 48 53 51
-119.867578240969749 -96.038450539879079 -10.967775372084049 50 55 54
-119.852993160117279 -95.489210357036455 -11.202124199727933 46 51 49
-119.863085454512046 -94.921460077235039 -10.981422449685226 60 65 63
-119.903993450210052 -94.326761791260779 -10.191961538529199 75 80 78
-119.914205057885724 -93.755443331219141 -9.971239438493598 71 80 79
-119.924479873654647 -93.183019762579463 -9.750498475360871 43 52 51
-119.897931639386869 -92.645406152843492 -10.212168526275633 59 68 67
-119.932927801544622 -92.047369220457071 -9.536429067306301 66 75 74
-119.961835811002516 -91.452575459351380 -8.974427661049447 65 74 73
-120.021530291130276 -90.821021916523890 -7.843782075048722 24 32 32
-119.989113090998245 -90.290131311860449 -8.419049500767727 18 23 26
-119.993635836801573 -89.717854134057077 -8.311917686236114 14 19 22
-119.979799780146280 -89.167868570438131 -8.545915855850296 16 21 24
-119.972180473837213 -88.611054279728179 -8.666151360005955 13 18 21
-119.927786315541084 -88.103748510667899 -9.468623520737196 13 18 21
-119.914178076985849 -87.558040902450685 -9.702468667809171 9 18 14
-119.888365348854265 -87.030813608756887 -10.163679943540814 6 15 10
-119.844212453865524 -86.532682633224809 -10.965942243973984 4 13 8
-119.824698031058546 -86.001314546101526 -11.313324170373591 3 12 7
-119.848231834803201 -85.404856009329023 -10.864769787001421 6 15 10
-119.877975963848542 -84.796382687535740 -10.302509194590101 12 21 17
-119.840278133083032 -84.295945202031930 -10.990848271570258 14 20 20
-119.790388240799075 -83.819430668208383 -11.906491507871465 8 14 14
-119.801952061242332 -83.241062068166627 -11.685195084515556 12 18 18
-119.832003772698584 -82.628892074149306 -11.122825397437396 11 17 17
-119.862132982182487 -82.013953980195140 -10.560447129011692 18 26 25
-119.929158148293709 -81.327633276240633 -9.315999428945588 24 30 30
-119.990125733742303 -80.646976950624392 -8.185250233333619 29 35 36
-120.032766930554729 -79.996762213882022 -7.395531623422130 30 35 39
-119.995727970855995 -79.501975729152960 -8.083497330152653 20 25 30
-120.081489429264266 -78.759887081416579 -6.498083644773629 13 18 24
-120.148931131775456 -78.048505770872126 -5.253694636534561 12 17 21
-120.185784592384536 -77.396427380892504 -4.577622928223576 8 12 15
-120.167508718881123 -76.861119374311627 -4.924452892451967 4 8 9
-120.161596463969573 -76.300154926899111 -5.043914468718185 4 10 8
-120.192593391022072 -75.656334398268882 -4.481418388591294 4 13 10
-120.193006555871776 -75.080538115900964 -4.487147692333053 5 14 9
-120.193516275454883 -74.504677347140770 -4.492831468412135 4 10 8
-120.181850540816654 -73.958168055431116 -4.725755580399436 3 9 6
-120.188693772765220 -73.367736316418686 -4.617700527268539 4 10 6
-120.171088772824064 -72.837707949527115 -4.964155201900724 3 9 5
-120.159721070495252 -72.293717222817349 -5.196910811398027 3 9 5
-120.179146348188269 -71.671738584143583 -4.861443508955659 3 9 5
-120.204818403671439 -71.031970171611206 -4.412312003589278 2 8 4
-120.218322701854632 -70.422632140652851 -4.190406046244192 1 7 3
-120.207377520370287 -69.878602155821625 -4.422959927321330 1 7 3
-120.233383863926917 -69.234218132420793 -3.973716010487834 2 8 4
-120.259507477821828 -68.587561623519548 -3.524439383761319 3 9 5
-120.242754838998096 -68.060712813540434 -3.870453562980032 3 8 4
-120.219969157822931 -67.553126547886109 -4.330014534855167 4 9 5
-120.178860943921748 -67.101595376397128 -5.130340595099597 3 10 6
-120.199307111756525 -66.471189625766598 -4.794471646809484 2 8 4
-120.238316811758892 -65.783441837664398 -4.117735563997343 3 8 4
-120.289754940655058 -65.054694706275200 -3.213758020399297 4 9 5
-120.304445798040561 -64.435953651008731 -2.991381207251834 2 9 2
-120.288520642215971 -63.912785423208831 -3.336961635358762 3 10 3
-120.248113613348963 -63.469663740396292 -4.136865687994771 4 10 3
-120.250881425502712 -62.890944493149782 -4.141498624083169 3 10 3
-120.266087106934592 -62.271757101926831 -3.918880115236817 2 9 2
-120.281431808041148 -61.651355609490906 -3.696207597208314 2 9 2
-120.321542797120586 -60.946840495440057 -3.019117255985748 2 9 2
-120.318705680525696 -60.385898704823731 -3.137107463404163 4 11 4
-120.316005382843372 -59.825376475160446 -3.255027898372163 4 11 4
-120.288799395486208 -59.351455430002254 -3.827215881467168 3 10 3
-120.317185816231728 -58.683758139187177 -3.377073319037805 1 8 1
-120.321074134954287 -58.102107314701499 -3.381200384821682 1 8 1
-120.337444206664543 -57.475577139751920 -3.158100418618943 2 9 2
-120.316961468720038 -56.983663846332334 -3.616398340569731 4 11 4
-120.339809964518096 -56.333373550818422 -3.279584808426137 5 12 5
-120.313444422095841 -55.866821634961354 -3.851294871395282 3 10 3
-120.330439329333345 -55.238592168872451 -3.627913477675406 2 9 2
-120.322894264730891 -54.704070473556420 -3.858742880890389 4 11 4
-120.327861290547432 -54.122452094677691 -3.862353562919083 4 11 4
-120.351538911063699 -53.467793747335698 -3.525188342904073 4 11 4
-120.393952129403417 -52.737617420183803 -2.847260766852344 6 13 6
-120.442753288765729 -51.979125271862429 -2.055709805762859 6 12 7
-120.454626266034452 -51.367297997315880 -1.945468774706711 5 11 7
-120.448103379652125 -50.830909072168097 -2.175828391699611 5 12 7
-120.454138592075452 -50.244099523531993 -2.178981492235152 9 16 9
-120.435562202159900 -49.760863457298271 -2.636278104764813 5 12 5
-120.454353175108153 -49.122330820067624 -2.412143535081782 4 11 4
-120.491955862280378 -48.403016704267372 -1.847264375373726 4 13 8
-120.511157197321324 -47.761044636818959 -1.622968893655212 7 16 11
-120.549196520983557 -47.036626407761034 -1.057933387748903 3 12 7
-120.537752096782199 -46.527791338581395 -1.401222710803864 2 11 6
-120.526485971241954 -46.020389896649348 -1.744411979345102 0 7 2
-120.502957984257222 -45.570161437539006 -2.314596539978766 0 9 1
-120.548070404210534 -44.812837286476118 -1.635657121316569 1 11 3
-120.580977580616704 -44.108810575904293 -1.183725801842883 2 9 2
-120.576731899113526 -43.574533830661849 -1.412974270098317 1 8 1
-120.553975616340352 -43.128046251775395 -1.982751143322986 2 8 2
-120.562597526533395 -42.537804782971953 -1.984702102990326 3 8 2
-120.571439049843292 -41.947305967048166 -1.986550649498497 7 9 6
-120.574254674961395 -41.386351254782198 -2.101836737666417 7 9 4
-120.571034590453351 -40.855765874025302 -2.330556566765807 6 8 3
-120.624343719382637 -40.052765227759885 -1.537307156816070 6 8 3
-120.702997610880928 -39.123050699164949 -0.289801689292318 7 10 3
-120.731856712983742 -38.434272758465383 0.049491123638433 5 10 4
-120.729627856846463 -37.899501248102233 -0.178797595141049 4 9 3
-120.646030079697354 -37.774659080622591 -1.882958822132252 4 10 4
-120.650471028616494 -37.213364078564304 -1.997470863738755 5 11 4
-120.692871697558232 -36.460155282057109 -1.430645260973989 5 11 4
-120.760746167991698 -35.574630459658920 -0.409559534534992 6 12 5
-120.778597042864405 -34.944434716976119 -0.296647773625722 9 14 7
-120.746299295604430 -34.576238122299308 -1.091901132165873 7 14 7
-120.752039779930470 -34.012763426045673 -1.205813917175419 5 12 5
-120.770666540514824 -33.382663829436495 -1.092529985521367 5 13 6
-120.789578234647138 -32.751653959434151 -0.979119112535869 4 14 6
-120.827757281435652 -32.017797546434402 -0.524972800453980 5 11 9
-120.859934530683944 -31.315595572217685 -0.184230777623185 4 10 6
-120.841727558318581 -30.887619976623565 -0.751640723198790 4 10 6
-120.798367319473613 -30.601313533746808 -1.773061173164564 3 9 5
-120.825048475309558 -29.933617351261756 -1.545452162055142 4 11 4
-120.941066248329690 -28.769169441158070 0.271806254302533 5 10 6
-120.955764807939190 -28.165818414819636 0.272627399625634 5 10 6
-120.919795918397256 -27.849526388192757 -0.634706825925548 5 10 6
-120.858509216970873 -27.682157569979765 -1.996055604185102 4 9 5
-120.861226002199558 -27.156138820965730 -2.221888248517729 4 9 5
-120.940954883659558 -26.189488989798942 -1.085107588025664 4 9 5
-120.963545949680949 -25.550289956836785 -0.970020811308501 4 11 4
-120.954435823339921 -25.096766750606822 -1.422482946397281 4 11 3
-120.971262733670571 -24.494548895465154 -1.420631941084167 3 10 2
-120.949877545742481 -24.119270953093444 -2.099878775593822 4 11 4
-120.980199720898455 -23.441420711968483 -1.870632434148575 5 11 7
-121.030224674389132 -22.646551815691755 -1.300588228124667 4 10 6
-121.087135090619967 -21.809609050326674 -0.616824242877442 4 10 6
-121.125130249881252 -21.085857372701476 -0.273520773761362 4 10 6
-121.105334271814556 -20.713715994582568 -0.951975049489107 5 11 7
-121.111703478428069 -20.186048734997460 -1.176077356898162 4 10 6
-121.092465456736321 -19.818497673256196 -1.854217457776201 4 9 5
-121.060501853072523 -19.534128720126951 -2.759306968059946 4 9 5
-121.061288923323488 -19.051498441843204 -3.096475047018174 4 9 5
-121.081945065304339 -18.447805238881845 -3.092807336905366 6 11 7
-121.174756212886493 -17.392340355049949 -1.839823498176173 7 12 8
-121.202842174433201 -16.743042911765016 -1.722211930285113 7 13 7
-121.192084215438413 -16.342094877084175 -2.285780085135372 6 12 8
-121.148854961474058 -16.152747578986180 -3.416998708118427 6 12 10
-121.204310186425161 -15.336112164808695 -2.844580732544586 7 13 11
-121.326056075895934 -14.091539852671184 -1.136265650552900 7 13 9
-121.323393540001277 -13.649611340909702 -1.585523930457782 9 16 9
-121.373864235334224 -12.865173713897125 -1.126017993690141 12 19 12
-121.352151023532755 -12.554108069960256 -1.915619669171633 12 19 12
-121.469780933565914 -11.330959467621303 -0.319912017547665 8 15 8
-121.661165920226551 -9.616394501170538 2.525469148546648 5 12 5
-121.614359245571151 -9.476712444763717 1.282191444129296 5 12 5
-121.601043604914935 -9.120357122676026 0.606999833410953 5 11 7
-121.588052179743428 -8.766714355888377 -0.068008752036548 4 10 6
-121.702376104378857 -7.560165958828953 1.415429316836850 4 10 6
-121.650108195707901 -7.478358283809396 0.059275821946756 4 10 6
-121.571178955428863 -7.585153107803801 -1.751126522011049 4 10 6
-121.864897877786092 -4.729354285823656 2.240052403972214 4 11 3
-121.847852844328401 -4.423770897717135 1.452740400622559 4 11 3
-122.007025336440066 -2.905302256816741 3.619576428206187 4 12 1
-122.065584622664161 -2.080859626444381 4.082540127534401 3 11 0
-122.043275008384683 -1.821471880843597 3.182326196799579 4 11 3
-121.994042423292015 -1.756449719344369 1.827797572028089 7 16 8
-122.061014113709888 -0.882517546701364 2.405135200887827 1 11 2
-121.523003624528869 -0.684149880424338 -12.709379650374672 82 86 71
-121.321825736707197 -1.826755075754059 -16.563063140353506 86 88 74
-121.345475986231335 -1.331301151632703 -16.778566668024041 85 87 73
-120.050070591840196 -153.902518168909779 -9.508835545998494 170 172 171
-119.900924572134315 -152.818467889997464 -12.030240632947368 149 149 147
-119.795690536979237 -151.909328534125251 -13.752825736562983 112 112 111
-119.734237171092900 -151.169308227388683 -14.676713296293826 103 103 103
-119.697842437114517 -150.524585455029040 -15.144196407337091 76 76 76
-119.661663631478902 -149.882241378151946 -15.611551733893748 76 78 77
-119.650444750600457 -149.330781853343836 -15.622595257969209 97 99 98
-119.559032786534559 -148.495405369071193 -17.116090882020245 100 102 101
-119.449396540960592 -147.602607145336208 -18.951472665449046 44 46 45
-119.377113937702802 -146.846581295748592 -20.102423418152881 42 44 41
-119.379075772664592 -146.348545749090817 -19.884893643264121 40 42 39
-119.399649244586286 -145.911823896428729 -19.325252337634055 39 41 38
-119.420321439863045 -145.472504057838108 -18.765590545463567 46 48 43
-119.398041556344282 -144.889151069504095 -19.003971680571141 52 55 50
-119.382072710844710 -144.326967554852814 -19.128256843775034 52 57 51
-119.341697150678556 -143.686847111990915 -19.708455879252369 49 54 48
-119.344458206780018 -143.185275627944236 -19.490580156889735 47 52 46
-119.298295319143591 -142.529879057867703 -20.184563959763494 42 47 41
-119.331961311858350 -142.122732926359959 -19.396637029467030 36 41 35
-119.304485325604162 -141.526282383424643 -19.748497666942143 37 39 36
-119.332219448599787 -141.096164468567309 -19.074503867813121 35 37 34
-119.268348220722743 -140.392709940786887 -20.110030619421167 31 33 30
-119.271870866650232 -139.889412207313455 -19.891808324248842 32 34 31
-119.226675710707667 -139.245424472872230 -20.585211730720857 36 38 35
-119.236548746900837 -138.759539306159581 -20.252913309395268 28 32 29
-119.216044707968010 -138.187539293837119 -20.490328024654701 31 36 32
-119.238313128675188 -137.733234203181127 -19.930056854437169 33 38 34
-119.218053345811796 -137.161714470062435 -20.167349774675102 35 40 36
-119.197927223359514 -136.591388561925044 -20.404566463590214 35 40 36
-119.171854079333229 -136.006432149197252 -20.755637671295659 38 43 39
-119.170216714204685 -135.485402867260490 -20.650925312381872 37 42 36
-119.180824920555636 -134.994467472520427 -20.318327172706859 41 46 40
-119.179386559050755 -134.471978688851777 -20.213534634526155 43 48 42
-119.171986210749012 -133.934302463104501 -20.222609507284432 41 46 40
-119.176811909300881 -133.425620055121470 -20.003819263362828 41 46 40
-119.169616905840741 -132.887564626469867 -20.012799803178694 40 43 39
-119.162525958143377 -132.349589577516099 -20.021729735685710 40 42 39
-119.149488863530806 -131.798057879712701 -20.144502714812660 41 43 40
-119.166785536360933 -131.313957004806667 -19.697775599633673 40 42 39
-119.166028948026636 -130.788479411991148 -19.592687668819053 36 38 35
-119.183478682032671 -130.300974232646666 -19.145922371913912 36 38 35
-119.164788643086226 -129.736099861269651 -19.382395927995844 42 42 40
-119.194460685528526 -129.270541529697425 -18.707839840859180 51 53 50
-119.181988922088621 -128.717798094627966 -18.830354840511319 49 51 48
-119.181667002563557 -128.189112111229775 -18.725091991204323 42 44 41
-119.169386318867268 -127.637041456516869 -18.847508653695911 36 41 37
-119.181277976754345 -127.130288472958796 -18.514459333593095 34 37 34
-119.187224425853344 -126.611052311597561 -18.295241561536614 35 37 34
-119.199259567845374 -126.101414206956107 -17.962153297130527 35 37 34
-119.229393217219126 -125.621272965632571 -17.287526488035979 35 37 34
-119.241556606715420 -125.107652625502467 -16.954417861613791 32 34 31
-119.241779412675754 -124.572820444225684 -16.848957683404137 30 32 29
-119.254082675366121 -124.056575924384305 -16.515809154125378 28 33 29
-119.266451808402067 -123.538744438549898 -16.182645448137293 24 29 25
-119.284881677557365 -123.028320434493693 -15.735647172912536 30 35 31
-119.279399089265723 -122.480868658893343 -15.743905220500949 47 52 48
-119.303947291491738 -121.975714442771817 -15.183066826212098 74 79 75
-119.310585356664546 -121.443343456806389 -14.963653390744582 64 69 65
-119.341230731319172 -120.941545604452685 -14.289004696406408 38 43 39
-119.353975474185688 -120.413618834872011 -13.955765215789910 33 38 34
-119.354821953410536 -119.869375173046762 -13.850103551525478 32 37 33
-119.337807292186781 -119.303360614732696 -14.085787349164491 30 35 31
-119.320877378234300 -118.738472258712918 -14.321419011433477 26 31 27
-119.321948364161159 -118.194337179624284 -14.215648826235679 33 35 32
-119.340997703453908 -117.668501770770177 -13.768512835952151 32 34 31
-119.342197522079516 -117.122525066506569 -13.662699974405939 33 35 32
-119.367325777350914 -116.598936416994945 -13.101773839611980 48 50 47
-119.392502168530939 -116.072653187443649 -12.540852413430287 71 73 70
-119.447530585751309 -115.569577801802367 -11.411116565716725 40 45 40
-119.454915791247927 -115.021815357282406 -11.191504132894238 32 39 32
-119.432579728966630 -114.449809810391926 -11.540654223734464 33 38 34
-119.410325541015979 -113.879463306361174 -11.889748068813986 33 38 34
-119.406008805710329 -113.323048180539800 -11.897540640596702 33 38 34
-119.395809581095918 -112.762836560394149 -12.019045339244997 31 33 31
-119.379733450382602 -112.199644258261756 -12.254251096204229 25 30 24
-119.357785829152121 -111.634287042250989 -12.603146923567664 24 29 23
-119.353748132003219 -111.079588296412297 -12.610788336891261 27 32 26
-119.337891590418380 -110.519448025328245 -12.845857627075276 34 39 33
-119.333987958768958 -109.965328139725074 -12.853428945424270 46 51 45
-119.300457306481022 -109.400298557455443 -13.429580452484515 43 48 43
-119.302627810827033 -108.849482618189583 -13.323353030893799 43 48 44
-119.304858167584271 -108.298135358832127 -13.217102445259371 82 87 83
-119.324946578608277 -107.750360342644328 -12.769695202021069 63 68 64
-119.315428552669005 -107.194938594322664 -12.890824713001223 54 59 55
-119.300047430436337 -106.639247721974513 -13.125620764300407 33 38 34
-119.284735588789715 -106.084654848766732 -13.360372369747950 38 40 37
-119.293196425608826 -105.532275645985990 -13.140292881199798 40 42 39
-119.289864014511366 -104.978800457865987 -13.147584293399632 43 45 42
-119.316206946993603 -104.424004605990916 -12.586398292602610 47 49 46
-119.307069023994842 -103.869716414150858 -12.707334295372647 51 53 50
-119.292076336828345 -103.316786266551844 -12.941916103140869 54 58 54
-119.312659675816903 -102.758455713720835 -12.494380741502084 54 58 57
-119.339209161689865 -102.196594737376913 -11.933168651146360 51 57 55
-119.336230065097979 -101.640144544370614 -11.940321662117640 46 52 52
-119.315571615977163 -101.089390190779298 -12.288450439363970 49 55 53
-119.318632438536369 -100.531584034673273 -12.181869046405296 41 46 42
-119.374950522110794 -99.951242193300345 -11.052311569172787 39 41 38
-119.419484494833526 -99.370882998589522 -10.150109518646673 54 56 53
-119.452243207496736 -98.792138796095742 -9.475241858085667 37 39 36
-119.455514163857671 -98.226421719237109 -9.368641368917963 37 39 36
-119.429316754048003 -97.677814369095231 -9.830256750707264 40 42 39
-119.403192200746290 -97.131377312591169 -10.291814938270221 41 44 41
-119.371236992760728 -96.591186210320032 -10.866957083224037 49 54 50
-119.357063288975382 -96.040661056818706 -11.101122336337539 52 57 53
-119.337056459454857 -95.495835288123828 -11.448878355098060 47 52 48
-119.340719849625387 -94.933057269710687 -11.342059873736019 51 56 52
-119.356242916340264 -94.359390141763342 -11.007962081000386 71 76 72
-119.389517834433491 -93.767761027968746 -10.332980100395815 60 66 64
-119.387464144924635 -93.207111125404140 -10.339733629510818 37 43 41
-119.361892088278793 -92.670375297962948 -10.800927644943187 49 55 53
-119.348183340245427 -92.123290446133723 -11.034835052065375 53 59 57
-119.369908987150353 -91.538112567748357 -10.587029567243803 56 62 60
-119.421160447443100 -90.916738243774233 -9.571177198099122 22 28 27
-119.437109699137977 -90.332872300462668 -9.236980501459868 27 33 33
-119.470796999477557 -89.725317039218510 -8.561965174438512 18 24 24
-119.457417215805620 -89.175402893326321 -8.795744329482886 18 24 24
-119.444109946134262 -88.626553272534636 -9.029477836386263 14 20 20
-119.383760537372694 -88.144058138669408 -10.171904200679734 4 10 10
-119.382382403309549 -87.582645601595217 -10.178342396565228 2 8 6
-119.345746848072665 -87.073441677076005 -10.866263521934371 4 10 8
-119.320965243295703 -86.549519692585392 -11.326947488579492 6 13 10
-119.302147393983418 -86.018495011968128 -11.673992641751255 5 12 9
-119.330496791455147 -85.412884399933944 -11.112369816834331 5 12 9
-119.347143102005930 -84.824107293117990 -10.777890202700860 6 13 11
-119.299121453053672 -84.344413441194334 -11.692672404114319 12 19 20
-119.280607228033574 -83.817338011298986 -12.039531652843777 11 18 19
-119.262171479345824 -83.291859747226340 -12.386336918334649 15 22 23
-119.273236249474991 -82.713546971515242 -12.165278664310591 14 21 22
-119.319681516511992 -82.067151231100027 -11.262842004474749 17 24 24
-119.360317599311543 -81.427782939514231 -10.473970986325298 22 28 28
-119.442215042276672 -80.702627139238103 -8.890231534384355 22 27 30
-119.435939062972068 -80.149438925137147 -9.009787070477500 22 27 32
-119.453279021822993 -79.547751756993307 -8.675108507121593 25 30 36
-119.506000664529893 -78.869248308090448 -7.659140866531430 22 27 33
-119.605870208137347 -78.083429009840700 -5.734851408344298 13 18 24
-119.635230285062946 -77.445090701792665 -5.173081960457040 12 16 19
-119.599966608029177 -76.950709461537585 -5.860194206660822 10 14 17
-119.582441446081873 -76.418706062333143 -6.206631017070180 7 12 13
-119.612071826277926 -75.777195966632533 -5.644764905828509 6 12 10
-119.641795941358879 -75.132896799513858 -5.082882661452373 5 11 9
-119.671615758953010 -74.485806206347803 -4.520983366872628 2 8 6
-119.672114779119369 -73.909442721624075 -4.526677436223963 1 7 4
-119.672710740422104 -73.333012244049698 -4.532325818858993 2 8 4
-119.661636412535017 -72.787012905868266 -4.764961754675937 1 7 3
-119.680083785149193 -72.164419047239704 -4.429968611439364 1 8 1
-119.686864594684735 -71.571706072100810 -4.321966902886288 1 8 1
-119.687863510642543 -70.994440729007181 -4.327431107085744 1 7 3
-119.677194521926040 -70.449782305707245 -4.559859327322357 3 9 5
-119.666629098608752 -69.906136554149541 -4.792227578288021 2 8 4
-119.709154224626843 -69.211503933749441 -4.003021711836823 2 8 4
-119.716469758622452 -68.615932836663873 -3.894793613019942 2 8 4
-119.729786268677699 -68.002293094782104 -3.673021772543052 1 6 2
-119.696102576242865 -67.529137812461329 -4.359159670082420 2 7 3
-119.686084486508250 -66.987243656285784 -4.591248048487017 2 7 3
-119.687960994415377 -66.409838462625615 -4.596293855258182 2 7 3
-119.725307779694447 -65.721164996462534 -3.920362833618981 4 9 5
-119.762785737212724 -65.029110268305814 -3.244403864658409 4 10 5
-119.765032467580554 -64.448124310090066 -3.249309416881772 3 10 3
-119.767402717234944 -63.867032923053010 -3.254156963133710 3 10 3
-119.764001872250077 -63.305456127422069 -3.372423392707191 5 10 4
-119.778419074787038 -62.684626133459076 -3.150198997596675 2 9 2
-119.763475520370704 -62.163438463372650 -3.495289444079077 0 8 0
-119.795858214686277 -61.480224287490969 -2.932535916244376 1 8 1
-119.822486430337747 -60.814869645731747 -2.483210359041806 2 9 2
-119.813842255747346 -60.273151319383430 -2.714639651246102 2 9 2
-119.793520022630489 -59.774933835261180 -3.172925680439334 2 9 2
-119.767418214983081 -59.300318739105059 -3.744592571961618 1 8 1
-119.800522611133943 -58.610173004032696 -3.181565134463568 1 9 3
-119.804238575023831 -58.027590278908683 -3.185784246730037 1 10 5
-119.837659079213850 -57.333056851124404 -2.622650748954896 2 11 6
-119.823938021687908 -56.816730196169878 -2.967106320244568 3 13 5
-119.851764927454226 -56.141526622135288 -2.517308693807394 1 11 3
-119.814667716059006 -55.719016394148014 -3.315417177051188 1 11 3
-119.813214740370611 -55.159436147303090 -3.432731201150347 3 10 3
-119.788227443381516 -54.695185580290648 -4.003758227288756 4 11 4
-119.816694376455189 -54.017439018341413 -3.553680590233682 5 12 5
-119.839415329067350 -53.361614121014661 -3.216985044749805 4 11 4
-119.891959531393653 -52.581178805614478 -2.313010411858045 6 13 6
-119.944710822334812 -51.796172506793447 -1.408983759911337 7 14 7
-119.979871974325036 -51.081914573283953 -0.845220576441193 6 13 6
-119.955867920660538 -50.618559013350655 -1.415768009585861 5 12 5
-119.926074078498161 -50.183426570974753 -2.099653627895577 9 16 9
-119.884541342266502 -49.803273859160797 -3.010306928745337 7 14 7
-119.914483179577246 -49.112820851691453 -2.559654496385690 6 13 6
-119.956528034834918 -48.366996748396424 -1.882064214390368 9 15 11
-119.992845036722642 -47.644423279282208 -1.317833672276521 13 19 15
-120.047245856956579 -46.837777811122024 -0.413240634010862 15 21 17
-120.024444889927366 -46.381556479012964 -0.983139078442150 10 16 12
-120.013728626192162 -45.872699278076531 -1.326080279839402 9 15 11
-119.973369703897006 -45.504589858606366 -2.236048064467269 11 18 11
-120.022672158398976 -44.718579780271391 -1.444540541378728 12 17 11
-120.078200624634590 -43.900055806382923 -0.539530312557844 12 17 11
-120.074245378645315 -43.363789504809326 -0.768660316961757 6 11 5
-120.034612908095809 -43.002191750512665 -1.678213541723778 7 12 6
-120.013080606684710 -42.557034384600733 -2.247391173909875 7 12 6
-120.033632750733418 -41.907741298574862 -2.022524828714182 8 13 8
-120.102348526959474 -41.018700017112472 -0.890213936226957 9 14 8
-120.123410148930148 -40.364453615080329 -0.665154845509704 7 12 6
-120.132717219283279 -39.769530387176545 -0.666826218603290 6 11 5
-120.130247061400510 -39.235586299885689 -0.895221858229377 7 12 5
-120.152026836070903 -38.578843459356399 -0.669844902817744 6 11 5
-120.143996632923660 -38.076617536595265 -1.011432842959209 5 10 4
-120.100071047057853 -37.764524833190677 -2.033389183935412 6 11 5
-120.092438598105829 -37.266697203818737 -2.374741565989893 4 9 3
-120.181468065678416 -36.257970259148657 -0.901368003086901 3 8 2
-120.234682691928398 -35.435468585356247 -0.108364536767766 4 9 2
-120.245958257334195 -34.836757485921247 -0.109133179040157 6 12 2
-120.239362643219394 -34.336268297112163 -0.450016939630814 5 12 4
-120.226948316207384 -33.870242089537307 -0.904188492668538 3 10 2
-120.232919651095401 -33.305879539635548 -1.017999978684145 3 11 4
-120.239149445887250 -32.741725396827782 -1.131685673128771 3 13 5
-120.288104705317338 -31.940018274980421 -0.451364709447432 5 11 9
-120.337409240414615 -31.134599488701543 0.229085140489360 5 11 7
-120.301972859460832 -30.808783825065980 -0.678092366358527 5 11 7
-120.254554315842327 -30.556663720222925 -1.811961283186605 4 10 6
-120.249934770142701 -30.064173407287946 -2.151817362973162 5 12 5
-120.337031074814860 -29.042539879799168 -0.790360357436526 3 8 4
-120.394063032044699 -28.191997660820281 0.004180671520686 3 8 4
-120.384272191311510 -27.732266330215367 -0.448671018342907 3 8 4
-120.356379767435314 -27.382965525508432 -1.241622381417841 4 9 5
-120.396074314035431 -26.635853169597578 -0.786887509500389 3 8 4
-120.405480452176889 -26.069879354428522 -0.899072382975930 3 9 5
-120.421331251037003 -25.466979566789352 -0.897695365518274 4 10 6
-120.400623369506860 -25.087582524627738 -1.576660578932092 4 11 4
-120.398616444562720 -24.598279908312065 -1.915233977341927 4 11 4
-120.409220232757278 -24.034421088544516 -2.026824128427080 4 11 4
-120.438656686892244 -23.356137584158617 -1.798005972678709 4 10 6
-120.493182363601122 -22.522429942083903 -1.115349537895298 5 11 9
-120.554341404276087 -21.646104585891695 -0.319099525148062 6 12 10
-120.554014820051790 -21.155490665902636 -0.656882552224687 6 12 10
-120.553994523693987 -20.666055069312591 -0.994506923161140 5 11 9
-120.603989131928742 -19.861125616575844 -0.424580792565337 5 11 9
-120.623330299195928 -19.252158488719498 -0.421596449006529 6 11 7
-120.605656912367664 -18.883541812953922 -1.098999002829487 6 11 7
-120.569527919297855 -18.639072087890479 -2.116529403249615 5 10 6
-120.564861079899813 -18.195559104375423 -2.566762844844078 5 10 6
-120.641881469880460 -17.220720170462727 -1.542221096860658 7 12 8
-120.694391851916052 -16.405318768026838 -0.971199221740761 9 15 9
-120.766240716585457 -15.461755536149065 -0.059668462147613 11 17 13
-120.681405810466259 -15.559427792012174 -1.983848844497430 10 16 14
-120.798245302964176 -14.317640036243812 -0.277852303162291 9 15 13
-120.713859832631698 -14.424328971354168 -2.201724863763246 8 14 10
-120.825512397241027 -13.215973055576443 -0.608724485147462 8 15 8
-120.899901161611766 -12.256943037626082 0.303862146357915 6 13 6
-120.892427676850218 -11.855378691320396 -0.258141071282552 6 13 6
-121.069599865425118 -10.192364961964216 2.470112498784999 4 11 4
-121.190471732705205 -8.909609312438056 4.177616411283111 4 11 4
-121.184571565021244 -8.500472751523537 3.616287918530759 4 11 4
-121.095930220906709 -8.671149570302180 1.580179137011328 7 13 9
-121.116182692235370 -8.091135827726042 1.473038592128574 8 14 10
-121.245962285474533 -6.745715576242209 3.295017776884947 7 13 9
-121.196620855065660 -6.658739415732941 1.940211097346719 7 13 9
-121.179670862168706 -6.349958052015527 1.152911642706044 6 12 8
-121.201764085773902 -5.769142804418536 1.046643457108985 4 11 4
-121.243738633971958 -5.049579306427981 1.281034878368700 4 11 4
-121.409439747416286 -3.445247511003237 3.671828113277172 4 11 4
-121.329388095919995 -3.604463156517357 1.750569520569712 3 10 2
-121.386100897495027 -2.784786798998688 2.212698929611918 2 9 1
-121.417362585949192 -2.151242941613026 2.221133029023122 4 10 2
-121.488401258628031 -1.231036386408309 2.910798847710510 10 17 9
-121.514287698538766 -0.641851414663526 2.806259170016745 0 6 0
-121.267085704682515 -0.555036672607129 -4.297004794248409 64 71 55
-121.030821599461575 -0.578474525125681 -11.283042339819815 80 82 68
-120.878992978207805 -1.400363375828195 -14.451265294754137 84 86 72
-120.862441267071716 -0.575730068737247 -16.573990755006264 92 94 80
-119.397362050850219 -152.884801852851609 -11.937883753497402 155 157 156
-119.302121358342205 -151.998285606850885 -13.544596320289770 116 117 117
-119.225060607570811 -151.188514528292444 -14.809245033947462 148 150 149
-119.172065043509292 -150.475680714033899 -15.617947681131369 93 94 94
-119.131188841596483 -149.811674587447413 -16.198632089245933 100 102 101
-119.132051255453618 -149.305471361417261 -15.981712347672044 108 111 110
-118.990832585483560 -148.273904302140892 -18.498784781534994 71 75 74
-118.915134062218129 -147.491931668769865 -19.762495666862179 39 41 40
-118.833791162480082 -146.694857825637797 -21.139921131805295 44 46 43
-118.817735862167126 -146.135826132614056 -21.264215211412250 59 61 58
-118.819554646972705 -145.639749293690016 -21.046733709265254 55 57 54
-118.850999735974298 -145.245109469826446 -20.259740517985335 55 57 52
-118.829464643891228 -144.664935901225874 -20.497732620058486 44 47 42
-118.796311511974466 -144.046139345024500 -20.963398088219606 31 36 30
-118.745681255435670 -143.370706651836571 -21.770584191864344 33 38 32
-118.742300086711722 -142.854291205007030 -21.666658570090760 33 38 32
-118.721417171658814 -142.280135082346874 -21.904276732314202 36 41 35
-118.735913959640826 -141.820195959897944 -21.458640363393499 40 45 39
-118.721171710237726 -141.265393127501795 -21.582262754159103 52 54 51
-118.747604052384901 -140.839249897036211 -20.908850809102688 52 54 51
-118.721389696765868 -140.247838671751822 -21.260056014578282 45 47 44
-118.736302198916292 -139.782342545904356 -20.814277970451911 44 46 43
-118.692811191766424 -139.140134749851057 -21.506847796182853 48 50 47
-118.713788692090958 -138.690403494082233 -20.947147117071296 45 49 45
-118.688117003973346 -138.102714031736127 -21.298054402298760 43 48 44
-118.709282803294201 -137.649906007644773 -20.738295312314790 38 43 39
-118.672196484716821 -137.030775936037514 -21.316704721454585 40 45 41
-118.670237632873281 -136.511048844830214 -21.212132756579962 39 44 40
-118.656733828900983 -135.959226144874805 -21.335132003296138 38 43 39
-118.678275066988633 -135.501331559042029 -20.775245663228333 37 42 36
-118.682435798047464 -134.994968446006396 -20.556749663808091 35 40 34
-118.669248929302640 -134.442595100356442 -20.679602957870571 36 41 35
-118.679414977774954 -133.949766383235016 -20.347235833927556 40 45 39
-118.660633070909057 -133.383106439184701 -20.583771719103765 40 45 39
-118.665179009855549 -132.874347115840550 -20.365116102946928 40 42 39
-118.646616265947188 -132.308939420258724 -20.601534251292918 36 38 35
-118.651349747866547 -131.799242505004429 -20.382798566325221 35 37 34
-118.661960098937996 -131.301889896783990 -20.050265456225361 33 35 32
-118.672647261724819 -130.802971287512918 -19.717711719299672 30 32 29
-118.683410221055908 -130.302484967746693 -19.385137858798686 29 31 28
-118.665337598392469 -129.737712742006750 -19.621314993610781 29 29 27
-118.664707743283358 -129.210910016351136 -19.516180074313695 32 34 31
-118.646836416155878 -128.647633798744664 -19.752245510868164 39 41 38
-118.652158145209498 -128.132410140031368 -19.533285300034606 43 45 42
-118.646017811597218 -127.593252560897938 -19.541772634398939 40 45 41
-118.668796940328903 -127.110048521006433 -18.981554614615106 38 40 37
-118.680105942716068 -126.602361741117122 -18.648793646941044 32 34 31
-118.697243030765279 -126.103727453691903 -18.202292476290239 33 35 32
-118.720198575331281 -125.613325976404894 -17.642064146614757 35 37 34
-118.720190766606521 -125.079898468809105 -17.536699834668127 34 36 33
-118.726011465822623 -124.555791808037014 -17.317592355421766 30 32 29
-118.714655904008822 -124.002016379747786 -17.439583990866623 25 30 26
-118.726370572165763 -123.485913645476771 -17.106715583725048 24 29 25
-118.738148182996838 -122.968221525413512 -16.773833425370356 24 29 25
-118.744247388770418 -122.440214010176945 -16.554632862996158 27 32 28
-118.773365427784071 -121.944968019488769 -15.880647399189854 33 38 34
-118.802528648511583 -121.446493380184435 -15.206673554708601 53 58 54
-118.820271140369769 -120.928974945971717 -14.760077144960206 53 58 54
-118.820877579039518 -120.386412174252186 -14.654513013028293 28 33 29
-118.815825519696133 -119.835980344808249 -14.662595772234823 32 37 33
-118.805121561965009 -119.278495538128979 -14.784313865015235 27 32 28
-118.794494989169465 -118.721590848398691 -14.905988965672520 27 32 28
-118.812547246371011 -118.197988169707514 -14.459306993430545 30 32 29
-118.842087668440271 -117.684783086948670 -13.785304324974817 29 31 28
-118.854522945431512 -117.150340902780272 -13.452279958207669 26 28 25
-118.844160021311779 -116.591384698616437 -13.573850047510831 30 32 29
-118.851004299554589 -116.049367280493755 -13.354437255989666 35 37 34
-118.880744000411354 -115.527018774848457 -12.680433371090032 51 55 50
-118.904818155522292 -114.996518106702752 -12.120082663079785 26 33 26
-118.900414410227853 -114.440129297106694 -12.127916589256785 25 30 26
-118.884672157507737 -113.875033264225166 -12.362982216185486 30 35 31
-118.886105704504487 -113.323329520308135 -12.257116491083792 32 37 33
-118.881902085564050 -112.767281872607157 -12.264851165748240 34 36 35
-118.894852479334205 -112.221901123630261 -11.931692965022421 30 35 29
-118.873688856031762 -111.655247312187910 -12.280227076972494 33 38 32
-118.869678219438157 -111.099258145317918 -12.287868827571117 32 37 31
-118.820206955898115 -110.521430818427390 -13.204354656790372 38 43 37
-118.787894814857793 -109.955354826876345 -13.779934003462927 45 50 44
-118.761350354492208 -109.394203804398273 -14.241844531369367 44 49 44
-118.774676496981115 -108.848650850270658 -13.908508346338550 39 44 40
-118.793736064944042 -108.303120226607604 -13.461570195434348 44 49 45
-118.812842364743773 -107.755423545077335 -13.014631984501307 57 62 58
-118.814956834310038 -107.202264434819625 -12.908455489193301 50 55 51
-118.794417226337941 -106.645265694545401 -13.256591689850467 37 42 38
-118.790976558340120 -106.091571100689990 -13.263937150233801 36 38 35
-118.781921526338209 -105.537602429852129 -13.384830209244910 36 38 35
-118.795620987673971 -104.984223275118907 -13.051395988771759 40 42 39
-118.781014393636482 -104.430529643049468 -13.285800949839654 42 44 41
-118.760804091031403 -103.878464367330352 -13.633728829309035 48 50 47
-118.757666861231542 -103.325614935857757 -13.640920426217605 52 54 51
-118.771588714433960 -102.769530498454898 -13.307407661071267 51 55 54
-118.808221321154818 -102.206408791388313 -12.519667047757679 48 52 52
-118.788256317087559 -101.655713332468054 -12.867463477034846 47 53 53
-118.791008263985759 -101.099067424024796 -12.761017906121680 45 49 48
-118.805138487123585 -100.537539716297132 -12.427461487828396 42 44 41
-118.847617266634785 -99.962175221256857 -11.526191221737321 25 27 24
-118.890134266728779 -99.382452109246344 -10.624947536484456 57 59 56
-118.921376688304377 -98.804338652989472 -9.950798771794382 36 38 35
-118.918730975177638 -98.242494551056453 -9.957847815472917 39 41 38
-118.882220359515927 -97.701818581462632 -10.646033127747728 41 43 40
-118.857091402884976 -97.156799155156321 -11.107100432896260 43 45 42
-118.837684775318081 -96.609875505984121 -11.454590911637069 49 51 48
-118.840948935953662 -96.047192689279967 -11.347962440357065 54 56 53
-118.832972952436720 -95.493190864105287 -11.468339627545788 53 55 52
-118.825060734565298 -94.939721926477134 -11.588680824189083 54 56 53
-118.834154646921860 -94.371297413755954 -11.368463636909468 64 66 63
-118.837660223767941 -93.807204907192997 -11.261734183587748 58 64 62
-118.835581064194827 -93.248260051511224 -11.268482346590076 35 41 39
-118.816631933577185 -92.707237012843734 -11.615693222410471 47 53 51
-118.814682153896968 -92.149076030533053 -11.622371421713098 49 55 53
-118.824081157726951 -91.577849320265798 -11.402037124145409 59 65 63
-118.867390419314120 -90.964737622562026 -10.500758109195345 1 5 3
-118.922032327812516 -90.333111875719041 -9.372530399375592 3 9 7
-118.948523958414000 -89.732721739803367 -8.811742586778223 5 11 9
-118.929961428059300 -89.190489640369549 -9.158780959827823 3 9 7
-118.917109175161940 -88.641981941505520 -9.392293268692072 4 10 8
-118.876139654319246 -88.135326763019421 -10.193120397748601 2 8 6
-118.874706809561943 -87.573447453925866 -10.199589571761550 4 10 8
-118.856434131952099 -87.037647659853192 -10.546423069301113 5 11 9
-118.826963612945605 -86.521402756137618 -11.120130057312821 9 15 13
-118.791934284496847 -86.017098752111480 -11.807232331949081 10 16 14
-118.796423924542822 -85.449394562136433 -11.700069283037351 11 17 15
-118.778448160018627 -84.920281013137497 -12.046691913495010 10 16 15
-118.771814591909219 -84.372638859190303 -12.166361430463439 12 20 22
-118.737089911921601 -83.877191129041989 -12.853226800244130 5 13 15
-118.719341931071924 -83.353147801346452 -13.199688269437786 5 13 15
-118.690406370666111 -82.852465240730837 -13.772979144073219 9 17 19
-118.740395899501124 -82.198304921947866 -12.758067961327242 9 17 19
-118.807350789024269 -81.504916560719209 -11.402867747366344 16 24 26
-118.880008022988463 -80.793244271796894 -9.934268872103218 18 26 29
-118.913320716128879 -80.158245754410657 -9.259715243103642 21 28 34
-118.912926308019323 -79.593398531120002 -9.265718182815533 31 38 46
-118.957659550584296 -78.928363458120259 -8.364292413632711 25 32 40
-119.030627024501300 -78.194965484831599 -6.895768754022811 19 25 30
-119.069893720570263 -77.532802943938137 -6.107787478450376 16 19 24
-119.075462934165031 -76.946781847881155 -6.000296510369253 16 19 24
-119.064228120998990 -76.400984352028928 -6.233007144129033 11 15 16
-119.092496040927216 -75.759053361223593 -5.671797161694116 8 12 13
-119.103962883545350 -75.156796577380291 -5.450793025273668 4 8 8
-119.126783462042511 -74.524533984318822 -5.002948395552949 2 8 6
-119.144067436486964 -73.904724779776544 -4.668483154169564 1 7 4
-119.161447250648422 -73.283212930371747 -4.333989589572980 2 8 4
-119.162030142142314 -72.705731910489021 -4.339655038519510 2 8 4
-119.151446888077160 -72.159217682420945 -4.572061346323551 2 9 2
-119.140961142897950 -71.613723674931379 -4.804410504567841 2 9 2
-119.130574098217338 -71.069247968306769 -5.036701962949593 3 9 5
-119.131553146167221 -70.493114129209175 -5.042164024796875 2 8 4
-119.121368197545934 -69.950122955047391 -5.274343520078133 3 9 5
-119.184529896168030 -69.188659187695563 -4.032517574916199 2 8 4
-119.185828789322954 -68.609826115576226 -4.037854408475198 1 7 3
-119.209777882336937 -67.961188533423353 -3.589638457266659 2 7 3
-119.166208909607562 -67.522714091237560 -4.501866221546322 1 6 2
-119.184745809357182 -66.890782145658847 -4.166926370455087 0 5 1
-119.197763173356805 -66.275367481595637 -3.945315910591461 0 5 1
-119.227815103741975 -65.603195056460464 -3.383563753944600 3 8 4
-119.224156079616009 -65.040969505803943 -3.501960373495592 4 10 6
-119.198052053773466 -64.555470025393930 -4.073740364629771 4 11 4
-119.211549650236222 -63.937198144112628 -3.851929573974132 4 11 4
-119.219531486854535 -63.337343196026083 -3.743426814096807 4 9 3
-119.221996328307029 -62.756722925098281 -3.748224258521930 2 9 2
-119.218942619462510 -62.196155325371919 -3.866314231195361 0 9 1
-119.244246622603640 -61.533830344411342 -3.417590986898119 2 9 2
-119.303577994919735 -60.744926617127916 -2.288738794924370 4 11 4
-119.289631784841916 -60.223239090471807 -2.633357260568658 1 8 1
-119.270161566212323 -59.724330069215149 -3.091242807290797 1 8 1
-119.233860039565073 -59.292085834582295 -3.889070834698856 2 9 2
-119.276827194434517 -58.558241847535307 -3.100057125455322 4 10 4
-119.286026267169660 -57.952917201324325 -2.991028346342574 4 10 6
-119.318000725385190 -57.257484147871594 -2.428595892303946 4 10 6
-119.293549907610512 -56.785468230313462 -2.999446201279170 1 8 1
-119.342818880000394 -56.018295428379069 -2.096901909448803 0 7 0
-119.312991166867150 -55.571085961119358 -2.780928046398969 2 9 2
-119.317280905085880 -54.986299658537419 -2.784895349522998 3 10 3
-119.282058054214318 -54.567450969094075 -3.582069455061429 4 11 4
-119.292314313079487 -53.960270835054445 -3.472554021196146 5 12 5
-119.314076884903415 -53.303825956217032 -3.136323343577487 5 12 5
-119.336015262547264 -52.645566783111455 -2.800027236499488 6 13 6
-119.403539918310713 -51.786878706339266 -1.557114846254279 9 16 9
-119.437215978991958 -51.072575531409100 -0.994062591068484 10 17 10
-119.442683717460199 -50.482223680642541 -0.997523631894381 10 17 10
-119.397173324125760 -50.122548005602596 -2.020727934762022 9 16 9
-119.351790645374123 -49.767636444526495 -3.043822099992667 6 13 6
-119.380493841584169 -49.076867411427123 -2.593765482300483 5 12 5
-119.409400425401103 -48.383700247443983 -2.143636249840199 6 12 8
-119.455598853035326 -47.607872592538691 -1.353508869765903 5 11 7
-119.473536805489317 -46.963121175687839 -1.129846395186092 5 11 7
-119.440367497005511 -46.562786871918163 -1.925847515212553 4 10 6
-119.441571912491753 -46.000622314885646 -2.041916854085571 4 10 6
-119.425842046083474 -45.522354184318033 -2.497800562068932 6 11 5
-119.478815640827662 -44.708499004675325 -1.593964516767613 5 10 4
-119.509187813100226 -44.003625472011592 -1.143254651347405 6 11 5
-119.534075105737429 -43.324990571713236 -0.805757531040484 5 10 4
-119.513417561633517 -42.876131005989905 -1.374554790931683 5 10 4
-119.481481977806482 -42.488259660098940 -2.169837413824979 6 11 5
-119.495542230710186 -41.867911189801326 -2.058637710550954 4 11 4
-119.544228223708501 -41.068021556845991 -1.267567969760904 3 10 3
-119.581715982566578 -40.324126866173607 -0.702996811569818 4 11 4
-119.562050723070584 -39.880617706052831 -1.271264291493196 4 11 4
-119.548315972082918 -39.408984420879889 -1.726125247301326 4 11 4
-119.569279734143819 -38.753910239202980 -1.501121493181188 2 9 2
-119.602005061511534 -38.035094660708893 -1.049429398910974 2 9 2
-119.577406606599538 -37.628277548312440 -1.730538097852559 0 10 2
-119.610637081201858 -36.907207853607844 -1.278627545627359 2 10 3
-119.649919405929438 -36.151606939618915 -0.713318371312852 4 10 3
-119.689499078498613 -35.392917162063739 -0.147898742034528 4 10 3
-119.683145723909320 -34.891624457455613 -0.488674877490354 4 11 3
-119.723294482332079 -34.128955382766534 0.076976039605199 4 11 3
-119.688485667373087 -33.793708383217471 -0.829998323300316 4 11 3
-119.688626019962612 -33.262196910780595 -1.057120063537752 4 11 3
-119.694811553363948 -32.697779373103664 -1.170829643735601 5 12 4
-119.736096313641028 -31.929843937095132 -0.604689476549453 5 11 7
-119.771900610474702 -31.192993291750632 -0.151710057843701 5 11 7
-119.767300985053524 -30.695126045663656 -0.491611955311441 5 11 7
-119.774596967952220 -30.128976700552897 -0.604808126639938 5 11 7
-119.782166985121037 -29.563003803104429 -0.717871384648532 5 11 7
-119.836712820614522 -28.714398910935692 0.075500234069835 5 12 5
-119.844894007175554 -28.146518929510613 -0.037290273169816 6 13 6
-119.829959888777324 -27.722431724518692 -0.603094471468097 5 12 5
-119.856261980777077 -27.047400687741831 -0.375742304538562 5 12 5
-119.859442626645190 -26.516707929481466 -0.601401151456457 4 10 6
-119.880520486940128 -25.876453414816730 -0.487049151775437 5 11 7
-119.837266458820167 -25.642548249433460 -1.618738283141539 5 11 7
-119.853043439194892 -25.040686859914288 -1.617385891440790 5 12 5
-119.857357548140783 -24.513558837244261 -1.842465799893205 5 12 5
-119.867870180313417 -23.949217530895758 -1.954104526183556 4 11 4
-119.914152380754871 -23.156025172995310 -1.385833582937607 3 9 5
-119.984518528180189 -22.205777596478356 -0.364222070588539 4 10 8
-120.019824452071788 -21.482286649619152 -0.022202438622571 6 12 10
-120.025863058884568 -20.951614928519223 -0.246493830274801 7 13 11
-120.014397036655794 -20.539417218537093 -0.810516518708397 5 11 9
-120.110309164129077 -19.417288806690891 0.664982386829678 5 11 9
-120.147222143569891 -18.685786052776681 1.007688359107050 4 9 5
-120.160687010885098 -18.112577963313701 0.897370701736577 5 10 6
-120.156577956992550 -17.660635913807351 0.447317338205380 4 9 5
-120.176721750981457 -17.047587889924749 0.450643648923858 8 13 9
-120.167270985708441 -16.638895292242982 -0.112378867608072 10 15 11
-120.200154855131601 -15.943562857727510 0.117913026594920 11 17 11
-120.257536442298274 -15.080272583910869 0.801631210262514 12 18 14
-120.327491691442134 -14.129273173272257 1.712179526355413 9 15 12
-120.259192923851828 -14.141975782261662 0.016753110577241 6 12 10
-120.287738479213715 -13.484029637961505 0.134495521149830 5 11 7
-120.340951754805261 -12.654080246373473 0.705703908376961 4 11 4
-120.467511643959881 -11.304817694109243 2.636962131923809 4 11 4
-120.552325970542270 -10.248032288172890 3.775247841179720 5 12 5
-120.455103614336622 -10.491506989754974 1.514065508226366 5 12 5
-120.650745333274998 -8.641288026528606 4.692663380477370 5 12 5
-120.584624874691869 -8.671877641520950 2.998463180200048 6 13 6
-120.530862290451950 -8.621528560256474 1.531059571829587 7 13 9
-120.526349232926606 -8.220276415891302 0.970475826082833 8 14 10
-120.669768175607430 -6.741284397431512 3.130181762323559 8 14 10
-120.641606252583273 -6.518492693962623 2.116685923670758 9 15 11
-120.570480003527265 -6.619128419846120 0.309953105276747 8 14 10
-120.672681773235880 -5.444095095317751 1.677057492337241 7 13 9
