ply
format ascii 1.0
element vertex 673
property double x
property double y
property double z
property uchar red
property uchar green
property uchar blue
end_header
161.015787283011093 -1.242620070931999 -50.978554723904239 133 130 115
159.478041768424504 -1.036804859464841 -52.129622143688863 134 131 114
153.637272333981002 -1.746224077608975 -56.423084293249502 133 130 111
150.808743206340523 -2.090254667190350 -58.503009806822746 135 132 115
148.256614788273282 -2.340011757446077 -60.383558222159536 135 132 115
147.302105166724346 -1.193059168233450 -61.158177984301119 132 129 114
141.982814538038099 -2.612015587300465 -65.028656874683520 134 131 114
138.507670214056475 -3.299813628018103 -67.571717518113331 136 133 116
137.984467592906071 -2.778200010568221 -67.991941718066926 134 131 114
135.523848856146230 -3.072615329243146 -69.804949476772208 135 132 115
132.970767366202210 -3.420664990232264 -71.684030170981515 137 134 117
135.309184966948351 -1.701356692375444 -70.048946716758138 138 135 118
134.233252016538245 -1.431561576134300 -70.867307836981979 138 135 118
131.680362441834149 -1.805660258681996 -72.746212207119413 138 135 118
129.127249961770076 -2.194965698592248 -74.624853409303938 137 134 117
128.974897396051801 -1.548343823449622 -74.780342237721925 138 135 118
123.004375874058738 -3.467078248312079 -79.110142229341733 140 137 118
120.819884814564332 -3.741202690940227 -80.722880731783391 142 139 120
119.651471486444052 -3.574186128508149 -81.606800489941548 143 140 121
117.928800351903618 -3.663278403611862 -82.888082265945144 141 138 119
118.239157398832930 -2.841715261196112 -82.712436120762504 140 137 118
117.903104893527640 -2.312678543494572 -83.000550934498449 139 136 117
117.012797266062620 -2.039736189100083 -83.686029199211333 140 137 120
116.677429324152044 -1.515487552922478 -83.974422219600370 141 138 121
113.475936557507993 -2.325733106889788 -86.314559761533815 139 136 119
112.216072295027061 -2.246280491108713 -87.264687251390626 140 137 120
102.169024180445419 -6.313598746467963 -94.499965378057453 141 138 121
111.269347263850051 -1.363505474976769 -88.040311822411724 142 139 122
111.120361749504866 -0.771133064069892 -88.196853019677377 143 140 123
107.270102119432693 -1.956621680392212 -90.998772347030041 142 139 122
103.604175288866415 -3.076080733929341 -93.667837759445632 143 140 123
99.382054144205739 -4.487936621435296 -96.732965240496185 141 138 121
98.399672645879591 -4.339881844787325 -97.483969035336543 142 139 122
103.066532129529989 -1.416005700030578 -94.203731295622902 142 139 122
95.082959284595717 -4.113649813841539 -100.001372194041494 142 139 122
90.765466083291983 -5.661760913558437 -103.130330351674559 140 137 120
92.563492459309970 -4.150237868309126 -101.899740059382680 141 138 121
93.157715530807437 -3.238412754240847 -101.528246904398742 141 138 121
88.931712194274496 -4.784078153788522 -104.590139789637107 142 139 122
86.226733835710363 -4.981810854468415 -106.619818600383610 141 138 121
86.822352953313967 -4.079787056852945 -106.248892419197517 137 134 115
85.284695325417957 -4.289211593687042 -107.395727612345894 142 139 120
83.282935627411334 -4.751755213910740 -108.872226908683047 139 136 117
78.867459573944259 -6.503118903505579 -112.063077109605786 138 135 116
80.578391564177522 -5.021241026521606 -110.901374894000128 136 133 114
224.133725353463717 -5.838483245142692 -5.299175132604319 103 104 98
222.982980155083851 -4.218135765654093 -6.206507128688997 111 112 103
219.411582879178923 -4.335809716794989 -8.820248148426458 119 121 110
212.981664497062923 -5.363670868709614 -13.493738887581230 121 123 112
212.452691873943849 -4.576697169594917 -13.913934222996943 122 122 112
204.638704066228314 -6.101951147434197 -19.583054252718995 124 121 112
208.813260288159768 -3.837683041193422 -16.614805067776672 125 123 111
203.949962810891691 -4.467072353265723 -20.157262505058128 124 122 109
201.761241171245615 -4.253563229830786 -21.772996569717975 126 122 110
201.233006345103036 -3.506788833962531 -22.193131073055611 128 126 111
198.583169643623705 -3.467094759229265 -24.140774531693523 132 130 116
194.733837086970084 -3.844671503102527 -26.951453610555092 134 132 119
193.744652868396713 -3.278743989161597 -27.703504381353099 134 132 119
190.540966560412926 -3.473271976332222 -30.048930430853432 136 134 122
187.613967154016507 -3.591589914901129 -32.194930359223264 134 131 119
186.532755482793220 -3.087085089307102 -33.013182142450461 139 135 123
185.174824671170711 -2.685622176526499 -34.030568430013574 140 135 120
183.355473557582172 -2.454829437974984 -35.379750457494197 139 133 119
181.628502385683021 -2.201830100327321 -36.662496431186810 136 130 115
180.917238831665912 -1.594578934202765 -37.215352205625919 132 126 111
178.636476317293500 -1.559063505722629 -38.896080937708376 131 128 111
173.308186161867553 -2.648372253112740 -42.765647714431566 131 128 111
171.396475002646298 -2.513087186126822 -44.180520789143401 131 128 111
170.316089126642595 -2.080861489066119 -44.998423624593130 131 128 111
170.713912815510355 -1.102525623585187 -44.755376076577249 130 127 110
167.971123452478224 -1.304493307557417 -46.766922639581026 132 129 113
161.532366474172932 -2.925772559088987 -51.430076674007950 134 131 114
161.745836514747793 -2.039989719694534 -51.319600047608930 133 130 113
161.220451750080031 -1.437615198203265 -51.739611630139677 133 130 113
155.057431591050801 -3.029031438998229 -56.202407953971544 132 129 112
155.086658974529769 -2.232153029673306 -56.224592903829318 132 129 112
154.191859747655030 -1.799483330454307 -56.909566556580927 134 131 114
153.112375590442866 -1.445357930187322 -57.727096845620594 135 132 115
151.293338551923398 -1.393715317797193 -59.074585043291790 135 132 115
147.717224557161927 -2.061877090882462 -61.680403153203258 134 131 114
143.893774712428979 -2.098312266452230 -64.506975974266567 133 130 112
139.114139234832066 -3.316641832469909 -67.972535882608838 135 132 114
137.479564687326047 -3.256307334960533 -69.186642003795441 133 130 113
136.339102178167764 -2.266806527124752 -70.092399581456135 135 132 114
134.890014833265070 -2.149957222968603 -71.174106110025747 137 134 116
131.219280713242625 -2.991565314094712 -73.843731791179920 137 134 117
127.640607389748268 -3.815324623731668 -76.446723883388984 137 134 117
128.135685867450263 -2.893789391618904 -76.138759130615909 137 134 117
127.334828365676103 -2.534853706217464 -76.757056316484864 137 134 117
125.978479705766901 -2.424673200638050 -77.772201183859352 139 136 117
121.657867053370907 -3.634572086569339 -80.903148395002177 140 137 118
119.096821960360771 -4.085990186093295 -82.777355305535906 144 141 122
118.759414377666985 -3.554788378156024 -83.064844141255463 141 138 119
117.495615749538558 -3.443785282725658 -84.013414209009028 140 137 118
115.953846182513459 -3.466501516047220 -85.160204146934859 139 136 118
116.544307924777144 -2.522156157149346 -84.787246332154979 140 137 120
115.281054263673283 -2.428079950786759 -85.735902873292645 141 138 121
114.017900564352814 -2.341263837978506 -86.684532504014641 139 136 119
112.569347034856690 -2.348303169458112 -87.765219160082069 141 138 121
111.306357567646927 -2.276580535144965 -88.713771994126461 143 140 123
105.718428268907999 -3.612266330010379 -92.789168866699811 143 140 123
107.425133357107185 -2.149414805394041 -91.625248667846677 143 140 123
102.263775856764212 -3.986101850812160 -95.345264544451140 143 140 123
100.814852453623800 -4.053177650306902 -96.425156268709941 141 138 121
102.801725719035034 -2.451863230435306 -95.064116178876219 143 140 123
100.981925995233041 -2.707508001686293 -96.408076447114837 143 140 123
95.910751971057252 -4.580417883270785 -100.060004044824694 143 140 123
92.417711024139962 -5.699202109112553 -102.590066647874210 141 138 121
92.640986813284840 -4.979940414145159 -102.482566972187158 139 136 119
92.586042607069757 -4.398956549121672 -102.573121095971260 140 137 120
93.368281601526746 -3.394057973717876 -102.070814396119147 140 137 120
90.711070262037538 -4.135873532773791 -104.006885381953936 142 139 122
91.122344990374557 -3.321214481005538 -103.768587957446130 141 138 121
91.534340074862939 -2.503270434029493 -103.530668962957805 140 137 120
91.388843268035686 -1.971461212555414 -103.688255738608575 139 136 118
90.034123640177739 -2.070808138048883 -104.702023158226979 137 134 116
83.932534643820574 -4.668329804395797 -109.072992706223118 140 137 118
80.342519365539189 -5.977461795558826 -111.665562661297798 139 136 117
80.755515146291714 -5.183577938478090 -111.427874732850796 137 134 115
80.517307284741648 -4.734357051084075 -111.651117619418017 140 137 120
81.863244231868947 -3.435666277641455 -110.756352929088592 140 137 120
80.135496230824685 -3.787909318673357 -112.032497206529484 140 137 120
221.500891939397093 -4.938747022036436 -8.372394600744059 111 112 103
223.836856628163503 -3.245394490245786 -6.735870506098280 119 121 110
217.667004271417284 -4.176523705597874 -11.202194996013702 121 123 112
209.604620089436509 -3.854957480881010 -17.104069954587914 124 122 110
204.820577609285124 -4.454619265994795 -20.573889826274922 125 122 109
203.551096055768141 -3.940123037159129 -21.523894559521807 125 121 109
199.691593850628379 -4.282576961445424 -24.330070050232393 129 127 112
199.439890271474724 -3.453632421883284 -24.550765318066112 132 130 117
196.875466042413507 -3.398372499231798 -26.428571152911104 132 130 117
192.367845791593538 -4.012915108261945 -29.697900641056719 134 132 119
191.746443191318576 -3.333098934538766 -30.183633650904824 133 131 119
189.644569935328633 -3.164423830481211 -31.729595300609816 135 131 119
187.635265602084189 -2.976043471753278 -33.209185556821467 137 133 121
186.551626660742500 -2.476513942396079 -34.026224929120502 136 133 118
185.375613383802488 -2.015731628279295 -34.909532776271078 137 131 117
182.440739619974181 -2.185777842643671 -37.051233173907747 135 129 113
181.727871778043777 -1.578123073342120 -37.603325616998461 132 126 110
179.718887558259610 -1.442076542034805 -39.082530316016346 131 128 111
176.042971492635360 -1.924097165879287 -41.753378386598797 131 128 111
171.718411441786401 -2.665671931081504 -44.887257871292803 132 129 112
171.561603707882824 -1.892025460395387 -45.041922890495556 129 126 109
170.386178422264265 -1.498701159329118 -45.924817651462575 129 126 109
168.006527086289452 -1.564534115285714 -47.668053965339340 131 128 111
164.700233779872576 -1.995196561433996 -50.072821412807059 133 130 113
162.876314555632064 -1.879647766064445 -51.418631808009252 132 129 112
161.701160031527479 -1.525229179593882 -52.301255624291485 131 128 111
155.613781263192465 -3.081542418908764 -56.689740978062559 130 127 110
154.438415091479726 -2.755430178390431 -57.571972171415723 132 129 112
154.561122087375367 -1.925212576416054 -57.528361739569988 133 130 113
153.108078816482760 -1.718890128315896 -58.609096758723780 134 131 114
151.284217911408177 -1.669161234665535 -59.954257536301554 135 132 115
149.089404698016466 -1.779406373619563 -61.563744847698729 134 131 114
144.761214132962266 -2.767675990293299 -64.693348152806266 134 131 114
143.864652601638966 -2.379679917791944 -65.377018877068451 132 129 110
141.576693260010131 -2.569372838972401 -67.051986488982038 134 131 112
139.659755395984121 -2.618705661719721 -68.462458761347847 134 131 112
137.742781179551656 -2.679266078543271 -69.872798071580831 136 133 114
135.918576871210234 -2.712029441488124 -71.216945431975148 136 133 114
136.136460045435513 -1.890612410343303 -71.107917483988643 135 132 113
130.970402801304999 -3.363889837418753 -74.829425777037443 136 133 114
128.867400628207747 -3.552275894795843 -76.371171946761137 136 133 114
127.692895890318113 -3.351413624975680 -77.252525986233991 137 134 115
129.490505159032864 -1.862916992948993 -76.021499128799206 138 135 116
127.759380394703598 -1.910732374607330 -77.299161601088343 139 136 117
122.683810199594191 -3.445300762947280 -80.952468804650493 139 136 117
121.695474929237321 -3.193182408930299 -81.701695514038050 141 138 119
118.105337563857148 -4.111111116678565 -84.298233914982973 142 139 120
114.979316116817117 -4.841230383839067 -86.564442572722612 139 136 117
117.987955906103238 -2.807416630777414 -84.477216284368382 139 136 120
114.432007683573815 -3.084173829016499 -87.096710554506842 141 138 121
114.746449031299946 -2.270179610844271 -86.922940414086128 141 138 121
112.084999497538021 -2.839590894062195 -88.858758506127799 138 135 117
110.818650725113272 -2.770928119188553 -89.805672763401759 140 137 118
108.435836336155120 -3.236163132287115 -91.543284637556809 140 137 120
105.401297955095359 -4.024812529803990 -93.741797115528385 140 137 120
107.392456130191022 -2.430652986210914 -92.382733263064409 141 138 121
106.591996176082006 -2.166111040953568 -93.000248992187011 143 140 123
99.367138587653287 -5.013909408375154 -98.161581091211929 142 139 122
102.384251282198903 -2.919439905740481 -96.079032571792368 142 139 120
101.118342364261721 -2.904220770993843 -97.025607131709847 144 141 124
99.200375048413648 -3.217669922863525 -98.432868235796263 143 140 123
100.357141908203985 -2.017664285117310 -97.668307178269714 142 139 122
96.016287920116440 -3.553125440192442 -100.786219827814477 140 137 122
93.165753963510355 -4.366488417689566 -102.850787232595621 142 139 122
93.577808940547470 -3.549187792314344 -102.612890267435603 141 138 121
95.575851281818231 -1.923241255114860 -101.257446975966417 142 139 122
94.777155861230270 -1.714095887328087 -101.875236627076418 145 142 125
95.098177388070127 -0.933722405589618 -101.704268346659006 142 139 122
93.087203327045572 -1.357027381086283 -103.176763426394501 140 137 120
91.449286149135389 -1.598096580453784 -104.386167944989182 135 132 115
89.811263067225028 -1.848787697059093 -105.595422756245370 136 133 116
86.585874199170803 -2.944533330742401 -107.921189689429724 138 135 118
81.024965348213385 -5.295958134512167 -111.888198654800789 138 135 118
85.550352227970478 -2.310519497384070 -108.762632369813389 139 136 119
80.081354154713551 -4.649037740444461 -112.662885104985207 139 136 119
221.885752874223442 -4.114450187745880 -9.230148963701481 118 120 109
222.467428737708644 -2.959948824934546 -8.855151255951085 123 124 113
223.420481577326655 -1.685840860888643 -8.215614651758614 124 124 114
212.782212255339857 -4.060631936853397 -15.850629921372558 126 123 113
210.396684131198356 -3.871759998132814 -17.593676605368017 126 124 112
207.732898072366140 -3.786232880900424 -19.535118521793692 126 124 111
204.326993687501670 -3.956901667723958 -22.005767501035791 127 123 111
202.590679460933529 -3.601372918294129 -23.285099176141870 128 126 111
203.915975853134285 -2.245270207226579 -22.381051085000735 133 131 118
197.541040039761526 -3.445923812363137 -26.968207772132814 133 131 118
193.856276985168023 -3.780176438537936 -29.636344523749642 135 133 120
191.377623138923639 -3.727211429028499 -31.444300108123656 133 131 119
190.012591183335815 -3.307923658277148 -32.458472712971911 137 135 122
190.039928261869193 -2.416244329518015 -32.480729180910771 137 133 121
185.797795720933152 -3.009625806921993 -35.544708246846000 137 134 119
184.990059635991827 -2.422908197340305 -36.162059415878957 135 132 117
185.018146532602742 -1.545018799903052 -36.184532647525373 135 129 113
183.839599118847104 -1.097311335748782 -37.066493586310742 132 126 110
182.661236870553637 -0.656324505004837 -37.948473928762695 131 128 111
177.303968888367876 -1.738110334512264 -41.804255249664607 131 128 111
173.339208175841293 -2.342223765499091 -44.668240923408945 130 127 110
171.417583095697353 -2.216350525269724 -46.078274331672475 130 127 110
169.960466892743398 -1.929027301690655 -47.157894655762306 129 126 109
166.924041860137351 -2.241861931167034 -49.360402366537329 130 127 110
164.630731439648542 -2.291903036632776 -51.034247546960501 131 128 111
163.638337468495735 -1.860204470314136 -51.783381097137919 131 128 111
161.437963618890308 -1.897557760335007 -53.390958531649545 130 127 110
160.167016755395878 -1.588478959404500 -54.338147800847452 130 127 110
155.456732838359528 -2.626551928586331 -57.727881844828602 133 130 113
153.534897155779618 -2.597876814707836 -59.136813992466017 131 128 111
154.402478418415626 -1.477134970696152 -58.565668289219872 133 130 113
151.458041221526287 -1.870067863436968 -60.700499288711711 135 132 115
145.909250688504414 -3.325926782799856 -64.682524125386919 133 130 113
146.684551776453191 -2.256719978474665 -64.177560311748408 134 131 114
145.134838500884939 -2.129966573924873 -65.322088572805598 132 129 110
142.747847588767286 -2.355857101939042 -67.060166105618407 135 132 113
139.741586890499548 -2.113490318856813 -69.282819297594898 135 132 113
135.865159449892701 -3.000760962810012 -72.075289741485022 134 131 112
132.081248806040833 -3.871858263325219 -74.801327499249965 134 131 112
133.417266253952732 -2.587312680962343 -73.901671750939414 133 130 111
129.912262887694084 -3.368329275141237 -76.429488385492363 137 134 115
129.293652331358004 -2.924895746428781 -76.914123894276941 136 133 114
128.954760269881774 -2.363367345496572 -77.201214727291841 138 135 116
127.777881144412007 -2.170087044233081 -78.081354822873863 139 136 117
125.483152838035579 -2.475834509939426 -79.751889577526697 139 136 117
122.349615991470486 -3.166948879977709 -82.014904390894628 141 138 119
120.648381373573486 -2.552858667243809 -83.313679533578068 139 136 117
117.980274356512950 -3.075208146005477 -85.246797139224725 139 136 118
114.938882463545042 -3.783261260364053 -87.442860538622000 140 137 120
113.109303787942494 -3.953780937147528 -88.783018825199207 141 138 121
115.663202511634609 -2.112400585223768 -87.030559580720933 141 138 121
112.621488335947902 -2.854022141424107 -89.226123264334973 139 136 119
111.445245006680153 -2.741640375510094 -90.105734793376485 138 135 117
110.175810389116918 -2.679841528913550 -91.051102139051665 139 136 119
104.893276461708979 -4.525386592422238 -94.823915333196652 140 137 120
105.210205550579190 -3.734433442599457 -94.651098146320578 143 140 123
105.060955774744116 -3.164742794499987 -94.807279447016356 141 138 121
103.137975136769725 -3.451443044901412 -96.212417534862141 143 140 123
102.802571142076005 -2.978569906573797 -96.500264473915081 143 140 121
104.429266927739405 -1.548749492058496 -95.408586978088636 143 140 123
104.281928265175139 -0.980797481043444 -95.565664652157437 144 141 124
101.425080956634261 -1.753505778544211 -97.627630250057734 143 140 123
95.576770058683294 -4.031801816214690 -101.790476467166485 141 138 123
92.811743616143644 -4.801436642319502 -103.785541604490703 143 140 123
92.383762787336835 -4.410267863350492 -104.139117964335639 143 140 123
95.042393441403320 -2.457191931417191 -102.327052970153062 141 138 121
95.738306142644063 -1.488114965541518 -101.893938222626474 142 139 122
92.037748718850636 -2.768973192197106 -104.544775115177003 141 138 121
90.582148649068543 -2.913838049470624 -105.620672023150547 140 137 120
88.419804915610698 -2.838014321474106 -107.247607922772545 134 131 114
88.368859797283847 -2.268475607195396 -107.339957385808447 139 136 119
89.536083782612550 -1.055563792903406 -106.580531831054088 138 135 118
84.802468839740101 -2.968982286132682 -109.950094021032470 139 136 119
84.752485867867051 -2.409103439752883 -110.042804337760913 139 136 119
217.460849266969831 -3.816426463019774 -13.546173278591908 123 123 113
214.816512257391281 -2.736802980685444 -15.507152286791865 125 123 111
210.099784133986873 -3.295971287339960 -18.898733050807863 126 124 111
206.777903451498958 -3.431851574889911 -21.299077891836561 128 124 112
206.246582074100616 -2.676673648829481 -21.717822301391038 129 127 112
203.017621771730347 -2.812630884038344 -24.051760256782217 133 131 118
199.974575044857374 -2.905739999915421 -26.253361916809354 131 129 116
197.861876622862297 -2.704847587637704 -27.794476473141174 131 129 116
192.213017211599038 -3.711908099549269 -31.844107293858400 133 131 119
188.704042734263624 -4.022340584442366 -34.374868121122120 136 134 121
189.197027952846895 -2.976516837123233 -34.067181324485972 136 134 121
185.408672531674256 -3.413202212786372 -36.795564336188420 137 135 120
184.878235089783772 -2.731970893121556 -37.213970447892819 135 132 117
184.348106330793854 -2.053564529458319 -37.632495153747442 132 129 112
184.190732557212584 -1.245426944904583 -37.787244415870560 131 128 111
180.588307847825320 -1.674274807850137 -40.382938948388613 131 128 111
178.010001782957488 -1.753716790724317 -42.252717206184684 130 127 110
175.338451921748941 -1.882241277889144 -44.188241605471234 130 127 110
172.759920990980106 -1.992180909266340 -46.057598360574332 129 126 109
171.485497194481070 -1.633735754985959 -47.003632429615436 128 125 108
167.136658890644583 -2.431492021275662 -50.125318976885211 127 124 107
163.719096856132694 -2.904063919611022 -52.587283336105173 132 129 112
161.699054217302603 -2.866161837817417 -54.060187475234216 132 129 112
160.890593377182995 -2.376473357066183 -54.676193154307839 132 129 112
161.387337047417788 -1.388099090475323 -54.369713031693635 132 129 112
159.087997338300056 -1.482917580646919 -56.040212904988380 133 130 113
155.949475923622288 -1.919708847313935 -58.303460993520815 131 128 111
153.743094562155875 -2.007194173021323 -59.907648420722666 133 130 113
152.935456858246482 -1.551597434966357 -60.523696961903966 134 131 114
150.076217553391587 -1.922093435431940 -62.588658410194199 135 132 115
148.802453201363619 -1.669736823565678 -63.533915932548439 134 131 114
143.983815638904389 -2.865329783478795 -66.981051416489066 132 129 110
142.523273148119358 -2.714633133387164 -68.057626250268669 135 132 113
142.742466807781000 -1.879713794911933 -67.949364220055202 133 130 111
139.882417772614872 -2.322144881291615 -70.013197832163655 133 130 111
134.408588262074119 -3.874763181331678 -73.919228887215439 134 131 112
133.601323332683705 -3.493700325055964 -74.534688547761107 133 130 111
131.954027315836981 -3.473591214901030 -75.742294701501123 133 130 111
131.147144521522961 -3.103937851723240 -76.357819730513398 136 133 114
130.060339941758571 -2.859252569771351 -77.170721432380589 135 132 113
126.545195378599075 -3.672862463825917 -79.693351053888193 137 134 115
126.672811753382533 -2.918042000573715 -79.651313151449330 140 137 118
125.025750072650737 -2.941662041243891 -80.858581284666343 139 136 117
120.668757487155020 -4.173251768628962 -83.971901185786663 141 138 119
120.890479996286075 -3.392046725181952 -83.864296040268783 141 138 119
121.206241627268000 -2.567046135425060 -83.691270812943884 140 137 118
116.042319603062396 -3.542796912831007 -87.418921879626822 141 138 121
116.920094102697718 -2.471549858414172 -86.852143111288342 141 138 121
116.302114389756966 -2.083077227132989 -87.336514673263622 141 138 121
113.626345607914814 -2.651193539548684 -89.265495815891057 140 137 120
110.388804832249221 -3.496956911222602 -91.588022511130561 139 136 119
109.022324116579995 -3.483867047943819 -92.597320835003927 138 135 118
104.567153056968664 -4.937262360515664 -95.772248219241504 141 138 121
105.072525775335038 -4.059600329829264 -95.468756587014269 142 139 122
106.421289260475632 -2.775174489449464 -94.575197266659785 140 137 120
105.710811176010040 -2.473325979499333 -95.125285144078902 142 139 122
102.471645581665356 -3.400014800047042 -97.446201525333038 142 139 120
102.791782095767942 -2.611385578730233 -97.274894838330454 142 139 122
98.132042279610914 -3.021266095880093 -100.695275307407144 143 140 125
93.015999621770803 -4.955127586132270 -104.325110499041273 143 140 123
93.337385548948902 -4.187676906796098 -104.154183525599620 144 141 124
93.378084446043871 -3.559755585930097 -104.180117248061975 138 135 118
94.451309411958249 -2.406165691387702 -103.485971139221249 142 139 122
93.555085853098106 -2.253047888990502 -104.167385828324370 141 138 121
89.092695828305423 -3.939896220766810 -107.336456635160346 137 134 117
85.234121131998037 -4.756060590687773 -110.138199703328610 137 134 117
87.248809280333759 -3.115794189884465 -108.790867110451956 139 136 119
81.374505967283383 -5.617983119546043 -112.938974003260313 139 136 119
84.705803290592939 -3.278859379931090 -110.676672027510165 139 136 119
83.998207173884808 -3.070892971203584 -111.227172252795668 139 136 119
219.270481260313176 -4.484004358090790 -13.296434457466944 121 122 111
216.406195949804953 -4.411686212690457 -15.363540022403015 122 122 112
214.660856641514357 -4.005144001967757 -16.639079236532496 124 121 111
212.262798136131551 -3.815352347185864 -18.376140896192112 124 122 110
210.890674824467510 -3.311709086606777 -19.387789334034011 126 124 111
208.959058462217286 -2.996398982636831 -20.794992915988558 129 125 113
203.016302011865037 -3.997623676053126 -25.036661126373218 129 127 112
196.233274607483679 -5.309648496005215 -29.870877335007378 133 131 118
200.085679230713623 -3.137716541597266 -27.190997006774921 131 129 116
196.567782607146057 -3.406581049075164 -29.717917389937242 132 130 117
193.702869391430283 -3.475813049846969 -31.783265520411021 134 132 120
183.931699561014938 -5.911153412124690 -38.723886101198303 134 132 119
184.612603869960765 -4.817523849688332 -38.284873472688503 135 133 120
188.467734874862344 -2.621101324904796 -35.606549529846376 137 135 120
186.909553465203885 -2.291181278201867 -36.749117960890999 135 132 117
184.884673852931712 -2.134536948067267 -38.220930382118269 132 129 112
183.700156950410417 -1.691355446411577 -39.099988949934215 132 129 112
182.702588687011144 -1.188047625734959 -39.847384246465396 132 129 112
178.249788334395248 -1.937313895122515 -43.030693722769087 131 128 111
177.812713949342196 -1.251655643804031 -43.382951084553582 131 128 111
175.881414493015569 -1.116421705905443 -44.788452658775867 129 126 109
172.548830665051298 -1.510513181856171 -47.181019254219621 127 124 107
168.375083786619598 -2.237614192599796 -50.165478459438418 127 124 107
164.013971820549614 -3.059588049969798 -53.281044044935413 132 129 112
161.334451299795347 -3.270450961312308 -55.211907757253101 132 129 112
162.112869287893574 -2.177403728878561 -54.708680459465171 132 129 112
159.900769098339566 -2.229543253188604 -56.310495851002401 133 130 113
157.782084333092030 -2.258350068003627 -57.846382151706251 133 130 113
153.699944349058455 -3.066195553036439 -60.762975752846103 131 128 111
155.227676234176784 -1.690725137688561 -59.734253699294669 133 130 113
153.483101720565941 -1.603175147627449 -61.006875241402184 134 131 114
151.083847724563157 -1.787200379778460 -62.739517097440370 136 133 116
147.561953881446840 -2.436929715038771 -65.260604791469433 135 132 114
145.255824649495423 -2.614513484245783 -66.927004635718333 132 129 110
142.855998879754679 -2.843790967819749 -68.658907153003383 133 130 111
140.549589401633284 -3.048642208265659 -70.324892250665641 133 130 111
137.681490600918096 -3.499624018914586 -72.384786865627291 134 131 112
134.813087794267631 -3.967519865050480 -74.444361940527415 134 131 112
134.940097851276022 -3.193478137416916 -74.402231831873394 133 130 111
134.318584524043217 -2.735164494139443 -74.885631833505215 132 129 110
131.449950177747894 -3.237932492659695 -76.944737184050098 134 131 112
127.269790245531453 -4.320355178789213 -79.922470901817320 136 133 114
125.992670715467881 -4.172885655820380 -80.865043663003121 137 134 115
125.839868122572284 -3.543516352948828 -81.020139610568776 138 135 116
125.312719826482805 -3.078756318630421 -81.437890990664158 139 136 117
119.256883861549341 -5.055508325214280 -85.726279641100490 140 137 118
122.478631018426839 -2.948112983038482 -83.520042829351098 141 138 119
122.233451426684979 -2.371106571523680 -83.741265824685399 143 140 121
118.707230725270321 -3.271910710502655 -86.257699125451950 139 136 117
116.493191146828266 -3.598993108999367 -87.855756594869348 140 137 120
114.466517105874615 -3.853548434305719 -89.322477882943787 140 137 120
116.754602890608396 -2.139251936878121 -87.774123156404016 140 137 120
113.227246536000337 -3.097857228534599 -90.289418188274226 140 137 121
110.449892595858870 -3.728483221769703 -92.280016780749662 139 136 120
113.772396093720559 -1.520472073996812 -90.012158261274834 139 136 119
106.301885326151137 -4.376063971823716 -95.277608268544810 142 139 122
110.228526306667945 -1.220082919316173 -92.643371670888030 144 141 124
107.021146599525267 -1.461544391426275 -94.986547700952798 141 138 119
105.934141148727846 -1.345033599202053 -95.798033942394198 141 138 121
101.088439185113685 -3.072977310557422 -99.226742155876707 140 137 120
100.470954137853539 -2.749060054900966 -99.710685863306878 140 137 121
97.221570516621938 -3.731544684549816 -102.026139641230259 142 139 124
96.604210991529897 -3.422164175589176 -102.509993763999063 140 137 120
95.140761526573655 -3.540123717367162 -103.582412498155236 142 139 122
94.712004913292134 -3.144864906772423 -103.935659826116790 143 140 123
93.248719885700638 -3.276487603872105 -105.008016584823082 139 136 119
90.279732006027146 -4.184774732672597 -107.125797821780168 143 140 123
80.573889324769624 -7.999255730522746 -113.972615614498608 135 132 115
84.099421674688529 -5.599055135958884 -111.582145934605876 139 136 119
83.106133037042511 -5.537381308724626 -112.327042628875716 140 137 120
81.830365649074395 -5.629712380884550 -113.267793862214148 140 137 120
81.685372998230434 -5.131846730057289 -113.425272426134768 141 138 121
222.261239331581976 -2.862585283276152 -12.304997480118914 122 122 112
213.872539894576022 -4.517790592044040 -18.252134206606172 123 121 109
216.611627763347599 -2.708618566325596 -16.366219508036039 123 121 109
211.401760430170924 -3.416369072669221 -20.074649157816367 126 123 111
206.565537661543772 -4.034411863740504 -23.519316953427506 131 127 115
201.822412956639539 -4.650510295203104 -26.897683672959943 130 127 112
197.078846205688023 -5.294482256306530 -30.275552002935569 131 128 113
197.227945857410361 -3.452909511712086 -30.254978113715083 131 128 113
191.202020514800182 -3.703923400999940 -34.575439792723557 133 131 116
186.457299360740933 -4.448426950073106 -37.951721038071668 132 130 115
188.638822023468151 -2.829854891125342 -36.462260424419156 135 132 117
188.012773625480776 -2.175619744955678 -36.945507582198701 135 132 117
187.667895880466688 -1.426147696127625 -37.231669483108817 136 130 116
184.139860302557423 -1.805424123361902 -39.752602899911238 134 128 114
179.956034607595711 -2.439395531395922 -42.733199063634345 128 125 110
176.925804970491527 -1.843880768250362 -44.948020726995196 128 125 108
173.303231325609488 -2.330177170094574 -47.533484731166851 132 129 111
172.490789909122782 -1.801291844492902 -48.147989588965572 128 125 106
169.992136968714647 -1.903804093586471 -49.944777269714962 128 125 108
169.180036216566862 -1.388895414456617 -50.559301231522312 130 127 110
163.963626330485397 -2.541840185986838 -54.260018338201007 130 127 110
162.308021688129628 -2.370107263630609 -55.465210414045401 132 129 112
160.465008820672068 -2.279801107202744 -56.801626640616576 133 130 113
161.059446751031430 -1.258010647963547 -56.431368201915319 132 129 112
155.686222930315807 -1.778358903117433 -60.285295463351446 133 130 113
153.937134282728948 -1.691298941271505 -61.555752415131508 134 131 114
149.937021509532627 -2.511071617346181 -64.400605895280563 136 133 116
148.844339083943140 -2.187434595475390 -65.211508345773524 137 134 117
144.843484394573750 -3.045767933851733 -68.055609971500104 133 130 111
143.844626195191125 -2.704952386428366 -68.800715552480710 133 130 111
140.969115912008078 -3.139642256474220 -70.857232240763153 131 128 109
136.497756759962272 -4.250517315818477 -74.027941030102113 132 129 110
134.747840095771721 -4.255084536285302 -75.297058696960050 132 129 110
135.908250977304249 -3.049935303434316 -74.534293872552638 132 129 110
138.477900863797089 -1.242748267544449 -72.789017961388595 133 130 112
135.508169952937408 -1.774670521266184 -74.910317847501744 137 134 115
129.250792643252367 -3.731241935863420 -79.324215308246949 134 131 112
129.191860818608234 -3.053022884646022 -79.413862659661277 138 135 116
126.198594095798796 -2.257749699580710 -81.648423468309318 141 138 119
122.851391489138422 -3.044584893323699 -84.029953781749100 142 139 120
123.358006397916569 -2.132538474924617 -83.727410344933020 141 138 119
119.070077210019988 -3.369454970159508 -86.762856222717289 138 135 116
116.662059256145980 -3.782112381925675 -88.488952005470424 141 138 119
113.538460102947624 -3.874657284324727 -90.762882353507308 139 136 120
116.116476528180144 -2.026556446520584 -89.022030112114635 141 138 121
110.076565862394304 -3.509755106784948 -93.323117763609446 139 136 119
104.372933658366676 -5.538823325405270 -97.336025429275907 141 138 121
111.136022470567141 -1.052450890745545 -92.746663590980631 141 138 120
100.329498518259555 -4.325694992477360 -100.402797078759875 141 138 121
102.348805915402608 -2.716920607747688 -99.057350155537563 141 138 121
95.226185128491494 -5.582865552334473 -104.045687428294315 140 137 122
96.492173307495875 -4.348547037957752 -103.222871790256391 142 139 124
95.820590328805693 -3.457233106194817 -103.797634616665931 143 140 123
97.037926081136646 -1.616778936144023 -103.068641968194726 140 137 120
90.947072129386939 -4.099948913269124 -107.335065319196474 141 138 121
85.892563397979515 -6.088932806835436 -110.882911842806436 138 135 118
84.329924358888306 -6.309854465180747 -112.017677668820795 136 133 116
81.728341933514329 -7.077969388637463 -113.869231738998479 140 137 120
84.743422203009800 -4.353436426021553 -111.903055359032237 137 134 117
84.126556337268639 -4.096536385594683 -112.386605438915808 140 137 120
81.335896356634819 -4.995282651701043 -114.368078570568258 140 137 120
218.956322168692253 -4.152341193008576 -15.699310153625134 122 122 112
217.108355961294251 -3.772124531834913 -17.036340913811330 123 121 109
215.354255726474349 -3.373009053971084 -18.307612483626968 123 121 109
209.379833570752510 -4.325429489334511 -22.534634295849060 125 122 110
209.970450947102506 -3.206767696103155 -22.163545262510269 129 125 113
203.901510403500652 -4.240278109413591 -26.455373986993862 131 128 113
202.897749171498020 -3.654662621729634 -27.200653822737252 133 130 115
199.267229122929393 -3.940506190336885 -29.784379656334579 131 128 113
195.477423193763485 -3.411097427898262 -32.522013242272465 134 131 116
196.444956023110649 -2.194128368145515 -31.888815656087218 134 132 117
192.438695518512702 -2.669041725240760 -34.734277892819108 134 131 116
189.746197159146647 -2.714990359376973 -36.660630597130307 132 129 114
188.461720140522289 -2.287659179658065 -37.602564317631362 136 133 118
184.203176738285663 -2.051618970560297 -40.667230137856961 133 128 114
178.723719317521955 -2.303110844349874 -44.583961967884107 130 127 110
175.561113445422961 -2.605766445134106 -46.837068860333716 130 127 110
172.774000968239477 -2.789805973482241 -48.827595940966575 133 130 112
171.677731545344869 -2.368087654650597 -49.637791984305409 131 128 109
171.239354755216937 -1.708660000596048 -49.989156275251645 131 128 111
168.828032932351903 -1.788913567238616 -51.717093098167368 132 129 112
165.570813611895062 -2.201767562049240 -54.034661798722226 131 128 111
163.911093645328947 -2.027137177037972 -55.237914942609109 132 129 112
163.097436612295724 -1.538365976244978 -55.851425338780587 132 129 112
161.625969928681627 -1.307743454787167 -56.923596793300987 132 129 112
158.932317616719587 -1.560340750742553 -58.847270312158201 131 128 111
154.733918633915408 -2.417588996279220 -61.818596364277454 133 130 113
152.697996964099815 -2.446526145039714 -63.283216019634551 133 130 113
151.320435325541069 -2.225634383838104 -64.289352277305795 134 131 114
151.824402050888693 -1.259443465361490 -63.986099295152911 138 135 116
146.495842511074386 -2.641993155351296 -67.741659838053835 137 134 115
144.365591777345657 -2.756592274895638 -69.271129915790198 134 131 112
143.082221580673263 -2.536997259539583 -70.211454803421759 132 129 110
140.669530366273619 -2.790148708786415 -71.936956789359158 131 128 109
137.127043987403113 -3.526277603835912 -74.447303730796420 135 132 113
138.103135728144082 -2.394069810529983 -73.817328208188542 134 131 114
136.725969826914735 -2.246559681989623 -74.822898431232943 133 130 113
136.949877286020580 -1.428076320977322 -74.716722282743376 136 133 116
134.819634186012422 -1.613080230386153 -76.245471300555096 133 130 113
127.696506055546877 -3.956987293656369 -81.238939460056059 135 132 115
126.674310446554060 -2.311606351454678 -82.097167936159394 140 137 118
124.354899897280177 -2.640761390192910 -83.755653844505616 141 138 119
121.186776355435626 -3.360883900045063 -86.001823906049538 144 141 122
121.884121358976444 -2.368717894041295 -85.569632034122691 141 138 119
118.526990505702102 -3.199584173546305 -87.945959474328504 139 136 117
114.791972119685951 -4.221568629834862 -90.582975078439375 137 134 115
113.603385513167851 -4.102517793171382 -91.456750274048972 138 135 116
116.944005972840102 -1.908207934620877 -89.197417812751723 140 137 118
116.983296663995532 -1.221032688865950 -89.223287784734993 140 137 118
111.831743692621515 -2.950398998563184 -92.838239935716700 140 137 118
103.374672925431355 -6.259278412722947 -98.735645953899819 141 138 119
106.852123170383592 -3.349368491660895 -96.438279538876799 142 139 120
107.742516857395387 -2.283434885131571 -95.877483052535865 142 139 122
105.273749278854964 -2.189525724729600 -97.690589652205915 141 138 121
95.013454389807194 -6.545105543458940 -104.820884031834964 140 137 120
93.163046698977809 -6.844355132318364 -106.149752707270181 138 135 118
93.298035912415500 -6.176317199194935 -106.110348649393075 141 138 121
95.177919947328519 -4.033920060241696 -104.925412684502419 145 142 125
97.491172331626927 -2.264762360317041 -103.389662286847681 144 141 124
95.831520517651697 -2.486108348923662 -104.588872050965421 140 137 120
91.186473296518031 -3.634510676137337 -107.897820546226257 137 134 115
90.662489983936268 -3.305216291504788 -108.315691627598824 137 134 115
84.171882541342498 -6.061531160272162 -112.831498200917054 137 134 115
88.384091070279510 -3.294269966333863 -109.997298196039054 139 136 117
90.040398391073055 -1.837157592589624 -108.920067686965666 142 139 120
84.873934423474964 -3.956682168708325 -112.523870373429389 141 138 119
81.032888690372161 -5.406163249121704 -115.216621305537871 139 136 117
222.747365390724269 -4.213251108092082 -14.075679827547447 119 119 109
221.270769998538412 -3.703064723763878 -15.148275416748248 121 121 111
211.049439304008388 -5.922393205159077 -22.319199641652261 123 121 109
208.537963443229216 -5.779762449578773 -24.112376261345787 122 120 108
212.168032907873538 -2.769560173232043 -21.667336947643122 127 123 111
210.597856277713788 -2.341228874915981 -22.805179902766525 129 126 111
206.111548660916981 -2.871982096935772 -25.974708883307414 132 129 114
202.471566326629812 -3.150605029686840 -28.553982317483104 130 127 112
196.290871673103567 -4.293015283817097 -32.902086182992292 130 127 112
198.766592207361811 -2.575072086377405 -31.221815044941110 133 130 115
195.156010653498271 -2.010014203932203 -33.823838142153789 135 132 117
192.833130033486441 -1.920782038968012 -35.484970650220731 134 131 116
189.098158391123718 -2.333999484808543 -38.128274960992059 134 131 116
185.174564184359554 -2.834791971383478 -40.902159199450466 134 128 114
180.026553048547726 -3.789622590812011 -44.526778437377970 132 128 113
181.187064248769843 -2.534121602107076 -43.764579901005362 129 126 111
179.428782032361426 -2.316694896113646 -45.031980611362201 129 126 109
177.764751169170950 -2.075340454151287 -46.233858261318005 130 127 110
174.028454761186481 -2.597709342286325 -48.875405258128268 131 128 110
171.422272000533610 -2.727185713187343 -50.731332371123017 132 129 110
169.852358884753897 -2.488512076960403 -51.867349149030872 132 129 112
168.565229405899856 -2.153417186611389 -52.807064507187960 133 130 113
165.676161817439038 -2.427497461391263 -54.858748662343459 131 128 111
164.106401826771219 -2.218780037630952 -55.994530340436370 132 129 112
161.405565430029156 -2.450653886043535 -57.914980334615933 133 130 113
161.155691248483919 -1.755700295110460 -58.135171543849310 132 129 110
157.700471838920294 -2.303956876320484 -60.578341683461645 132 129 110
154.339156716274061 -2.835645595229633 -62.955746968467537 133 130 111
155.255539483311736 -0.930172235325592 -62.416025373357968 134 131 112
147.554609954235815 -3.230658615868989 -67.798675584724066 137 134 115
145.607353142475461 -3.262063861537556 -69.194827913975303 138 135 116
146.679603991554643 -2.081264822180828 -68.500495868375850 135 132 113
146.620150277107712 -1.355726608808590 -68.590380629404564 136 133 114
145.522918285352034 -1.056857882779605 -69.398851630526565 133 130 111
141.593865087597862 -1.936648110587342 -72.166223092264630 135 132 113
137.758605603583533 -2.800257833678177 -74.867772814300793 135 132 115
139.305117538251778 -1.426188309936828 -73.848020652000372 134 131 114
138.680432535274235 -0.960877632698565 -74.329975358813073 137 134 117
133.333283787601033 -2.510094197113161 -78.074927302528067 136 133 116
127.701620725604243 -4.212671637766034 -82.014766607724511 136 133 116
126.226067308347226 -4.153733386359625 -83.083215750439933 138 135 116
125.223061338443657 -3.897785835488610 -83.825463463298149 139 136 117
124.314766597744267 -3.606011602333699 -84.502530600682718 140 137 118
124.824644492009071 -2.694333777072919 -84.201544370824507 141 138 119
124.106126675396283 -2.324285103116621 -84.748488086491221 144 141 122
121.118446008553008 -2.971632815967669 -86.860012738632861 142 139 120
119.643526639929789 -2.956262576778894 -87.928316740604885 138 135 116
115.425455622106853 -4.190781934700998 -90.886348317516735 138 135 116
112.436388057484280 -4.890181572509559 -92.996673685902408 138 135 116
113.137210476258787 -3.915142562739852 -92.565969100727727 139 136 117
111.756688611321394 -3.896112598629425 -93.568611331362121 140 137 118
107.063138765822444 -5.423767005722984 -96.850452505201616 141 138 119
104.869283967373732 -5.177978994554660 -98.464063147092276 142 139 120
106.992774486460007 -3.539746018155395 -97.057901419460080 142 139 120
105.517889278940231 -3.602752919445376 -98.125414988706638 142 139 122
107.116923831460099 -1.559798889457100 -97.137674630995491 142 139 122
101.472358022567320 -3.658354668028567 -101.067265302349199 140 137 120
102.178032099479054 -2.689049377642093 -100.638822713743281 137 134 117
95.867592787166160 -5.162568954696500 -105.022014287184049 139 136 119
96.194199882420463 -4.392423163801662 -104.853612844790547 141 138 121
102.118488790606719 -0.835868956488469 -100.851130885749939 143 140 123
96.470056875637184 -3.033854052217112 -104.777848549297886 143 140 123
90.768274450728569 -4.697172998270490 -108.795405983953572 139 136 118
91.002163271795510 -3.982601602998205 -108.692935266748634 137 134 115
90.287090814046238 -3.752424479667283 -109.240087462149916 136 133 114
89.667300407190737 -3.477009296331090 -109.722429037256092 137 134 115
90.378008207068120 -2.515146748579359 -109.296317952573929 139 136 117
90.994648446499795 -1.597596327060846 -108.935608027355812 140 137 118
89.520985182279503 -1.772105178772541 -110.002558424498943 141 138 119
87.286628824037351 -2.356283929918395 -111.588249994188061 140 137 118
223.349781889511206 -5.257661372411395 -14.685699830900319 115 115 105
221.331606772531984 -3.948805330483152 -16.172579953665661 120 120 110
212.119513517185680 -5.848767461961602 -22.610159574249025 123 121 109
208.469902330655060 -6.059758710598197 -25.185522765416351 125 123 111
209.252534031346869 -4.890437625127879 -24.685096418375764 126 122 110
211.544785261425204 -3.234619182395019 -23.138132482617067 128 124 112
210.630811450911779 -2.597729146647704 -23.816035222796188 130 127 112
204.811715962857164 -3.559927560367547 -27.895546360930837 131 128 113
198.991950460356747 -4.556154431837964 -31.974386694441193 131 128 113
197.134286806964781 -4.275534226450019 -33.305753033351579 130 127 112
194.333074369711824 -4.320457879683295 -35.290966731006165 131 128 113
196.722123731086810 -2.634262153817587 -33.679764493178595 131 129 114
196.186299873271793 -1.927090807895667 -34.095860775689175 134 132 117
195.839587116379079 -1.158067935860265 -34.381346059651264 132 129 114
192.944464006390206 -1.271141102020621 -36.431790601116347 131 128 113
186.744860569741491 -2.552065152698941 -40.769422777502371 132 126 112
184.887683482486267 -2.343652173448543 -42.100278622732333 131 127 112
179.631094193709714 -3.349995634937516 -45.783283081815568 130 127 112
181.834555248789940 -1.722625670615503 -44.304408281125973 129 126 109
178.655289411040457 -2.020268174717759 -46.549596705436443 130 127 110
177.364987490314377 -1.650612816217081 -47.488150126536539 129 126 107
173.146230737362941 -2.359901332297466 -50.451260115021796 130 127 108
168.454550403905614 -3.268135901108523 -53.740371656579100 132 129 112
169.431856551688099 -2.095921849318954 -53.111388906653275 132 129 112
166.724165501117284 -2.298619828447711 -55.028859979816190 132 129 112
162.125964123671167 -3.230950558609207 -58.251584614696128 131 128 111
159.417668396870368 -3.470718224781344 -60.168384835912292 132 129 112
158.789044868284066 -2.928491814037224 -60.649247097858023 133 130 111
158.160736071236187 -2.389577018511533 -61.130225838173857 132 129 110
153.844759065347432 -3.290151451589124 -64.155715873780082 134 131 112
151.797970067833774 -3.325491946294030 -65.615070723959946 135 132 113
152.494190093164093 -2.288277857593693 -65.182804368858740 133 130 111
148.082621926782764 -3.280854172781971 -68.272475784274548 136 133 114
145.278788070125302 -3.654113223238334 -70.253055682686352 135 132 113
146.070497362412254 -2.590515661593375 -69.755883759007844 134 131 112
148.282520940928009 -0.943784553396889 -68.281304534159943 133 130 111
145.668343121824876 -1.262606056287856 -70.131457814034462 133 130 111
140.119248858034780 -2.808595917823148 -74.001550698965104 132 129 110
139.587136705084589 -2.300320395983285 -74.417375313726382 133 130 113
138.676597040738670 -1.953397980637356 -75.093936155276793 134 131 114
139.755187019247956 -0.772471094009344 -74.402638043464208 138 135 118
132.498971935021871 -3.125340752389446 -79.443204488896669 137 134 117
127.609499180926804 -4.508424693869276 -82.854522721100807 139 136 119
125.940611006804289 -4.533014773915912 -84.051339149592110 140 137 118
126.167064158565012 -3.745244905109497 -83.946064702338276 140 137 118
124.877582976822396 -3.617685396586252 -84.882518747952474 140 137 118
122.450628585610772 -3.997430746636571 -86.599894184376780 140 137 118
124.669289032275145 -2.335397188899205 -85.128647530302374 140 137 118
118.828685824584980 -4.250225290440534 -89.188063553148851 140 137 118
118.203172079440634 -3.860594589793417 -89.668842780532174 140 137 118
122.510822022250366 -1.247392185911769 -86.767856931466071 140 137 118
114.391384824596685 -4.255022241924941 -92.386451063300655 138 135 116
112.058270376785828 -4.664078800364154 -94.037558607078410 141 138 119
114.375592395290397 -2.945911235254329 -92.503230241405475 141 138 119
116.504449725627055 -1.300929026824930 -91.099705451115341 142 139 120
114.741805560261966 -1.457429156633785 -92.361170403277214 142 139 120
108.651705749929533 -3.011943414679756 -96.637513652781053 141 138 119
110.403363167966788 -1.536407902553229 -95.495229057094150 140 137 120
110.921020450441858 -0.640128885066643 -95.197805952226048 142 139 122
106.402397337646889 -2.163673100241426 -98.341656013821762 140 137 120
104.639249804269355 -2.379709861584025 -99.602267315994851 140 137 120
100.403960131668711 -3.810155122403723 -102.550044783738429 138 135 118
99.686121387708852 -3.541503055050832 -103.096269639225596 139 136 119
