ply
format ascii 1.0
element vertex 680
property double x
property double y
property double z
property uchar red
property uchar green
property uchar blue
end_header
-105.743687656892618 -121.076772332472174 -20.460054083330277 113 93 85
-105.737911174593862 -120.549684315460993 -20.135666459645790 43 26 19
-105.733642155525231 -120.006145787076960 -20.032444773937755 18 6 1
-105.730142948705975 -119.454932039079821 -20.039792702499966 22 13 8
-105.725170826821824 -118.917477715594373 -19.825985866070880 20 15 10
-105.720967089341656 -118.372346944104692 -19.722749339632855 19 19 13
-105.716783721545085 -117.826684233212319 -19.619508543927509 22 19 13
-105.714128295758400 -117.268373135659616 -19.737384752040811 23 20 14
-105.709987048546225 -116.722188431601595 -19.634129179130156 22 17 11
-105.706621680241227 -116.169955755508369 -19.641423568144660 23 17 11
-105.702518369450274 -115.622975175026852 -19.538158038935933 25 17 10
-105.699953770584457 -115.065518276964099 -19.655982003057147 26 19 11
-105.696650056725957 -114.513312501311972 -19.663246619896029 25 17 9
-105.697185571384495 -113.938977876901887 -20.223196770931338 23 16 8
-105.694693771844612 -113.383990813930168 -20.340960484851223 24 17 9
-105.692990678650077 -112.825670490999556 -20.569240080198739 24 17 11
-105.688236774531077 -112.282892425967674 -20.355383649084928 22 15 9
-105.685804943532887 -111.729012514799876 -20.473107277790376 22 15 9
-105.681849411844297 -111.181819362144296 -20.369773239677784 24 17 11
-105.678680782719553 -110.631291380703118 -20.376955962064415 26 17 12
-105.676303365601242 -110.078243408905863 -20.494644995786359 26 17 12
-105.673168292341344 -109.527997251903301 -20.501808764201712 27 16 11
-105.670826818158318 -108.975773874590587 -20.619472114981335 26 16 10
-105.665384978623067 -108.430938313438247 -20.295107083733313 26 16 12
-105.663073565434416 -107.878723057579421 -20.412755969838059 28 18 13
-105.658431739269744 -107.330554638948982 -20.198901406632586 29 19 14
-105.656150872698873 -106.778618003722670 -20.316532811357945 28 18 13
-105.650744358166904 -106.229720482398562 -19.992192692546041 30 19 15
-105.645342844417669 -105.679195402311450 -19.667866934656843 29 18 13
-105.639157525791418 -105.127122235603039 -19.233073196646927 28 18 11
-105.636924961369417 -104.573837405738388 -19.350695371434512 27 17 10
-105.635500629899866 -104.021561587887575 -19.578779389000943 27 18 9
-105.634888825881958 -103.471109640392527 -19.917314807126331 32 21 13
-105.633504639673205 -102.921282218807150 -20.145354416764945 35 24 16
-105.634527797385829 -102.376379165638284 -20.704768327086754 31 19 12
-105.633983778935189 -101.831093000268794 -21.043218142838612 27 15 9
-105.629466977953825 -101.278326528722090 -20.829351098082498 29 17 11
-105.624957714785623 -100.724473537563128 -20.615491631354644 33 19 13
-105.618852443592345 -100.164802479072875 -20.180737807844110 35 19 11
-105.617568648593917 -99.618781637014990 -20.408690207636454 31 14 6
-105.615499418117224 -99.070938080319863 -20.526178234266240 34 14 7
-105.615864872459383 -98.533179478349155 -20.974974361280346 40 17 10
-105.613832930977949 -97.987236081391217 -21.092424989683963 59 35 29
-105.614244323886908 -97.453007339897866 -21.541162805218022 77 49 45
-105.612250165709384 -96.908962985285982 -21.658575810421638 93 64 59
-105.612708000058092 -96.378262976487449 -22.107255085511810 102 71 64
-105.611565323053142 -95.840655826134153 -22.335053368584340 103 70 62
-105.613700428435649 -95.323377161280618 -23.004509860166593 105 71 63
-105.616682637085120 -94.814439006313833 -23.784334132311812 107 71 63
-105.618064865125277 -94.298592812758883 -24.343277167766786 106 71 62
-105.617839201240045 -93.774207968079608 -24.681359535991987 107 72 64
-105.616817636218144 -93.245551735924138 -24.909007743209457 101 68 63
-105.619923186533640 -92.748826376886456 -25.688647296680728 58 39 33
-105.624708700534015 -92.268783348198937 -26.689029211517806 95 88 82
-105.624592276072178 -91.753348040633128 -27.026967197895914 36 34 29
-105.617075472692164 -91.176674559688209 -26.371345891179914 52 51 46
-105.615345323388070 -90.647530423262225 -26.488479220012408 41 39 34
-105.616946567919655 -90.149036769898629 -27.047138860315272 96 84 80
-105.614434778808700 -89.614253874966778 -27.053845280605628 90 64 62
-105.611112060648125 -89.071392235559642 -26.950163920228533 98 64 62
-105.606143758277170 -88.511292629518252 -26.625729470906350 101 65 61
-105.608682508258724 -88.027091889842566 -27.294652372595152 109 67 63
-105.609589261849706 -87.528369702802465 -27.742787722474958 113 68 65
-105.610527380085614 -87.031812606276446 -28.190885781251779 113 72 68
-105.605642878287412 -86.471406346119238 -27.866414398567684 112 71 69
-105.602449062417477 -85.928764012882311 -27.762669114348029 116 72 70
-105.599276367738298 -85.385567451310791 -27.658919430773750 119 74 69
-105.596965462774634 -84.852061890372397 -27.665516600536165 124 79 74
-105.597202786801603 -84.350097330835681 -28.003146693673244 125 80 75
-105.596630495598106 -83.838961477608777 -28.230399623774161 128 83 78
-105.595245829746759 -83.317838302483594 -28.347285110723050 128 83 78
-105.590512624939620 -82.751912564341083 -28.022798162836665 130 80 81
-105.586646399003556 -82.195946092089372 -27.808652824423689 129 77 79
-105.581957997011727 -81.627000142876796 -27.484175531573783 121 69 71
-105.578988494432778 -81.080703932889421 -27.380360547833533 114 63 65
-105.573501052045600 -80.496585810613482 -26.945562803048631 114 66 66
-105.569736690165414 -79.935659286017597 -26.731419789530975 112 69 68
-105.565149941040914 -79.360662315820349 -26.406956152496548 109 71 68
-105.563146599907810 -78.823722049150263 -26.413441539928215 109 72 66
-105.559472072977798 -78.259745292339588 -26.199286947250812 112 74 71
-105.555829333764223 -77.694659125926194 -25.985128567149161 110 75 71
-105.547090243451905 -77.044152840739159 -25.109134226615453 107 72 70
-105.533239031479638 -76.303330864731095 -23.571361862814399 103 71 73
-105.515974146622185 -75.496488019705197 -21.592466634709496 96 76 78
-105.509009019600555 -74.858237489748660 -20.937215251413733 21 14 14
-105.507226455637110 -74.307531660309678 -20.943736715656996 15 18 18
-105.504627789268483 -73.741385338976642 -20.839948652312728 14 20 20
-105.496910605670436 -73.080564875544354 -20.074430489048240 15 20 20
-105.495254967594633 -72.527591677530836 -20.080914571545691 13 19 19
-105.491060966994837 -71.925903358315551 -19.756537792427338 11 17 17
-105.491223702337322 -71.405044915471692 -19.983539167847198 11 17 17
-105.487985809869443 -70.818153057394255 -19.769411567388687 11 17 17
-105.486524158063716 -70.264222316243320 -19.775812703992017 10 16 16
-105.482520663593220 -69.658305894094539 -19.451388309381883 10 16 14
-105.478566928581216 -69.050716206978592 -19.126957333774271 10 16 14
-105.478994829604602 -68.530750337979171 -19.353822667130402 9 15 13
-105.478615224535019 -67.993697144515011 -19.470391312127674 12 18 16
-105.477427629172794 -67.438738547334182 -19.476671921306263 12 18 16
-105.476299548338204 -66.883732578752728 -19.482924546556461 12 18 16
-105.468285901812351 -66.177089367375842 -18.607161001783908 12 18 16
-105.463802116048029 -65.542922266778348 -18.172398290387179 12 18 16
-105.461117456946070 -64.945509961001790 -17.958114317235925 11 17 15
-105.464584953408135 -64.485310575513736 -18.515486966875557 12 18 16
-105.462033315769361 -63.887513712594405 -18.301143315152132 11 17 15
-105.463901570301459 -63.390118330769809 -18.637946143884335 12 18 16
-105.464100941089711 -62.853131215685352 -18.754237128637783 11 17 15
-105.463502085963100 -62.295770801935944 -18.760260809610202 10 16 14
-105.461234458385604 -61.696090394033071 -18.545800676721711 10 16 14
-105.459913109245235 -61.116652030833805 -18.441538370858041 11 17 15
-105.463027488771232 -60.644959693120349 -18.888339368239855 11 17 15
-105.460990883595159 -60.043706462982300 -18.673784904875731 11 17 15
-105.453802719472918 -59.307983799207214 -17.797925781562611 10 16 14
-105.445824138192677 -58.545331756324565 -16.811863103815426 10 16 14
-105.444034456802910 -57.937030158866236 -16.597263065343981 10 16 14
-105.449308286994892 -57.511837436579299 -17.264270114869106 10 16 14
-105.447694416329966 -56.903366767767466 -17.049587709485905 10 16 15
-105.446171583399973 -56.293716449953408 -16.834873894682062 10 16 15
-105.444741977332271 -55.682883411643182 -16.620127654803156 11 17 16
-105.447765480288624 -55.191497547074505 -16.956315957669005 14 20 19
-105.449141661515498 -54.652852779316909 -17.072061023394156 16 22 21
-105.448873844487451 -54.065308698007222 -16.967378147607576 17 23 23
-105.447836604367822 -53.452169774148736 -16.752467936842351 18 24 24
-105.447773832571045 -52.863050705774178 -16.647703180253075 18 24 24
-105.450426219461264 -52.349750825877138 -16.873435710820871 20 26 26
-105.454922247302164 -51.888960428680711 -17.319463513234325 21 27 27
-105.456047757809202 -51.326087005378433 -17.324719011775045 18 24 24
-105.455547814308034 -50.710471179446309 -17.109577256146594 16 21 24
-105.455163565176804 -50.093638955484387 -16.894392673724070 16 21 23
-105.455764352607019 -49.502444648330687 -16.789331834150346 16 22 22
-105.454752294470708 -48.856309565596696 -16.463890337529250 16 22 22
-105.452999989989365 -48.180993790102733 -16.028244458831495 16 22 20
-105.452241572524755 -47.531029847674688 -15.702721033758763 15 21 19
-105.449023675868204 -46.795423884854380 -15.046679116678405 12 18 18
-105.445945398338367 -46.056386470771933 -14.390605727938038 9 15 15
-105.444732855290980 -45.370912539292902 -13.954806192223003 9 15 15
-105.449683683548017 -44.884510193222958 -14.290021171411951 14 20 20
-105.454763065243995 -44.399591746203562 -14.625159376557974 18 24 24
-105.459972869305787 -43.916153605967459 -14.960219950549885 20 26 26
-105.463602210640104 -43.374999724713192 -15.074912939768495 13 19 19
-105.466516370052176 -42.804351502273036 -15.079392784717271 20 28 30
-105.475550190048921 -42.444539516913018 -15.854786956158819 27 36 38
-105.480450206241343 -41.936292022137827 -16.079392221834496 16 26 27
-105.486343845638530 -41.459650542180455 -16.414055689907343 21 31 33
-105.487287512429504 -40.798657433411051 -16.087831522310722 25 36 38
-105.484161786837191 -39.979607532305018 -15.210886671443632 22 32 34
-105.466011619634713 -38.588644927654435 -12.351556518136704 15 25 27
-105.455710243754311 -37.469315895881302 -10.483405433426270 7 17 19
-105.454053873343753 -36.661098780575024 -9.716505025691106 8 16 19
-105.456791726565058 -36.010522565726987 -9.500174184054515 7 17 18
-105.460548294697375 -35.391236549902715 -9.393892791879438 7 17 18
-105.466154956677883 -34.836953296183296 -9.507774984904984 7 17 18
-105.477762862226484 -34.515160804303193 -10.392405253816463 4 14 14
-105.498644068005191 -34.565414659735055 -12.488217281856407 4 14 12
-105.510512656648046 -34.254979285754601 -13.372605936349316 10 19 16
-105.511802014373259 -33.506765565458892 -12.825396427124076 10 16 15
-105.514950584562314 -32.824077710978017 -12.498340756215697 8 15 13
-105.524862982281704 -32.415846125684354 -13.052095256511336 13 19 17
-105.521059388802470 -31.418110613467142 -11.733878456395018 17 24 22
-105.524847063871746 -30.729363437785832 -11.406579411539639 15 22 20
-105.532907929503381 -30.215552497377775 -11.629729805018854 13 22 21
-105.541161569081098 -29.702556086128453 -11.852779591745161 15 24 23
-105.548806399408818 -29.154439336148549 -11.965623257098940 13 21 22
-105.551850656730267 -28.389336679641872 -11.417748056226799 19 26 28
-105.553549102477447 -27.548187585335672 -10.649581701344545 20 25 28
-105.554721806441322 -26.666080022164707 -9.771229580704642 18 26 24
-105.572770877840128 -26.556989662191270 -11.204883392658132 16 25 24
-105.590162701501399 -26.417461879837607 -12.528306052434999 14 23 22
-105.606125512718336 -26.209070579732831 -13.631403423808251 16 25 24
-105.613674816616395 -25.589318311982687 -13.523312399208550 14 22 24
-105.626887891367844 -25.235692493193429 -14.185784667260094 10 18 20
-105.628732314313808 -24.308654213433648 -13.196714808078212 10 16 15
-105.642385396023556 -23.956802860859959 -13.858958312836961 7 13 11
-105.660038267706369 -23.802829193539129 -15.071545901965578 10 16 14
-105.673296430358761 -23.419033849840520 -15.623448265275130 12 18 16
-105.675472066576376 -22.444535378311762 -14.523849601474751 11 17 17
-105.678744493975600 -21.503878505290363 -13.534236772879098 9 18 15
-105.682363754177132 -20.557788251532266 -12.544513949177087 10 19 16
-105.697401874016407 -20.211915986843987 -13.206033310686905 11 20 19
-105.714111290123540 -19.950284773700893 -14.087603764169245 9 18 17
-105.729553097012797 -19.610819822430024 -14.748864049482364 9 18 17
-105.742317201631465 -19.109402717748473 -14.969636853574201 8 17 13
-105.753188179368209 -18.484162625811024 -14.860013240527053 8 17 12
-105.766483539935962 -17.983234392261743 -15.080526861397772 10 16 13
-105.778631982082132 -17.398841428843795 -15.080730538662664 10 16 13
-105.788275301688131 -16.644611076645205 -14.640445339843779 10 15 12
-105.800339091291619 -16.015503878413597 -14.530290895755883 9 14 12
-105.818890882766766 -15.771451487979263 -15.410799015524333 9 15 13
-105.833563886367628 -15.272292835630623 -15.630635361501902 7 13 10
-105.841783424231423 -14.339087556057791 -14.749438034142997 4 10 6
-105.851087268559525 -13.444586714648560 -13.978182458983269 5 11 7
-105.866741416948543 -12.941861177242169 -14.197586144397008 8 14 10
-105.889217280046495 -12.882839309957463 -15.517747929307490 6 13 6
-105.905390907557305 -12.384086502226086 -15.736862204387648 4 11 4
-105.921225739073066 -11.841014995916961 -15.845735868018380 3 10 3
-105.932332088638944 -10.936628059056478 -15.073719743078243 3 10 3
-105.953854333339279 -10.754812020427323 -16.063025063092084 0 7 0
-105.986041336379458 -11.354914789534030 -18.923780759829640 0 6 3
-106.004797707245416 -10.956866085965720 -19.362340631249026 9 15 14
-106.020240988441387 -10.282677381904175 -19.140174611633341 10 16 16
-106.037251350917856 -9.699884626236338 -19.138035891135246 10 16 16
-106.055783886347797 -9.210185442026352 -19.355928479257528 12 16 19
-106.071775162081906 -8.485194811755790 -19.023164345759795 11 16 16
-106.092706128004835 -8.137347416464085 -19.571026035993270 14 20 18
-106.116699159997523 -8.030315920672074 -20.669238429888139 9 15 13
-106.133231496927635 -7.256124966178522 -20.225863013301733 5 11 9
-106.151831618757413 -6.623835968435385 -20.112614362142267 12 18 16
-106.171893166098201 -6.087428793585657 -20.219397380098684 22 28 25
-106.191809776041652 -5.501986676420580 -20.215895591983013 25 31 27
-106.214155959008053 -5.112452956651579 -20.652650460592611 11 17 13
-106.235828762519290 -4.625559548242257 -20.869011873968958 12 18 14
-106.258843202845938 -4.238528979457524 -21.305421284357436 12 18 14
-106.280756486719469 -3.702931550352224 -21.411310102784086 12 18 14
-106.310988655379987 -4.022552924998715 -23.389017042119377 14 20 16
-106.340339395540724 -4.250577100626277 -25.146370739970763 16 22 18
-106.369314294972469 -4.436168969810991 -26.793482130864533 15 24 21
-106.382379580734593 -2.735572210996569 -24.365841371434442 14 23 20
-106.403961889272168 -1.948004095227921 -23.920187763582049 14 26 22
-106.426082442872641 -1.157234173754796 -23.474309618930988 19 25 23
-106.455494288678750 -1.248370131557631 -24.900466488482465 19 25 23
-105.474424782824428 -150.087543205120539 -18.516503922248916 196 201 204
-105.511489493729826 -148.438314057917808 -24.058692881736420 154 158 161
-105.504361399381565 -147.916707390141113 -23.956613212183214 18 22 25
-105.502587776168568 -147.266848035225081 -24.518445460852661 10 14 17
-105.498294788949664 -146.682890676082138 -24.748227947516654 116 120 123
-105.495871654993934 -146.058604012561574 -25.199248802419476 66 70 73
-105.491787049534807 -145.477548639702178 -25.428901728361240 148 152 155
-105.488690022146656 -144.877458035868131 -25.769137024454295 135 136 140
-105.483909544393299 -144.318956373447634 -25.888031811724318 80 81 85
-105.481007828421340 -143.721750261047646 -26.228143979985987 83 84 88
-105.479101564670898 -143.106863856451241 -26.678820804366893 95 96 100
-105.477295991734223 -142.494230628552629 -27.129426265527997 114 115 119
-105.474685304299229 -141.902693736412061 -27.469340850603061 100 101 104
-105.469446773055907 -141.368579797604298 -27.477344849081618 90 91 93
-105.467008091635037 -140.779628396189793 -27.817150533314219 85 86 88
-105.463744971591296 -140.210403339428808 -28.046288688062418 124 125 127
-105.464218104508490 -139.571304572076031 -28.717794217087459 162 163 165
-105.462039836386268 -138.987984377173518 -29.057417355653115 155 156 158
-105.461780971787135 -138.371932292026457 -29.618176953782807 145 146 149
-105.460689762898113 -137.775597160229921 -30.068272901141484 111 112 115
-105.458756901744906 -137.198159798110709 -30.407718082901226 88 89 92
-105.454120551287247 -136.671590181806010 -30.415356342654604 72 73 75
-105.449543887459853 -136.145069430140722 -30.422965545540336 59 60 62
-105.451543020220200 -135.507645786750629 -31.204582683499098 57 58 60
-105.448030913268383 -134.967545175770141 -31.322681275258930 54 54 55
-105.445514207071440 -134.412726919514910 -31.551314051746346 53 55 54
-105.435556930629474 -133.979307140238745 -30.895385676662130 45 47 46
-105.435026721772260 -133.395048728533794 -31.345088931781817 46 49 46
-105.429853566738856 -132.885452448472705 -31.241950397007059 42 47 43
-105.428503839301499 -132.318480905456966 -31.581008879662363 49 51 48
-105.418695572902138 -131.878683574386315 -30.925074866028979 50 52 50
-105.414601616848088 -131.353618139234641 -30.932438162866561 54 56 53
-105.406750182122664 -130.882190069929834 -30.497611368587343 53 55 52
-105.401785768054722 -130.369231081953387 -30.394407586892072 54 56 51
-105.393995912440531 -129.894329887949908 -29.959587083994336 53 55 54
-105.391974469247941 -129.341772690012192 -30.187959654148983 58 59 60
-105.389043424448474 -128.802644968586407 -30.305770253325903 62 60 61
-105.384234517598230 -128.288170632850722 -30.202507675746489 61 56 55
-105.369830832599732 -127.890869529404625 -28.994040234997556 65 56 54
-105.357352151957585 -127.464616770751050 -28.006667662534937 60 50 47
-105.347776461483946 -126.999818015531062 -27.350879737594312 60 41 37
-105.339182832171176 -126.520826392078519 -26.805626977203616 61 36 29
-105.331576215823759 -126.028456807292883 -26.370898624190460 69 39 31
-105.323016380868395 -125.544343196291436 -25.825682419885908 80 48 37
-105.321292165492039 -124.986567843924618 -26.053966510356958 94 57 44
-105.316679061728095 -124.459497127226129 -25.950739922129372 102 64 48
-105.313071852952760 -123.922307656745886 -25.957995159523449 110 73 57
-105.308515312961148 -123.394458337024247 -25.854749525933073 113 76 58
-105.303984808825689 -122.866082587654248 -25.751496855683200 114 79 59
-105.298496030132299 -122.345958067002741 -25.537758801734384 115 83 66
-105.284161073279833 -121.901321336634126 -24.329745731063241 115 85 70
-105.268827632955833 -121.458954458063801 -23.011328081817112 113 85 74
-105.253478808585754 -121.010078569443706 -21.692984792756135 115 88 77
-105.241085568620619 -120.531619724148158 -20.706108729242430 112 89 80
-105.234639456505619 -120.003765520761888 -20.382049340908026 90 70 62
-105.228207520074761 -119.474293206857141 -20.057999826999378 17 2 1
-105.222784654252706 -118.936326412830212 -19.844413900041928 26 13 6
-105.218375263534909 -118.390679925088634 -19.741281065934288 25 15 9
-105.212985916650752 -117.850833031654744 -19.527698456439481 27 16 9
-105.212614296563132 -117.279606953289303 -19.866332809960994 27 14 6
-105.207262512617163 -116.738964904012846 -19.652740415423864 28 12 5
-105.207947477852244 -116.164143284531889 -20.101765197780054 25 11 2
-105.202632354018732 -115.622975813649873 -19.888160673599344 28 9 2
-105.200351049853197 -115.065809259620607 -20.005846121849999 27 8 1
-105.195065378893659 -114.523299254464391 -19.792241326895038 32 13 6
-105.195852996073810 -113.953129817591474 -20.241169113659936 28 10 3
-105.194647006712358 -113.393457810626813 -20.469224809800380 31 12 5
-105.192450777072182 -112.838765874651926 -20.586844086202944 29 10 3
-105.188244013165431 -112.291853195230473 -20.483627349670513 28 12 5
-105.186083277020018 -111.737716809087601 -20.601223927553349 30 13 6
-105.181904840464668 -111.190272035354553 -20.497999116427167 31 14 7
-105.179777853791975 -110.636689765084100 -20.615573844884892 32 16 9
-105.177668692654834 -110.083655768399211 -20.733134402012098 30 12 6
-105.176599784566079 -109.528913554107476 -20.961073774109053 31 14 7
-105.171453682621447 -108.983200205383781 -20.747435183440331 29 11 4
-105.167341052265826 -108.434691164232774 -20.644189845892868 33 15 8
-105.165293580004970 -107.882760269123551 -20.761709536494493 31 14 8
-105.161204528631600 -107.333714757212107 -20.658458441005763 36 18 12
-105.156095006768325 -106.785026493031921 -20.444832972850804 36 18 13
-105.147896535418198 -106.237131879069779 -19.900100423340461 36 17 10
-105.141762459896043 -105.685814367761424 -19.576133277384997 37 18 11
-105.136666749227345 -105.132786438169688 -19.362545872357970 35 16 9
-105.135722811600274 -104.579430634885256 -19.590411187989474 36 17 8
-105.135834772766188 -104.027624381330071 -19.928614299884401 40 21 13
-105.135967610191912 -103.477449908782035 -20.266790627906516 45 24 15
-105.136121197960705 -102.928906971202196 -20.604940234826643 52 31 22
-105.138379862229968 -102.384547395284301 -21.163757488762343 62 39 31
-105.137533905994914 -101.838262467642380 -21.391503146356655 63 40 32
-105.134615346078363 -101.289426074148864 -21.398548824126721 71 47 39
-105.130662084239503 -100.738498909653970 -21.295252136185496 79 55 47
-105.127765830219289 -100.189391312510622 -21.302289934526613 87 62 50
-105.130128587570169 -99.653456307397079 -21.860970672349453 95 68 57
-105.132517617939953 -99.120237960846723 -22.419610877318718 100 72 61
-105.133880702736093 -98.586558087590333 -22.867887756939581 98 68 58
-105.133160009318445 -98.048151692839156 -23.095492391534577 99 66 57
-105.135622494514962 -97.521995050456212 -23.654024766298051 101 68 58
-105.137055062156847 -96.994561029995410 -24.102204113863223 99 65 56
-105.142742874877769 -96.486358037037093 -24.991585351823289 104 68 59
-105.142110415880879 -95.955281674743958 -25.219072323667405 104 67 58
-105.144678436025600 -95.439714467941684 -25.777445208493305 104 66 56
-105.146211604881984 -94.921782009906778 -26.225478624427041 109 69 59
-105.145642689919896 -94.395317316243293 -26.452887726800839 108 69 59
-105.145093180416154 -93.869936419006379 -26.680276389608736 106 69 61
-105.144563377694269 -93.345639009961118 -26.907644471871549 100 70 62
-105.147255762366186 -92.840924920322010 -27.465846144546845 68 50 43
-105.151045245398777 -92.345362397044340 -28.134287652377509 71 64 56
-105.147375730036288 -91.806085069793568 -28.030735303467424 34 32 27
-105.140505281114670 -91.245313969079703 -27.596358861646593 69 70 65
-105.134713287450523 -90.689617573413287 -27.272273138959292 62 61 57
-105.134300137123304 -90.169911906859426 -27.499538150004184 40 31 28
-105.129608384880498 -89.620099026338494 -27.285724398535677 87 67 64
-105.128158962872234 -89.093399196778904 -27.402698267913649 95 63 63
-105.124574812225134 -88.550554989567473 -27.299141796503648 104 66 64
-105.126402522093684 -88.050221297078068 -27.746853152092143 114 71 69
-105.127179463546980 -87.543169780046100 -28.084277456711078 116 71 68
-105.126902396825272 -87.028584740384147 -28.311424656640554 114 72 69
-105.121236869121063 -86.467940448333820 -27.987329364254578 111 70 68
-105.115585362331316 -85.905656306001887 -27.663244244113969 116 71 69
-105.111033916728957 -85.351702715509461 -27.449405992837455 120 75 72
-105.111932773925105 -84.847865467319750 -27.786738887298981 125 80 77
-105.111774677878103 -84.335133171702935 -28.013810100840288 129 84 81
-105.109467919550497 -83.801903572759883 -28.020402446250785 133 88 85
-105.107186186958501 -83.268661571295922 -28.026982947100521 132 87 84
-105.103839139596531 -82.724076568052766 -27.923330965179673 134 84 85
-105.101608727130355 -82.190535868756996 -27.929889989303973 134 83 85
-105.096125624608391 -81.621360068161223 -27.605795244439463 125 73 75
-105.089569725460237 -81.038392727866324 -27.171496800129603 118 67 68
-105.081938769005319 -80.440817508550154 -26.627004140866973 118 70 70
-105.079810642477071 -79.903951872289241 -26.633548456995641 115 71 70
-105.079909241575052 -79.392989955201955 -26.860478645063893 112 72 70
-105.080044238361538 -78.883096618120533 -27.087380421171900 112 73 68
-105.074717475858620 -78.306748347008664 -26.763284713620322 113 75 72
-105.069418772762660 -77.728748197909738 -26.439192586154604 110 72 69
-105.058640252487308 -77.078853681986359 -25.564167604676243 106 71 69
-105.042368499520279 -76.352985287400770 -24.138258179585023 103 72 74
-105.017279465318907 -75.503286870058773 -21.830970476880537 93 77 77
-105.006550796737216 -74.835374700026946 -20.956107111287821 21 16 16
-105.004692649945028 -74.284172458455188 -20.962669843916757 17 21 19
-105.000663261086032 -73.702126598708219 -20.748871010323484 13 22 19
-104.990029098624973 -73.024884832943158 -19.874058467542255 14 21 19
-104.988291234827273 -72.470875463751241 -19.880592552373685 12 18 18
-104.985489917838606 -71.900610441991034 -19.776943832243973 11 17 17
-104.981623986629486 -71.313272390437433 -19.563121276260119 10 16 16
-104.977803088084286 -70.724811603408540 -19.349288733684432 9 15 15
-104.975140079596969 -70.152266383307705 -19.245597318468782 9 15 15
-104.974750786347869 -69.613763216872471 -19.362185523558111 10 16 14
-104.969963814463014 -69.005429031859364 -19.038160829105294 10 16 14
-104.974134633303592 -68.538270194315373 -19.595268648865954 11 17 15
-104.972796211176956 -67.983149047199063 -19.601623086259821 11 17 15
-104.972629023946055 -67.446384219491080 -19.718087142997575 11 17 15
-104.971405489489072 -66.891445464391467 -19.724384741071390 11 17 15
-104.963545348581903 -66.222791061967897 -19.069874491683521 11 17 15
-104.959089096582730 -65.608471557292503 -18.745753191872979 11 17 15
-104.952458206377912 -64.953489059759463 -18.201373026297887 12 18 16
-104.952591762798576 -64.414299046328196 -18.317718171958546 11 17 15
-104.948320223861018 -63.795463454513126 -17.993554992406104 12 18 16
-104.950823899179923 -63.296772578553288 -18.330067173183892 13 19 17
-104.952280247870505 -62.779077854252002 -18.556417122667966 10 16 14
-104.952689564796117 -62.241560293660605 -18.672613130051047 9 15 13
-104.952052369944795 -61.683400681046322 -18.678663379171752 9 15 13
-104.953728490319918 -61.167966259555875 -18.904884924202889 10 16 14
-104.955481203934681 -60.653553491045628 -19.131059310903424 10 16 14
-104.950591239411267 -60.008516975702832 -18.696602798379075 11 17 15
-104.943538374162628 -59.316801117577604 -18.041943734231864 10 16 14
-104.934324124701433 -58.576767547683097 -17.167098257522355 7 13 11
-104.929673499028439 -57.923327036549793 -16.732613752662843 5 11 9
-104.931830875294622 -57.405809789075299 -16.958626506099534 6 12 10
-104.929593254069275 -56.796084882413105 -16.744255411346614 6 12 10
-104.927444759544585 -56.185182461072458 -16.529853799435728 7 13 11
-104.929869168601854 -55.668496081681866 -16.755730252757871 8 14 12
-104.931265751532706 -55.128686655848313 -16.871477546788412 11 17 15
-104.930516648486901 -54.540538077325486 -16.767031138976535 13 19 17
-104.926505202921476 -53.877742223128124 -16.332337151790341 15 21 19
-104.930431899570948 -53.387246551106358 -16.668084206690253 15 21 21
-104.931099941844735 -52.822643186703118 -16.673576363618508 17 23 23
-104.932989862444003 -52.283419079494912 -16.789081621620795 18 24 24
-104.934984008628376 -51.744630402502679 -16.904532536358545 20 26 26
-104.938202326093688 -51.232307133654871 -17.129984274930905 17 23 23
-104.937057889753447 -50.615733927079262 -16.915160697267396 12 17 20
-104.933793282300186 -49.944787461186110 -16.480193323629038 12 18 19
-104.937344786031986 -49.432647864302822 -16.705483776405742 12 18 18
-104.936547299621665 -48.812967946853220 -16.490526198020717 14 20 20
-104.936985722307327 -48.219462220257647 -16.385566825785730 13 19 17
-104.931976290182220 -47.486906397700231 -15.730350576506680 11 17 15
-104.931552600467100 -46.862715930841112 -15.515260604414891 11 17 15
-104.925697160017052 -46.096183014868345 -14.749939940989293 9 15 13
-104.924428383936728 -45.439647541462662 -14.424728313798568 6 12 10
-104.926627183185857 -44.867621480331408 -14.429564567383068 9 15 13
-104.933395533607566 -44.411607349588458 -14.874456133952776 12 18 16
-104.935858860708038 -43.840358838963830 -14.879157834601926 14 20 20
-104.938460241173402 -43.268944981768641 -14.883795192989908 12 18 18
-104.942307459781475 -42.727225782527931 -14.998389769569542 17 25 27
-104.954022336875710 -42.396851311815354 -15.883057202279616 26 35 37
-104.962552136285296 -41.979448142507763 -16.437567540589157 17 27 29
-104.965709587310357 -41.411169409853365 -16.441906605315552 18 29 31
-104.974513486801030 -40.997512870843082 -16.996247249138094 22 33 35
-104.970281120954581 -40.211573134031894 -16.230349876541624 21 31 33
-104.956364596484335 -39.137991685491066 -14.474316248589588 20 30 32
-104.933911455595180 -37.801128480840354 -11.838205520684511 13 22 25
-104.931370820724624 -37.027956217190557 -11.182226292693286 9 17 20
-104.936651906306864 -36.477617983826107 -11.296223632275513 7 17 18
-104.938834140579374 -35.829775115492964 -11.080130461130693 7 17 18
-104.941197454718221 -35.180603732374067 -10.863964337068666 7 17 18
-104.954583230842545 -34.861710536798370 -11.747714234877435 9 19 20
-104.977844209422543 -34.847914787703431 -13.621329312680587 10 20 21
-104.989334672347894 -34.472407997994935 -14.284850904150829 10 18 20
-104.985905092835139 -33.624130380668817 -13.408352271523540 11 19 21
-104.997738245219864 -33.250878073613741 -14.071686715008582 13 21 23
-104.993657138268617 -32.362582905605365 -13.085052806706443 14 22 24
-104.994091209233943 -31.608315747577869 -12.538314774810942 14 22 24
-104.989419665990610 -30.675555291759213 -11.441562147831462 14 22 24
-105.002011413047939 -30.302876601016820 -12.104527777704476 14 24 25
-105.016889200706757 -30.004515491942456 -12.987352555228540 14 24 25
-105.024525301934219 -29.458838546615294 -13.100175282419002 14 24 25
-105.034469733681576 -28.985810664671348 -13.432863668736786 14 24 25
-105.033053437486203 -28.112918013065503 -12.555655263184804 15 25 26
-105.039233085717413 -27.492541083955640 -12.448225907114505 14 21 21
-105.056069881558912 -27.241575147565573 -13.440484524437608 14 20 20
-105.069944132160046 -26.883354347734020 -14.102687786677194 14 20 20
-105.085033328232811 -26.565712117591723 -14.874751012485376 14 20 20
-105.094103694837756 -26.024449654663538 -14.986842151550491 12 18 18
-105.101339716237078 -25.407117971904150 -14.878876083927054 11 17 17
-105.113936444753534 -24.980959634045124 -15.320672053719761 10 15 18
-105.126736275280450 -24.556663828358190 -15.762351688227625 9 15 15
-105.140756833408858 -24.173198028497367 -16.313885931994406 10 16 16
-105.159020087047267 -23.949147044059515 -17.305185087675653 9 15 15
-105.152285900735436 -22.741468228389554 -15.547095785332203 9 14 16
-105.149956588899357 -21.683711998742389 -14.228791517327551 7 13 9
-105.157966491784251 -21.019739424353549 -14.010076440661493 5 11 8
-105.168239724461046 -20.434971962381429 -14.011181066610646 4 10 7
-105.190621567746305 -20.337546868121724 -15.331783133984572 5 11 8
-105.207255480937960 -20.000842484588482 -15.992444703818279 5 11 9
-105.220189223602034 -19.502232753470441 -16.213107455944311 2 11 6
-105.235316748472769 -19.087271382810460 -16.653577445427771 2 11 6
-105.245848291347031 -18.465263405530830 -16.544082947075424 5 11 7
-105.255711512882158 -17.800184194508645 -16.324492640286564 6 12 8
-105.252524490336569 -16.540913624698220 -14.565237446798875 7 12 8
-105.264988191277268 -15.953917078066725 -14.565317105327040 7 12 8
-105.289994208947022 -15.924000901241275 -15.994827758390073 6 12 8
-105.306714959942113 -15.512348944438756 -16.434501488497432 4 10 6
-105.310674690218690 -14.494085620272173 -15.334499813828444 0 7 0
-105.315071171877406 -13.469660144114863 -14.234352628921300 3 10 3
-105.333656094461290 -13.099322855014208 -14.783568158021495 5 12 5
-105.353399666992743 -12.775561769998564 -15.442608845612284 6 12 8
-105.373380799427522 -12.454635064980208 -16.101506709662402 6 12 8
-105.387335000805905 -11.822473185986350 -15.990479342424862 4 10 6
-105.398081290821864 -11.008568829998140 -15.439421855920671 4 10 6
-105.418040066498662 -10.645569993865362 -15.987904600027491 1 7 3
-105.447862131487199 -10.787694288955890 -17.745917028319553 0 3 2
-105.475183001035319 -10.800295919803535 -19.173882607025206 6 10 9
-105.492358453531324 -10.264246125152770 -19.282042644168712 10 14 15
-105.509017085506642 -9.681567204920778 -19.280071018571419 10 15 16
-105.522666709279704 -8.910825930257301 -18.838039172790843 11 16 19
-105.545894699661147 -8.655699287333386 -19.605565322954760 12 18 18
-105.561131588300881 -7.929639440425536 -19.273173091641127 11 17 15
-105.592265191959086 -8.107729016171309 -21.030187875628030 12 18 16
-105.608984613001667 -7.430307067568387 -20.807444636494239 15 21 19
-105.630894422372705 -7.040754947148493 -21.244408454143240 12 18 16
-105.645241897575715 -6.167055953677948 -20.581384784310757 23 29 27
-105.663199838531611 -5.484624298316330 -20.358100608924076 12 18 14
-105.686194741266036 -5.095190331785689 -20.794544105410068 9 15 11
-105.709508615584056 -4.707305912024724 -21.230819056720492 10 16 12
-105.732397401716838 -4.271236056645037 -21.556934480736317 12 18 14
-105.753421659896631 -3.686075652216212 -21.552899897690367 13 19 15
-105.785028726449070 -3.804368547120685 -23.088585926085756 13 19 16
-105.821762170897500 -4.284116923650676 -25.394111064458770 16 22 20
-105.841546647288794 -3.554030107404325 -25.059584734371015 15 24 21
-105.859742587076582 -2.667850886172054 -24.394848437526491 16 25 24
-105.876460864076336 -1.622940846199951 -23.399876290790189 14 26 24
-105.907902605124775 -1.658808336801545 -24.714772086592518 17 28 24
-105.941481038053240 -1.856943721506982 -26.359552046134468 19 29 26
-105.006421539419279 -148.636827442131136 -23.300542297578005 200 204 207
-105.002518351999157 -148.048145964891887 -23.530186933075100 141 145 148
-105.002099162600715 -147.396744718322537 -24.091387096715664 6 10 13
-104.998412765633418 -146.811246446143485 -24.320895254074486 12 16 19
-104.993694614239899 -146.247681523731387 -24.439812343306244 102 106 109
-104.989069014893133 -145.684745909624155 -24.558678678169571 44 48 51
-104.985671975759104 -145.102226620353804 -24.788017743565177 128 129 133
-104.985791590034424 -144.461063727043864 -25.348854756861670 173 174 178
-104.986019995527968 -143.822702928540707 -25.909610881442774 112 113 117
-104.985208492954143 -143.206533645260862 -26.359777181144068 92 93 97
-104.982197655653565 -142.630855239501756 -26.588861072255781 87 88 92
-104.980424344632326 -142.037487837590845 -26.928393901681432 115 116 119
-104.978740204810734 -141.445821297778224 -27.267866564082766 112 113 115
-104.975986371386995 -140.874155610436361 -27.496786200494313 93 94 96
-104.970993834083615 -140.339701221215307 -27.504676020742323 85 86 88
-104.967231423757880 -139.787548514251426 -27.623018415056663 82 83 85
-104.963540575979181 -139.235997849804818 -27.741320376967707 99 100 102
-104.968087406585923 -138.564555840565333 -28.632927758059054 138 139 143
-104.972736204808641 -137.897523829455736 -29.524440963866311 167 168 172
-104.972798205386695 -137.301573294336805 -29.973981260922045 149 150 154
-104.967069018692300 -136.789831230679624 -29.871130817416514 119 120 124
-104.961393453034503 -136.277592158901598 -29.768259837745120 101 102 106
-104.968734439269767 -135.590483970418376 -30.880409534055303 88 89 91
-104.970271893405766 -134.986761642493889 -31.440182863074313 67 67 69
-104.971885409123274 -134.385802982860127 -31.999891356667462 63 64 66
-104.964091034743092 -133.907889530403708 -31.675962907141837 52 54 53
-104.962271564862490 -133.354565760623132 -31.904246744665414 51 54 53
-104.955751775407606 -132.860332802468662 -31.690735407871301 42 46 45
-104.954038512055618 -132.308170903950355 -31.918956476831056 47 48 50
-104.946411368799019 -131.826867526938088 -31.594982918705568 43 45 44
-104.944796880036805 -131.275589740120950 -31.823147633634250 40 42 41
-104.942037035419261 -130.738835112574861 -31.940851903783482 42 44 41
-104.938124372458347 -130.215786283101693 -31.948107712691439 49 51 46
-104.929445528759445 -129.744203369674523 -31.513678341917341 43 45 43
-104.921995480075410 -129.257885838378542 -31.189671675564313 44 44 43
-104.914573248297955 -128.769963750258484 -30.865668218207958 55 50 48
-104.897514411052668 -128.376782159530961 -29.658428588978950 53 42 39
-104.875611124249417 -128.024728546891339 -28.009647637191762 44 28 22
-104.858534181057180 -127.618543956494165 -26.802550516193435 50 30 24
-104.852374421679286 -127.105353125808534 -26.589062085150175 57 35 27
-104.843810998358649 -126.613008353801760 -26.154791209902953 65 36 28
-104.840136260667634 -126.075774970190167 -26.162079204918740 73 39 30
-104.834055984321282 -125.559385855426598 -25.948585671010363 84 48 39
-104.832884673750513 -125.001368825575341 -26.176607741425386 94 56 45
-104.830528721565315 -124.454326102390326 -26.294224691356135 100 61 49
-104.826981685181678 -123.917441260535483 -26.301448006788831 105 68 52
-104.823463703979314 -123.380573462140632 -26.308657246885502 106 69 51
-104.821202095349577 -122.834669244238441 -26.426217343975907 110 73 54
-104.816511262306207 -122.306885870675004 -26.323035276904250 112 78 59
-104.804452944729462 -121.829627940203494 -25.557704395889317 111 79 64
-104.794862882172424 -121.332104355294391 -25.013119084536100 114 81 68
-104.782810122812180 -120.847807167297304 -24.247858003103403 115 83 71
-104.770757569811096 -120.359717757755718 -23.482635858190605 112 83 72
-104.751273313366056 -119.912366937832431 -22.055396362440490 111 84 73
-104.737969248956588 -119.422211052191585 -21.179935322651744 107 81 71
-104.724660537245740 -118.927717982688648 -20.304521150928366 64 42 31
-104.720051675544752 -118.382641273226085 -20.201477878041317 70 47 36
-104.716705513711446 -117.830696344348610 -20.208760116818951 51 28 17
-104.720860570384730 -117.242382661027392 -20.877981469757515 51 27 17
-104.717563723733250 -116.692086923980085 -20.885223140361205 57 33 24
-104.718035922298640 -116.125241088702111 -21.223408725888902 77 53 43
-104.714780786751447 -115.575777284834004 -21.230621878537107 94 66 55
-104.711543168883054 -115.026321149247721 -21.237826571854384 105 77 66
-104.705812696587003 -114.486280945684896 -21.024409145425665 106 78 67
-104.707631221288722 -113.918564985111558 -21.472818494701841 100 72 61
-104.703187943464400 -113.373833725602438 -21.369692451165861 104 76 65
-104.705055075558889 -112.809119302537937 -21.818047650498499 106 78 67
-104.699382443244914 -112.268288985313845 -21.604610686657395 105 79 67
-104.701294532142370 -111.706302870464668 -22.052916294962557 104 78 66
-104.694382943770762 -111.168013511698803 -21.729187003170267 102 75 64
-104.692539065255176 -110.616889456648650 -21.846600990011950 102 76 65
-104.689444124316182 -110.068843817739406 -21.853722908224370 108 82 71
-104.688899868390564 -109.516284596172483 -22.081388817884090 109 81 69
-104.682022134425992 -108.974751794161392 -21.757676716650224 102 73 62
-104.678963355964640 -108.426446004888504 -21.764784012715666 104 75 65
-104.674643095901331 -107.879587268424714 -21.661621017093552 100 70 62
-104.671606488133619 -107.331016161342333 -21.668720437824675 97 68 61
-104.666028454376971 -106.784248529687900 -21.455299334118109 98 69 62
-104.660455713154079 -106.236396676923547 -21.241886858914057 98 70 63
-104.654888107860344 -105.687460378314171 -21.028483089445018 97 69 61
-104.653168244298044 -105.137183740900667 -21.145829025062625 95 68 59
-104.651462131408721 -104.587452412241078 -21.263162769268462 100 73 63
-104.654905077994698 -104.040098859301324 -21.821444285112761 101 74 63
-104.654517276171589 -103.493274146085071 -22.048976319490919 102 73 62
-104.656719367759322 -102.949540609891130 -22.496955308541686 102 73 62
-104.657655276995428 -102.406708429048933 -22.834671871865481 100 70 60
-104.659899953840736 -101.867052216000673 -23.282588518339594 101 71 61
-104.659584268569361 -101.325936889988668 -23.510027282815912 99 69 59
-104.663162438267051 -100.792173802088143 -24.068104214903173 99 67 57
-104.669353377840423 -100.265847953413584 -24.846572421439163 100 69 56
-104.667802101107753 -99.727535413509969 -24.963714553229465 100 68 56
-104.674045375309262 -99.207186631765921 -25.742096198106196 98 66 52
-104.673827675119654 -98.674765518864575 -25.969398592952103 102 67 54
-104.673626327800633 -98.143430535272032 -26.196681984566226 104 68 54
-104.670839240323403 -97.605744423513457 -26.203549990920635 104 68 55
-104.669365685150183 -97.072047417575121 -26.320607430973553 105 69 56
-104.671817879934011 -96.551678192189996 -26.768226270924231 104 67 55
-104.670376749392901 -96.019880134280868 -26.885248652318239 105 67 56
-104.670256753309445 -95.493428941867620 -27.112442854464092 106 68 55
-104.664921954943125 -94.947754419772139 -26.898894135854704 107 67 55
-104.663522211636476 -94.417036849831646 -27.015885595732158 107 67 57
-104.660826957731018 -93.881239621569151 -27.022690225993927 101 67 55
-104.660768934482874 -93.357223679680615 -27.249829713290723 83 55 45
-104.664670147962028 -92.852782774082613 -27.807450274387577 71 58 49
-104.664653865785368 -92.331748798961428 -28.034539098016978 93 92 83
-104.663340748054239 -91.805090544453435 -28.151447331943075 9 10 7
-104.659409648587769 -91.265013597650764 -28.048028354857450 88 87 83
-104.660766226197097 -90.753391300645518 -28.385222412860600 113 110 107
-104.648944274138628 -90.168170565779150 -27.620889770773402 40 35 33
-104.641084300843758 -89.602522730081873 -27.187036912703945 50 34 33
-104.642489856831673 -89.091156105451645 -27.524204907854454 87 59 58
-104.641271999428014 -88.564738552362257 -27.641065091905801 105 71 68
-104.641399608327319 -88.047467107864691 -27.868046348919790 114 73 71
-104.640223795861417 -87.522394506037315 -27.984872574558068 117 73 70
-104.637741326180802 -86.988705080926977 -27.991553712899275 115 71 70
-104.633949042421975 -86.445583123457240 -27.888099670679452 116 72 71
-104.630174267801593 -85.901909104358680 -27.784642934795500 120 75 75
-104.627749344828430 -85.367650440780139 -27.791302402446632 129 84 81
-104.629344383861266 -84.864101271255421 -28.128299280565358 131 86 83
-104.628300685843371 -84.341149395368276 -28.245040473407073 136 91 88
-104.624611695569556 -83.797163659223756 -28.141545907245899 137 92 89
-104.618271019776415 -83.230512817478072 -27.817835431824932 137 92 89
-104.613285317923811 -82.673545928331464 -27.604235944646831 140 90 91
-104.610997795789274 -82.138676176117031 -27.610835970450069 142 90 92
-104.608736385965003 -81.603792793100354 -27.617423644522262 136 84 86
-104.601137650280606 -81.020326342917187 -27.183629227225623 119 68 70
-104.597584385851647 -80.471912227632572 -27.080115313816577 117 69 69
-104.594057724796301 -79.922938492569301 -26.976594433892359 115 70 69
-104.589214246743325 -79.360446661901108 -26.762983778334615 112 71 69
-104.584397191238466 -78.796849791213830 -26.549371857052421 112 75 69
-104.575568039037833 -78.191643070548437 -26.005530965404603 120 80 78
-104.573499080910096 -77.652563930887183 -26.012069760275750 121 81 79
-104.564720993556023 -77.043239206169176 -25.468246828064792 114 79 77
-104.546520475872001 -76.330956084845141 -24.153979162281075 101 76 79
-104.514826270619821 -75.466237564133721 -21.739147075315572 29 20 20
-104.500697106400594 -74.782720119319293 -20.755212243192261 15 15 13
-104.496057387702962 -74.200210882775778 -20.541710159071897 13 18 17
-104.496868026441945 -73.678205245346703 -20.768413388377894 9 18 15
-104.489597596792990 -73.063201051086537 -20.334786544442210 9 17 15
-104.490494248670899 -72.541682328287990 -20.561443613300526 9 15 15
-104.484657705802903 -71.940119436139113 -20.237851329689306 8 14 14
-104.477504282985919 -71.320400640245097 -19.804217039849277 6 12 12
-104.471748590207554 -70.715237020875790 -19.480623141926429 9 15 15
-104.466036010840256 -70.108406685887047 -19.157025775036630 7 13 13
-104.461727467267124 -69.517216347685547 -18.943454616812289 7 13 11
-104.457466658155198 -68.924900089881291 -18.729872212241418 8 14 12
-104.461420261867389 -68.438570957600064 -19.176422391528519 10 16 14
-104.461348414613340 -67.900003938896901 -19.292859388805425 9 15 13
-104.454521688744776 -67.269955355110113 -18.859175137961159 8 14 12
-104.451834783677839 -66.693691858374876 -18.755533428876589 7 13 11
-104.447841078451987 -66.097897081281417 -18.541859048868588 6 12 10
-104.447996727701849 -65.558605063503975 -18.658194675377501 5 11 9
-104.440026653654428 -64.902895841460165 -18.114462651302802 7 13 11
-104.441670044365409 -64.382715475530247 -18.340748706483424 10 16 14
-104.437916995563242 -63.783451271053949 -18.126994909826180 10 16 14
-104.439692409844582 -63.264250555355929 -18.353207721351282 12 18 16
-104.437437302464375 -62.684358192495992 -18.249396795475462 13 19 17
-104.439351323271481 -62.166401464678721 -18.475530493121539 11 17 15
-104.442704847797131 -61.670591269837651 -18.811606456654005 9 15 13
-104.440662023472115 -61.090785422137884 -18.707693084748200 11 17 15
-104.437324573358808 -60.488704485650793 -18.493769461140374 9 15 13
-104.434061772762220 -59.885465010391492 -18.279822050881194 8 14 12
-104.433612454852110 -59.325482128078662 -18.285801188148184 8 14 12
-104.426399431126683 -58.653018627774415 -17.741879453997171 8 14 12
-104.419266143578412 -57.977753269940386 -17.197948415259418 6 12 10
-104.412215017493580 -57.299682918545187 -16.654006943967005 8 14 12
-104.407986339311535 -56.665402795585798 -16.329982238293752 9 15 11
-104.410689497728555 -56.147261462345064 -16.555740315448560 10 16 12
-104.409375187303652 -55.558589604784984 -16.451569687283495 9 15 11
-104.406783367836198 -54.945164511685590 -16.237406127633363 8 14 10
-104.400179044106480 -54.257384217249111 -15.693350856947319 11 17 13
-104.401882900058595 -53.714757628748572 -15.808980151088292 11 17 14
-104.409157205699955 -53.272321421416798 -16.364348790949009 10 16 16
-104.411056065773863 -52.731676340176030 -16.479864399136829 13 19 19
-104.411687814935533 -52.165989796923398 -16.485385068269551 15 21 21
-104.416525161202983 -51.677459778966607 -16.820676238048918 17 23 23
-104.422832505840802 -51.216484707106048 -17.265839413664480 14 20 20
-104.421044169811154 -50.599771701899932 -17.051325314422797 11 16 19
-104.415269019172200 -49.902123594839516 -16.506974944524842 11 16 18
-104.420535028457579 -49.416403693564028 -16.842032117443097 11 17 17
-104.417722143782370 -48.769470580551292 -16.517460344592024 9 15 15
-104.417757814533331 -48.175556955260149 -16.412697846208289 10 16 14
-104.407005770942064 -47.359617976654548 -15.428510492522520 9 15 13
-104.405927533311868 -46.734209848262182 -15.213746187911539 10 16 12
-104.399529107175553 -45.994704418192285 -14.559265964407700 9 15 11
-104.400072321895806 -45.394213968184907 -14.454328357289427 8 14 10
-104.402106310627758 -44.821788510405653 -14.459247566850792 10 16 12
-104.408348358939406 -44.336318313293511 -14.793835235714027 10 16 12
-104.410644180782214 -43.764401400244147 -14.798623950506254 11 17 16
-104.415789316311944 -43.251490629522685 -15.023159953373153 11 17 17
