ply
format ascii 1.0
element vertex 685
property double x
property double y
property double z
property uchar red
property uchar green
property uchar blue
end_header
22.201966634641352 -1.332193076949575 -43.768221267263300 146 143 124
21.769848103649537 -1.037015870907941 -44.451406729845019 143 140 121
21.283308389971225 -0.790081574293372 -45.218919581588381 144 141 122
20.197713165378858 -1.036338339567718 -46.914217401068129 141 138 119
19.221050338004474 -1.203843628830741 -48.440720964650893 137 134 116
18.244396571311626 -1.380878257480955 -49.967130772555237 139 136 119
17.540090634308385 -1.341286402596593 -51.071766269269375 140 137 120
16.999218062618326 -1.171984184569620 -51.923346246913866 143 140 123
16.839678936883885 -0.687410361090603 -52.184587892572353 143 140 123
16.026523946522957 -0.756754287805597 -53.457746814379760 141 138 121
14.723114673863819 -1.250868162417136 -55.489727361811191 141 138 121
13.964455786952598 -1.291824840150907 -56.678390352005721 143 140 123
12.878947799714112 -1.621313088972516 -58.372873162064508 143 140 123
12.828561351888681 -1.065722465770714 -58.465346316444936 141 138 121
12.178941477863177 -1.031900675065142 -59.485225159149735 145 142 125
11.965221454311305 -0.622792344704258 -59.830628929698150 147 144 127
10.770813692790256 -1.078835608621854 -61.693429536512099 144 141 124
10.121273510072783 -1.064208060488754 -62.713148927284379 142 139 120
9.744210759257768 -0.813237176867955 -63.311358963582705 140 137 118
4.172464022965855 -0.748890650909747 -72.064981921215548 137 134 115
3.468730035906745 -0.850851627123566 -73.168433962421886 137 134 115
142.337803189151714 -0.985147064553507 141.647450858054924 134 135 121
135.513463330007909 -1.421422508792249 131.059321842044255 138 137 122
131.636738233952030 -1.891071594942991 125.047787344317385 140 138 123
130.109433833636785 -1.373977233080516 122.669073044461072 143 141 128
128.909934899123954 -0.727533487493050 120.797359584724518 144 142 130
124.213386056231784 -1.654068364182046 113.519845638518149 144 142 130
119.680658795667512 -2.553391521450668 106.496256559722980 142 140 128
120.284195857464383 -1.154383267655319 107.412573537478693 144 141 132
118.264895915790461 -0.959240608304832 104.274812264513116 144 144 134
116.518771782794730 -0.656935801977883 101.559555971834101 145 145 135
114.007598659425128 -0.732512000978291 97.662161823913806 144 144 134
110.840641644487008 -1.145304227291385 92.751656956806983 145 145 135
109.094395716820159 -0.906254523900790 90.037110046832282 143 143 133
107.675993891346792 -0.525338400454963 87.829416649317437 142 142 132
104.563533025929743 -0.990211116351269 83.004235986639685 142 140 127
102.161423998597670 -1.133813975439611 79.277083951442364 142 140 127
99.212797228798010 -1.575011519614876 74.705858573323042 137 135 122
97.903562656805164 -1.216441106719060 72.667887721402195 139 137 124
96.430365991062388 -0.954690306242261 70.376775731263592 142 140 127
95.175748614790066 -0.594943638683664 68.423522977262593 141 138 126
87.861780932818732 -0.510220706907113 57.066537371093204 141 137 126
71.379091801835486 -0.516428330766309 31.472480005633344 143 141 126
68.377549243949659 -0.538524112730256 26.811396449256733 144 142 127
58.063236145360463 -0.963751016831339 10.797776305285424 144 141 124
56.972403997403276 -0.840167836848835 9.101176863644525 142 139 122
55.772243391475584 -0.797226219986567 7.235992095829289 143 140 123
54.900095049630650 -0.554923633985954 5.876988572125924 144 141 124
46.335114681320420 -0.768641926240648 -7.428199200739499 142 139 120
45.080317017709390 -0.868731876357662 -9.376632376587878 143 142 124
43.989551516039683 -0.868264936365148 -11.071996404277712 144 143 125
43.281537386512426 -0.613184477108061 -12.177076046855916 145 144 126
41.479974899558215 -1.128533597428067 -14.968253183327391 142 141 123
40.334549445357396 -1.200277260255159 -16.747583661995208 142 141 123
39.462533895811376 -1.089686709423544 -18.105294934934676 143 140 121
38.481172091504618 -1.065605099093638 -19.631522624262317 143 140 121
37.499823354529383 -1.051136572638582 -21.157657612654987 144 141 122
36.737223731324264 -0.888165416005098 -22.346534499757951 144 141 123
35.919961299052233 -0.772430813143579 -23.619633541714620 145 142 124
34.938660214637451 -0.784878007723621 -25.145514269891009 143 141 122
33.847997471551366 -0.887599155539019 -26.839865290109941 145 142 123
32.538588378377241 -1.163436592378663 -28.871222372999341 147 144 125
31.612007248115262 -1.165938246730541 -30.312524429199385 144 141 122
30.740132797639561 -1.136326617866244 -31.669469646726384 138 135 116
30.141738685724917 -0.908088903598653 -32.604997054284752 134 131 112
29.105825462498217 -1.019187786238231 -34.214594935985161 146 143 126
28.234007690067813 -1.014499085946654 -35.571310723870795 147 144 127
27.580993705471883 -0.849339998905659 -36.590917756482128 146 143 126
26.654519597297892 -0.903029272427736 -38.031744111803619 142 139 122
25.728060676983930 -0.965732132946259 -39.472484951566344 140 137 120
24.637514839075180 -1.166600383032844 -41.165881621392913 141 138 120
23.765783483406523 -1.204810418330102 -42.522197172525210 141 140 119
22.729958869880747 -1.382265496113444 -44.131154407151740 141 140 119
22.350603505002738 -1.043401208825903 -44.729172395698583 143 142 121
21.643053090942800 -0.972928229504742 -45.832573620637078 143 142 121
20.880820945032383 -0.953681366731527 -47.020146881260615 141 140 119
19.899773004130111 -1.120522765994241 -48.544559455315891 139 136 118
19.247003666034274 -1.027159140379707 -49.563544499222871 141 138 121
18.539550886679507 -0.985280989489370 -50.666698091335746 141 138 121
17.832124411667252 -0.950200612757273 -51.769794294451657 144 141 124
17.288873507909074 -0.784593770868006 -52.620198447824009 144 141 124
16.526786544102521 -0.808323964056554 -53.807398778641613 141 138 121
15.326962608567854 -1.209937562555609 -55.668168578261742 140 137 120
14.291297520136197 -1.483471153032178 -57.276213144749647 142 139 122
13.857595661588803 -1.251542340249544 -57.957990101370910 140 137 120
13.423937888907190 -1.023655033890879 -58.639746547263371 140 137 120
13.099779322070447 -0.704978539452954 -59.153103806780678 144 141 124
12.502026682623637 -0.627666817483542 -60.087384535511376 146 143 126
11.411725661912683 -0.987660278432963 -61.779260369313135 143 140 123
10.868754909550645 -0.875908794570005 -62.629244185898386 140 137 118
10.161615191771702 -0.914791996889078 -63.731716228416474 139 136 117
7.825996063268690 -0.691349401349933 -67.383596101637181 137 134 115
6.900012621666463 -0.961011005279703 -68.822434078472725 137 134 115
6.357273648469814 -0.888509660267916 -69.672124756019400 138 135 116
5.869322430901391 -0.770655140522512 -70.437633666152550 141 138 119
5.217153597643289 -0.809449619712987 -71.455545619752257 139 136 117
4.674523228718172 -0.752449399842321 -72.305128692342009 139 136 117
3.858140054373365 -0.956818817158651 -73.575353376791071 139 136 117
150.149908947000370 -0.769324193502323 151.432728628223515 126 128 116
138.193589214228183 -1.974501625337357 132.997759589619392 134 135 121
135.232465810902568 -2.020476911917311 128.428444336903908 139 138 123
133.917815445816956 -1.388751926369141 126.390252664597568 140 138 123
132.877559070413298 -0.651005925419264 124.773994945201679 142 140 127
124.759457615669575 -1.889297989041554 112.263298248673436 145 143 131
121.304033961992317 -2.297630965629112 106.936454506858553 145 143 131
120.812471137969183 -1.394215518171938 106.164587203613024 147 144 135
118.948694024711912 -1.125775334196040 103.284246509139507 145 145 135
116.865325405221824 -0.977779711595880 100.066761895245520 145 145 135
115.166142963708467 -0.670341554622781 97.439854903027509 144 144 134
112.149570369627682 -1.004068650512958 92.789169442112268 145 145 135
109.187830989340625 -1.341433113871979 88.223148285841745 144 144 134
107.488533389774474 -1.097493620773012 85.596950008487624 143 143 132
104.856048765489646 -1.326431117947942 81.537451721827381 144 142 129
103.376257549656827 -1.012539087789293 79.248957825977016 144 142 129
101.402409506827439 -0.959643416131265 76.201775625023856 140 138 125
99.922573545861511 -0.677646151720945 73.913631443938129 143 141 128
96.850788465642438 -1.219570005217835 69.180643636033579 143 141 128
94.712162033060395 -1.312935856867029 65.881219740498466 140 137 125
93.945889329361421 -0.716390621156036 64.689637046708583 141 137 126
90.601757500792317 -0.502810510822467 59.524867783253541 141 137 126
88.298345233541539 -0.757328849765640 55.973359034931690 141 137 126
83.199591256310740 -0.665409217764739 48.101762988020226 140 138 123
81.499973357673440 -0.668423714064932 45.478259962115828 142 140 125
75.250376554944012 -0.534407505816228 35.828753273627086 142 140 125
73.385982898036957 -0.713797912156773 32.953317276759151 140 138 123
58.038233968339554 -0.642568890397741 9.254406783209845 141 138 121
56.942492135594250 -0.528028661756255 7.560249201583588 142 139 122
54.476461645161891 -0.508600593543017 3.751139931074050 142 139 122
47.407992259647727 -0.518267504692016 -7.168025191949738 141 138 119
46.037715119879010 -0.691058158402399 -9.282182807211939 143 142 124
44.722359563486663 -0.839644577613043 -11.312004981130400 143 142 124
43.571773692521845 -0.887408282609595 -13.089113571859116 144 143 125
42.146577446754335 -1.137285685843900 -15.287063467341000 143 142 124
41.215700804859850 -1.055136790453038 -16.727181916133190 142 141 123
40.559469168456431 -0.788505145509023 -17.746294143162885 145 142 123
39.244142712406216 -0.996044669447670 -19.775523404662778 144 141 122
37.983745392495806 -1.177189713924103 -21.720443383326710 145 142 123
37.272641893766377 -0.975402834104563 -22.823496504682538 147 144 125
36.671424606541578 -0.700921592530892 -23.758149322706856 146 143 124
35.356130145911010 -0.953107389969547 -25.786934324184330 145 142 123
34.260566283518912 -1.056788946635156 -27.478930779756183 144 141 124
33.110078212074114 -1.211751321574211 -29.254982707678352 146 143 126
32.234272134410887 -1.173530882660744 -30.610135663041859 146 143 126
31.578230346797696 -0.979208473509393 -31.628594397793023 144 141 124
30.812342917762237 -0.874051618359716 -32.815303298207851 132 129 112
30.101418897258469 -0.734605817093704 -33.917800573292595 142 139 120
29.170761448874472 -0.769868823039201 -35.356815303825670 147 144 125
28.514828430708008 -0.602980012271870 -36.375043685697705 146 143 124
27.584211136920402 -0.654924346747233 -37.813905916757534 140 137 118
26.763499048540595 -0.630326448134011 -39.084416539176715 139 136 117
25.777971741207082 -0.742798459698772 -40.607245851105631 140 137 118
24.792457719867045 -0.864818862623512 -42.129983232619338 140 137 118
23.642110521121523 -1.127162054473672 -43.904997228866023 139 136 117
22.656617571552786 -1.269084995182839 -45.427539824223345 139 137 117
21.835992153793910 -1.288137602762581 -46.697642592982049 140 138 118
21.290154743568095 -1.093050861883683 -47.547112821935883 139 136 117
20.909219321723015 -0.769099248147770 -48.144221413005369 140 137 118
20.308504742142830 -0.628498089829857 -49.077736629691174 141 138 121
19.597908086033769 -0.584059142444646 -50.179412561505927 142 139 121
18.227819890323502 -1.092394388052633 -52.290206637910529 144 141 124
17.572219777146728 -1.019045412989326 -53.307631427869239 145 142 125
16.696796789459682 -1.136115015672243 -54.661369173755077 141 138 121
16.151181655973474 -0.983707527827809 -55.510506420147465 140 137 120
15.385736369578183 -1.022802186760182 -56.695941986785613 140 137 120
14.620314430404932 -1.069220643196732 -57.881313335127828 140 137 120
14.239711136500787 -0.793003936654079 -58.478089455686131 144 141 124
13.639266787350067 -0.709914631239940 -59.411141951289750 143 140 123
13.038857023163757 -0.632495731583759 -60.344152623886686 144 141 124
12.218575176724372 -0.752573515759264 -61.613379853093676 142 139 122
11.288354281255394 -0.976968680564143 -63.050656596721950 138 135 116
10.688027683950295 -0.919276096445280 -63.983504003194383 138 135 116
10.252683971678977 -0.720896378537388 -64.664150164934739 139 137 116
9.432492137939064 -0.869904185173720 -65.933122664654206 138 136 115
8.777278740657962 -0.878765875225668 -66.949886222496758 137 134 115
8.122094952325099 -0.893819153100068 -67.966600212034791 136 133 114
7.631915664253768 -0.765420571227990 -68.731151756204810 136 133 114
7.141779391889088 -0.641554356712432 -69.495677225007398 138 135 116
5.936733837676428 -1.177817505682915 -71.352563004685152 141 138 119
5.391654277479375 -1.117292536372545 -72.201010674582221 139 136 117
4.901613874447477 -1.010856506065330 -72.965402589302755 139 136 117
4.246605523196166 -1.062712286962915 -73.981821680687659 139 136 117
148.713486341617454 -0.571566694209888 146.907505070446746 128 129 115
140.008430705801345 -1.691852391707583 133.567801694220378 136 137 123
136.427570827765294 -1.990378521310051 128.078118145300209 138 139 125
135.603144622460462 -1.145910334830397 126.800945006946648 137 138 124
132.683724488126074 -1.215654280458911 122.322782600961034 138 138 126
123.704558431855475 -1.696880307506213 108.553340123481860 146 144 132
121.336221711380603 -1.634038138517096 104.918765374983224 146 143 134
119.464041662813059 -1.367903388003812 102.042468346944048 144 144 134
117.646960789703314 -1.094873908909138 99.250599976245553 147 147 137
115.002824525952491 -1.225894638142037 95.195667887485740 148 148 138
113.185670821464470 -0.992961486981406 92.404247090715188 146 146 136
109.218182923548241 -1.802822301022358 86.328776291591879 144 144 134
107.456083651476874 -1.589903397277677 83.622082544687288 143 143 133
106.024780249162887 -1.233528737601619 81.420813834925241 144 142 129
104.593457851823999 -0.891351625088845 79.219700354803166 145 143 130
103.217255869322827 -0.536006982752943 77.102940802080866 142 140 127
100.627982030731872 -0.802151457606018 73.134012498691760 144 142 129
97.652690802523296 -1.289132116987514 68.576014574681437 142 140 127
95.835293450300668 -1.213854168677236 65.786333162354026 136 132 121
94.624421436027561 -0.843679918418896 63.922904325692457 140 133 123
91.210098548001056 -0.660974508235074 58.681173148365247 143 136 126
89.006627256750392 -0.858162734816859 55.302980621888139 143 136 126
87.519989212489861 -0.693273278827214 53.019295983636994 143 136 126
84.050380275835664 -0.678068625690003 47.694878746985523 139 137 122
76.065442444802898 -0.546386624427232 35.438951852816302 144 142 127
74.302978922314821 -0.662253389416839 32.735816718118571 141 139 124
64.281828845863572 -0.547908152345663 17.352406496571604 144 142 127
57.454738593969523 -0.678007612170993 6.873300520728435 143 140 123
56.464399881297012 -0.504812768471499 5.349832456173601 141 138 121
55.032799907791571 -0.625026533936817 3.153611389130418 141 138 121
53.987320121217081 -0.509091738396117 1.546253146842702 146 143 128
46.776881226296581 -0.662854567852373 -9.525228767678044 142 141 123
45.345305842679167 -0.886292751289667 -11.720399057649729 143 142 124
43.527555695341150 -1.388980978119493 -14.503962397817247 144 143 125
42.371814554324217 -1.451390622090980 -16.278453967016446 144 143 125
41.767779803379327 -1.140659129138938 -17.212132062102569 143 142 124
41.439629214837638 -0.642214224276601 -17.725429998676134 144 141 122
40.008081923741571 -0.926496803326565 -19.919987426084020 143 140 121
38.521359680244089 -1.263971842134388 -22.198460693597667 145 142 123
37.917419004967343 -0.983582061482903 -23.131871471673804 145 142 123
36.982458167959450 -0.947758605825870 -24.569559204500109 145 142 123
36.323397587568564 -0.720676513598149 -25.586910971008933 145 142 123
34.891879919364087 -1.064612127742828 -27.780868531249297 144 141 124
34.067326040771945 -0.975818345169329 -29.050202054882305 145 142 125
32.966894604557154 -1.099362466548852 -30.739665424465301 145 142 125
32.087199053346836 -1.068983998236247 -32.092876947673062 146 143 126
31.207523972822742 -1.047097542041449 -33.446010851440150 135 132 115
30.493421241866173 -0.908631229675521 -34.546977359968650 136 133 115
29.779346988043685 -0.777020392053919 -35.647886925015086 146 143 124
29.230861368966984 -0.525564699638823 -36.496670493867441 145 142 123
28.351284664963543 -0.534344901908795 -37.849535793303602 141 138 119
27.416539100942714 -0.594369126312490 -39.286339903668363 141 138 119
26.095474858701351 -0.964726176532429 -41.311148265331411 141 138 119
25.050369294029750 -1.131301656498631 -42.915777513907898 140 137 118
24.281244043269254 -1.090016783917937 -44.100279985104692 136 133 114
23.180972261181495 -1.319269639761339 -45.788731619567500 136 133 114
21.694328988111181 -1.868086179154336 -48.065067222028375 139 136 117
20.925250978958175 -1.854059870976781 -49.249311707351268 138 135 116
20.984200252090929 -1.177216846007115 -49.173621037909072 140 137 118
20.712013154699946 -0.769258576055004 -49.601901407512145 141 138 119
20.219067732600607 -0.544634327182344 -50.366120141774729 142 139 120
18.842882124043527 -1.052556339039650 -52.474001490396176 143 140 121
17.687511436702835 -1.390742076407535 -54.245831581497015 144 141 122
16.752975707494727 -1.555917608212478 -55.681653700886329 144 141 122
16.425769182536726 -1.220605699819731 -56.193724064358690 141 138 121
15.546493061712212 -1.354126965460560 -57.545449139327559 138 135 118
15.053733242683691 -1.168040232788237 -58.309359979449255 141 138 121
14.174503726791002 -1.316479904418317 -59.660953787410563 142 139 120
13.792252919403879 -1.046660509634489 -60.256875892422073 143 140 121
13.354833375036577 -0.828004310966015 -60.936737699205622 144 142 122
12.696573328106723 -0.805193328916628 -61.952369773024145 139 136 117
11.651776139518191 -1.126199845773072 -63.555556911419615 139 136 117
11.214469430305982 -0.923708624827427 -64.235306303918293 137 134 115
10.284770305766585 -0.579796066949160 -65.678682537853661 137 134 115
9.350512418222948 -0.833535563160613 -67.113725942366585 135 133 113
8.421054731480993 -0.519907069410577 -68.556905950231226 137 134 116
7.652578449995815 -0.645323363513597 -69.740002947252663 138 135 117
6.663155396335924 -0.979738253967028 -71.258683977945623 141 138 119
5.949955340413453 -1.070114724643024 -72.357726729389753 139 136 117
5.457767275586292 -0.963293681405477 -73.121095173200530 139 136 117
4.634127630066942 -1.168530939982110 -74.387839453586764 139 136 117
145.703188655053026 -1.036275594164068 140.037988278383693 132 133 119
142.494026711864990 -1.133091622017460 135.144421602541627 136 137 123
140.669173123743974 -0.679207246239132 132.354410041756751 138 139 125
135.023347202273669 -1.869361829475975 123.759998407435717 138 139 125
132.478478502136340 -1.780189894066393 119.877028272632458 139 139 127
130.431947750766028 -1.499166017570025 116.751410107175076 140 140 128
123.957504563932275 -2.057660555758742 106.884020864372161 145 145 133
122.021583024783382 -1.799091507712474 103.927436539595220 144 144 132
120.251762505768411 -1.484069037196238 101.223385607457033 144 144 132
118.371150842580676 -1.237453276311181 98.351323153716777 145 145 133
116.767407741492576 -0.880741353893921 95.899968878398198 146 146 134
114.000641524807747 -1.085923106893537 91.682748145613715 146 146 134
112.175310477894485 -0.871675013241022 88.895431696113292 144 144 132
109.297694282010696 -1.179751628386205 84.510582592080709 140 140 128
106.863089663698162 -1.301590069952588 80.798752304139754 144 142 129
104.982277453489388 -1.176519166351898 77.928036913681865 145 143 130
103.212206495012396 -1.015256325450967 75.225688516033699 145 143 130
101.386728501799254 -0.899048433620935 72.439451542187896 145 143 130
99.284303361470975 -0.940284288117241 69.233031357198115 141 139 126
97.181850272999895 -1.002180979879499 66.026837214881226 137 135 122
95.467072136509131 -0.885672970193243 63.409356489603880 140 136 125
93.586116158216214 -0.872147758821012 60.539858073150384 141 137 126
91.760526595702217 -0.848121332920527 57.754623343812511 141 137 125
90.045693841717124 -0.783527870991274 55.137703129876996 141 137 125
62.223580808184280 -0.618245887350233 12.683986193410448 144 142 129
61.007187473272012 -0.548250049664887 10.826288624814453 143 140 123
59.513791317076269 -0.663373656613188 8.548719359271558 142 139 122
57.854185661142751 -0.897820124941673 6.019315744078142 144 141 124
56.693205002850078 -0.831712362798979 4.246007847761319 142 139 122
55.199807049268983 -0.989682166006808 1.968880479503582 142 139 122
49.949149850692550 -0.525023284941429 -6.055600149176428 143 141 121
48.677419875676406 -0.611022982458338 -7.996078003336095 144 141 122
47.516517796553472 -0.634663907560741 -9.768499663334666 144 143 125
45.579861553602612 -1.196310997589424 -12.716289611580635 141 140 122
44.252727785106387 -1.359944133136810 -14.740322245790850 144 143 125
43.202666851973859 -1.345627114753954 -16.344442880439402 145 144 126
42.762183149637721 -0.918682580984340 -17.024982821021950 144 143 125
42.155489485412062 -0.612067973008884 -17.957346523943272 143 140 121
40.939241064178958 -0.740028923777828 -19.813075750078127 144 141 122
39.501328451915327 -1.036757009251936 -22.004459921808291 145 142 123
38.506768368338385 -1.031275588613446 -23.524182138476533 145 142 123
37.733906501475516 -0.876239851101685 -24.708067920134198 144 141 122
37.071913874892729 -0.648515436369962 -25.724023617543253 142 139 120
36.021993440866581 -0.709449526159430 -27.327436869023387 146 143 126
34.916663624940995 -0.821115526038817 -29.014679138014628 146 143 126
33.589645027458559 -1.106940665830762 -31.037509085959385 143 140 123
32.318054446841742 -1.364454700297465 -32.976288142690152 145 142 125
31.489889352291641 -1.302936344449731 -34.243613313317809 138 135 118
30.883464596814818 -1.082618311873470 -35.175217367260586 135 132 113
30.443365945785033 -0.742197911639955 -35.855050878695806 142 139 120
29.615288425085296 -0.701516241871139 -37.122203461875984 146 143 124
28.842668586254177 -0.626264844220586 -38.305383768624040 142 139 120
27.293991976065456 -1.157203631324582 -40.663085744845745 143 140 121
26.299662502164352 -1.272691240555907 -42.181673089398373 142 139 120
25.360785781124108 -1.354412719962534 -43.616277527659975 139 136 117
24.920878131904544 -1.052851822356186 -44.295802413324623 137 134 115
23.982050816130013 -1.150126792934885 -45.730270386997915 137 134 115
22.377935707087190 -1.785970534465748 -48.171229820919962 140 137 118
21.439124168527783 -1.904497296568127 -49.605486586992754 137 134 115
21.387454677892322 -1.317203322676626 -49.697672276605857 138 135 116
21.224960461864612 -0.820075139929643 -49.957629445523935 139 136 117
20.563491680162002 -0.731283164734139 -50.972405647134281 141 138 119
19.292101945703280 -1.149167340813556 -52.909630017548039 143 140 121
18.297968053223940 -1.350468837366545 -54.427427602130990 144 141 122
17.470207853349848 -1.423171615356007 -55.693564867426289 146 143 124
16.919748704446704 -1.272192276876328 -56.540370052788347 140 137 120
16.258414704263558 -1.219525928470062 -57.554838874191091 138 135 118
15.652573265065072 -1.126231917211043 -58.485414462579143 141 138 120
14.824922861590110 -1.227145534791712 -59.751313865751570 139 136 117
14.441000989168870 -0.956678064756005 -60.346443209942890 139 136 117
13.890735660110337 -0.832729507202622 -61.193062876647019 141 139 118
13.063174093384177 -0.953666039233240 -62.458798673098499 138 136 115
11.625468093854082 -1.612960406342694 -64.646549610777612 137 134 115
11.241696779281867 -1.364605463720366 -65.241523365974814 138 135 116
11.246295518530289 -0.778275384368285 -65.249758777121798 136 133 116
10.146183592520032 -0.590947378347356 -66.942574962267571 134 133 113
8.657857043447152 -0.773113527213268 -69.221879407917640 137 136 118
8.052443944593193 -0.749332895103000 -70.151944376726249 137 136 118
7.447067114891411 -0.731181099693327 -71.081968756129015 137 135 120
6.675256395334671 -0.870764227462137 -72.263324743070825 137 136 116
5.958959256369297 -0.966645708134795 -73.360829194769735 137 136 116
5.076202619092456 -1.223017890268840 -74.709624636399582 138 137 117
143.879367544149915 -1.034954130547100 135.034963543030102 135 136 122
138.044081762160943 -1.061188758763796 126.186631389005640 139 140 126
133.596745625001745 -1.772645076583266 119.452834336476485 142 140 128
132.931640333025257 -0.888640789174790 118.431612309106328 143 141 129
127.538573211134093 -2.083081034928308 110.270620270530856 143 141 129
126.094665893675284 -1.580473099767498 108.073875978005617 147 145 133
123.148883698008916 -1.764830188191907 103.609504862455225 146 144 132
121.983032139548925 -1.172091539770577 101.833106311813339 145 145 133
120.817161939073941 -0.590879926462792 100.056835333010497 145 145 133
117.537499869073784 -0.998844498033662 95.089339599528955 144 144 132
115.370303877335175 -0.918928740457937 91.801799608513051 148 148 136
113.369953441850868 -0.781458453144888 88.766425492357797 143 143 131
111.369572772533047 -0.663609741460405 85.731267814699862 141 141 129
108.256605712275601 -1.101581472835101 81.016911293471537 143 141 128
105.699872388290558 -1.299174051196807 77.142568965246852 145 143 130
103.476874600543326 -1.357668246689016 73.772290200426625 144 142 129
102.533325925784524 -0.802615329573404 72.333366170058497 144 142 129
100.699691672704063 -0.703146885482291 69.551203430520673 139 137 124
97.032361599608450 -0.558069751740228 63.987461810364778 138 136 123
68.472691425457555 -0.664835003637162 20.669942266570644 145 143 126
60.362811724215675 -0.604506426643244 8.363662726564939 143 140 123
58.695840564868092 -0.838260773215205 5.837775618601086 143 140 123
57.307107140668492 -0.912245454012868 3.731430367032658 144 141 124
55.695779246374215 -1.141530779970775 1.289736594842651 145 142 125
54.863551806071641 -0.886233055416291 0.022360168110026 146 143 128
53.864391776511894 -0.746983487815680 -1.496538392903375 144 141 126
53.032203995735642 -0.508591999363345 -2.763759768236383 144 141 126
51.810467275657459 -0.534018252085006 -4.617918852172039 146 143 124
50.310470377231880 -0.755313187183730 -6.891237470441126 145 142 123
49.144402559168498 -0.768642174455718 -8.661294004593600 147 144 125
48.089657718922965 -0.718537216512263 -10.263542257374581 145 144 126
46.812301014577784 -0.829098357964091 -12.201075480228951 141 140 122
45.479293986589155 -0.989890899368340 -14.222327606892350 143 142 124
44.591562970689651 -0.858262182291143 -15.572737211010349 144 143 125
44.037813079901511 -0.504580615998631 -16.420054632594031 143 142 124
41.872840055637354 -0.553589704330271 -19.707330995424712 144 141 122
40.484228616279225 -0.809575547820988 -21.811861174726033 145 142 123
39.318276668629409 -0.920896169861646 -23.580964463763792 145 142 123
38.208001350091067 -1.003656964624739 -25.266138357053848 144 141 122
37.598738734639227 -0.736586025853019 -26.196866039662041 142 139 120
36.655504147575812 -0.717282259816590 -27.630425593357728 150 147 130
35.712290128433452 -0.707024584047574 -29.063901870724862 149 146 129
33.934042782924465 -1.318855614007712 -31.754380869261411 144 141 124
32.712493164432431 -1.536447694756654 -33.606651402550852 144 141 124
31.769314848493423 -1.558725002323622 -35.039809861280503 141 138 121
31.160201358067255 -1.339932406016592 -35.970111931557852 137 134 115
30.384097373568665 -1.252773807668548 -37.151748001759699 138 135 116
29.942082739300830 -0.919651774863248 -37.830589787618919 145 142 123
29.054686913583453 -0.930640592417105 -39.179691711642278 145 142 123
27.944594967019199 -1.121175482683558 -40.863843956550141 145 142 123
26.890195114295224 -1.279308380128147 -42.464113753323602 142 139 120
26.504000539205748 -0.927782360009399 -43.058990220724922 139 136 117
25.728066161597624 -0.884912271213560 -44.240251546404380 138 135 116
24.785102987956193 -0.980977289257253 -45.672753394499949 139 136 117
23.340973018784965 -1.483193331925082 -47.859048013225163 138 135 116
22.509410595346438 -1.510891174471279 -49.123829566209196 136 133 114
21.956325360242047 -1.323122875944006 -49.969757128180987 138 135 116
21.124820040226567 -1.365253474122045 -51.234417435642712 136 133 114
20.349032864659890 -1.370057430149444 -52.415258449381469 139 136 117
19.684664466423442 -1.291222420311588 -53.428544992334679 143 140 121
19.076027885117298 -1.172871346008176 -54.358041319256898 144 141 122
18.077534708509475 -1.382473172053852 -55.873667997794030 144 141 122
17.580363560840922 -1.184803841870862 -56.635587698909831 140 137 120
16.860426123498058 -1.178061479221661 -57.732407003115981 138 135 118
16.084814336569764 -1.224952297855685 -58.912898700958721 142 139 120
15.197815407905054 -1.373422895990135 -60.260775330139154 137 134 115
14.867922589649325 -1.056270472356133 -60.771373655406535 136 134 114
14.148112266332362 -1.075791874840035 -61.867983424398744 140 138 117
13.428331850200053 -1.102075066930057 -62.964537898388244 139 137 116
12.262861404107113 -1.520920863710765 -64.730706025009340 137 134 115
11.821708518283060 -1.320412795046036 -65.408595006217809 137 134 115
11.492044813332058 -1.026363588632057 -65.919065125483939 133 130 113
9.338067744467295 -0.627243303887557 -69.216214736444698 138 137 119
8.562826625207421 -0.752971053902068 -70.396072252290509 137 136 118
7.676142148162810 -0.986832464143174 -71.743220343522495 136 134 118
6.733734634330673 -1.279779523654935 -73.173961411608332 138 137 119
6.237239518262172 -1.173839777385144 -73.935260305236113 139 138 120
5.629309699493135 -1.174922472038773 -74.863865353151311 139 138 120
140.688432534249898 -1.621097601574880 128.031395244480422 137 138 124
140.020408352685564 -0.700921607055913 127.011197270331650 140 141 127
136.614871378728594 -0.955008046749796 121.880617944685753 140 138 126
134.438358274811435 -0.712150142236347 118.595857982826232 142 140 128
129.524254230346685 -1.684725979315735 111.201177852228739 144 142 130
126.174384895219688 -2.015201409164495 106.155612514149965 148 146 134
124.668143510528196 -1.556254580388205 103.878279166506474 146 144 132
122.994266696164260 -1.187636282950371 101.349495176001028 146 146 134
119.700118720241221 -1.573562050226589 96.388702593775463 145 145 133
118.137914667642463 -1.194139732906946 94.028101295460431 145 145 133
116.631559375997440 -0.804025731031098 91.751530971379054 145 145 133
114.007741823056051 -0.953973795561842 87.797932194505734 148 148 136
111.607373817904715 -1.023352182409248 84.180042115405399 140 140 128
107.253521919899910 -1.015687914025770 77.615838023693925 144 142 129
105.076551713058564 -1.043691759047932 74.334084854363766 143 141 128
103.346552042826474 -0.871964700496525 71.723317661243556 141 139 126
62.439979410839044 -0.603781410783527 10.030558600358205 144 141 122
61.100993923312714 -0.614958184257619 8.010626477985369 143 140 121
59.929692721437760 -0.534325723456173 6.242106384322625 143 140 121
58.646615227175062 -0.535372114042485 4.306182677409396 145 142 123
56.916389744436700 -0.832445140977942 1.700349107003063 147 144 125
55.465635425607147 -0.967593207389803 -0.486554860630719 147 144 128
54.406157640358785 -0.864765918464157 -2.087081586183757 145 142 127
53.514386632007700 -0.663346733280235 -3.436276860108762 143 140 123
52.510840734538476 -0.543579644594613 -4.952876694005113 146 143 126
51.283716891990622 -0.580694722617387 -6.804338278066069 148 145 126
50.000703772477380 -0.666699681722303 -8.739418260413458 147 144 125
48.997203773320408 -0.578315604346977 -10.255717010804204 146 142 125
47.658311193850039 -0.725278997310074 -12.274295860184793 143 141 124
46.822551111950460 -0.544126506146688 -13.539219069151670 145 143 126
45.651392727947282 -0.599934342097168 -15.306403037878624 145 144 126
44.647961970590558 -0.551701469108218 -16.822321616792237 145 144 126
43.532738404135529 -0.590488517240017 -18.505580929104724 143 140 121
42.193901452388559 -0.795856002246549 -20.523585207938424 144 141 122
41.022795122785141 -0.896357600719369 -22.290334023961861 145 142 123
39.795791958470588 -1.047601610887793 -24.140678553643966 145 142 123
38.512888324081871 -1.250396318033082 -26.074608737752953 144 141 122
37.677285348294518 -1.145065668018713 -27.338826633444853 142 139 120
37.121272919376040 -0.846078336908731 -28.184498669303593 148 145 128
35.894330100584313 -1.039492834499516 -30.034437986065200 149 146 129
34.499650418920695 -1.367259776670566 -32.135326260139294 144 141 124
33.328638296592658 -1.543850221126208 -33.901336923884912 142 139 122
33.108241648518799 -1.027688095861058 -34.244648578637737 141 138 121
32.049111902781448 -1.138709106463074 -35.843140557124627 140 137 118
31.213680468057731 -1.092032951904740 -37.106836757286146 139 136 117
30.266431723872458 -1.137738249760091 -38.537806781021771 146 143 124
29.766591205533658 -0.852502015169265 -39.299350834495641 147 144 125
28.651621347765186 -1.042362956030646 -40.981176440703280 144 141 122
27.704442477146500 -1.113748177762210 -42.411915555356643 141 138 119
27.372490020025808 -0.717729304737924 -42.922340368433595 141 138 119
26.425368815734188 -0.804129863213464 -44.352952510056042 140 137 118
25.310475290467465 -1.031088782245206 -46.034432765345116 141 138 119
24.307457236993343 -1.180422010791680 -47.548515133249822 139 136 117
24.031598876604932 -0.762113708534535 -47.975145721300862 138 135 116
23.196441871636878 -0.792962104779186 -49.238175208570453 136 133 114
21.857873881891834 -1.236191049027131 -51.253859730412586 140 137 118
20.854935665313860 -1.420922701392513 -52.767615918255700 138 135 116
20.299539440955911 -1.251271289767341 -53.612251424671911 141 138 119
19.744185939694290 -1.086775676526077 -54.456854298448206 143 140 121
18.909152803459662 -1.157601486383348 -55.719531536494003 140 137 118
18.297929780596888 -1.051074550767977 -56.647668806841637 139 136 117
18.022435791160021 -0.670751318382020 -57.074082709300768 140 137 118
17.355353081261413 -0.620807580096085 -58.085773342486874 141 138 118
16.072832440096306 -1.095491291212913 -60.017088059138047 139 137 116
15.293891036502401 -1.155805040228830 -61.195848710815397 138 136 115
14.179239527199087 -1.509483053233713 -62.876140362419363 139 137 116
13.344381327870408 -1.634013402423566 -64.138348481879092 139 137 116
13.013188836046410 -1.332388793688082 -64.648165212167157 139 136 117
12.402243877301913 -1.276168704328887 -65.575917673795374 138 135 116
12.127126523111912 -0.932967541896866 -66.002129641150987 129 126 109
7.958779884689648 -1.191975675539594 -72.319757165427717 138 137 119
7.124211502080058 -1.384499591434886 -73.581404040273355 137 136 118
6.793516079398628 -1.126069367239692 -74.091013945236284 138 137 119
148.730733641957244 -1.224394613186517 137.926404228247208 128 129 115
142.956034704784315 -1.148974069756338 129.269758917429016 137 138 124
141.050558058259014 -0.741237501785531 126.407933289079864 139 140 126
135.724431580285795 -0.632155009396702 118.423217031371109 143 141 129
131.405937022279261 -1.335284446013075 111.960273550997442 145 143 131
126.301763204210431 -2.425215681912422 104.325153491900352 147 145 133
125.069415533436555 -1.845956087343529 102.469846315211925 147 145 133
123.388126012099178 -1.480197085364301 99.944637970478482 145 145 133
119.630524634542212 -2.072466365579298 94.320812825082214 147 147 135
118.285862016481502 -1.595192254705626 92.298568752168194 149 149 137
116.941181787246322 -1.131053481546911 90.276468313009417 147 147 135
110.830664578430572 -0.809093617624107 81.112786249657063 143 141 128
109.036954456573952 -0.624035082269960 78.421501805704537 143 141 128
105.784115518379366 -1.167350347815125 73.553426095517040 144 142 129
104.270952265977400 -0.886112491535244 71.281233393387367 143 141 128
102.589414264905088 -0.703243328475387 68.758026497495251 140 138 125
100.851739975465875 -0.564859973919872 66.151274039393087 143 141 126
98.103858401729653 -0.955004248780572 62.037781755228337 144 142 127
96.871245460707570 -0.596945952481599 60.184878419002416 143 141 126
63.240158109406693 -0.580009316255491 9.758370040555860 144 141 122
61.839141832947206 -0.625424198455161 7.657606780117305 143 140 121
59.430096662139377 -0.510402693089326 4.041969706599048 145 142 123
57.748405222510328 -0.771594924042414 1.523407162192484 146 143 124
56.066711145526924 -1.048949152249848 -0.994987756955965 148 145 129
54.778003215655644 -1.090513547362968 -2.927800810598484 146 143 127
54.106868600275220 -0.745556022686559 -3.940589751196399 144 141 124
53.098904990307005 -0.626212938751157 -5.455071802082017 145 142 125
51.922528383742687 -0.626934658980583 -7.220326420084263 148 145 126
49.738254025709423 -0.550155001870293 -10.499663897746899 148 142 126
48.449627848932806 -0.659094620554929 -12.431822534767065 145 142 125
47.497899060559206 -0.553061805450743 -13.862211237342621 144 141 124
45.201458257737386 -0.637239059270570 -17.307949631791814 144 143 125
43.856731742783424 -0.831227655678108 -19.323253492391643 144 142 122
42.680468994852575 -0.921175879033513 -21.087644126753617 143 141 120
41.616526460092558 -0.943881711661126 -22.684742755961537 144 142 121
40.384138883261983 -1.095261816503246 -24.532510000261340 144 142 121
39.264073512600433 -1.178849573329932 -26.212991853837167 143 141 120
38.368650609252626 -1.112914204301515 -27.559045470732542 141 139 118
37.417094825851720 -1.095809105548286 -28.988601560636170 145 142 125
36.353243400716138 -1.168935393536935 -30.585224773300041 147 144 127
35.401730468339281 -1.170459644602314 -32.014609601730456 145 142 125
34.562563541370437 -1.098750990362250 -33.276776427300604 145 142 125
33.835750419263078 -0.952177779678399 -34.371745776647089 145 142 125
33.052806152624044 -0.854140203846999 -35.550221462099813 143 140 121
31.876732598520405 -1.057141053804138 -37.313538898661903 140 137 118
31.374675624746970 -0.764688448052532 -38.074096889186791 144 141 122
30.647989472975524 -0.646875061289937 -39.168830941391462 146 143 124
29.528147346016866 -0.835245593396972 -40.848341012245271 143 140 121
28.295975597323135 -1.120324924946741 -42.694835274680685 142 139 120
27.850232030351734 -0.810825821847053 -43.371649989233617 140 137 118
26.955141589119506 -0.854066224806147 -44.716738853799200 140 137 118
26.116251759327383 -0.861908156059362 -45.978219387569624 141 138 119
24.884145758717253 -1.186518471659310 -47.824338191385408 140 137 118
24.663271750919293 -0.723719903383682 -48.166872180982779 140 137 118
23.487384868434177 -1.022183255933461 -49.929296277111860 142 139 120
22.142956714844061 -1.466631247115272 -51.942164768395003 144 141 122
21.416552539814646 -1.426531811446769 -53.036233768567769 140 137 118
20.971112480399569 -1.165799422763932 -53.712691699805561 142 139 120
20.638099591222442 -0.817613023273091 -54.222116842142469 144 141 122
19.574678116812265 -1.070806070069990 -55.817092224153470 141 138 119
18.960801104770240 -0.963619800584978 -56.743966622029660 139 136 117
18.346964839362528 -0.862119983902345 -57.670801979440682 140 137 118
17.119414881221388 -0.676160741297517 -59.524355927307511 139 137 116
15.775106997827550 -1.207881312829496 -61.536383614928781 137 135 114
14.543189704500733 -1.657045695809059 -63.381310598075913 139 137 116
14.266730070810524 -1.302802945366691 -63.806994080131801 139 137 116
13.934130367991656 -0.999153195972055 -64.316158451293518 139 136 117
13.601592818905743 -0.698416355093185 -64.825322572557383 139 136 117
8.801739422134418 -0.892812948438542 -72.060952241431465 138 137 117
8.188473249685458 -0.880761719545177 -72.987139590110644 138 137 119
145.907792303841575 -1.615395313193357 131.520792510362526 130 131 117
143.881247998566067 -1.235747968627282 128.495456601620674 138 139 125
135.997894178959029 -0.985889009149968 116.744010234390657 145 141 130
127.661089227349564 -2.293226378287036 104.338651259125157 149 145 134
126.592382345269456 -1.637541129891702 102.736848857152921 148 144 133
124.565529162815082 -1.420274175624443 99.713332177125011 146 146 134
120.735087710625493 -2.036914754563786 94.013745454858451 147 147 135
119.328134207814315 -1.584715257119816 91.910700348365822 144 144 132
118.372060371875051 -0.938294223777533 90.476827814254023 145 145 133
116.795988734925189 -0.590047509161948 88.123181626898429 147 147 135
112.121970616946371 -0.662983382554639 81.158679190531501 145 143 130
108.742176547642657 -1.234111774517329 76.129906904542310 144 142 129
106.715088980746003 -1.181659758437176 73.108198876182797 143 141 128
105.138901771864852 -0.927911399616673 70.755580697091091 139 137 124
103.788165339089176 -0.577892522588173 68.737552218366943 145 143 130
100.013664597522464 -1.451473761228976 63.124707356093836 144 143 126
98.606523705829304 -1.167666806260518 61.023485244832813 143 141 126
97.312111287450506 -0.840086537679439 59.089601407473168 144 142 127
95.566750534751677 -0.756732003764322 56.487092566342284 143 141 126
77.100046483878643 -0.534910117710650 28.957502907693708 137 136 118
65.391570418600779 -0.558828216450994 11.500395861572741 145 142 124
63.646121818885234 -0.796830517008238 8.901236933486615 144 141 122
62.238962940674199 -0.843729180161922 6.803427545973676 143 140 121
61.395639975877273 -0.555023044506178 5.541015290568367 144 141 122
59.875734961383856 -0.696519651906230 3.276399242512639 146 143 124
58.524987361643895 -0.746215960965858 1.262490575236001 145 142 123
57.061477591357388 -0.880268122080046 -0.918322508846529 146 143 127
55.823518487230132 -0.884358575632155 -2.764940479957886 145 142 126
54.641959043238998 -0.864016653357420 -4.527932464954176 142 139 122
53.347637758473596 -0.928015430804793 -6.457829180488858 142 139 122
51.940549244127524 -1.077972134575734 -8.554611401649623 146 143 124
51.153757778104620 -0.833587613962339 -9.732753022725262 147 144 125
50.310603557979533 -0.634024315665884 -10.994328412996680 148 142 126
48.734380791294328 -0.931425497529005 -13.341256322260762 144 141 124
47.722088516623501 -0.865050709801459 -14.853122325508167 143 140 123
45.641172400848291 -0.799605416650548 -17.960071591841682 142 141 123
44.290566265470233 -0.994535208234787 -19.972552973989423 144 141 122
43.673131936373906 -0.695789421043011 -20.899697381927297 145 142 123
42.548149964159919 -0.755979728187550 -22.578067991876623 146 143 124
41.761581745092926 -0.589821825760705 -23.755511187652075 145 142 123
40.580240272158477 -0.709535258586608 -25.517165789126921 145 142 123
39.511717015117213 -0.760374029333687 -27.111783430032091 142 139 120
37.935585996945647 -1.184214700050163 -29.457453726294091 143 140 123
36.810685722384278 -1.298344726857543 -31.135308191488889 144 141 124
36.193451149063321 -1.055394318552687 -32.061973832040877 144 141 124
35.519848922919394 -0.859358760431243 -33.072049347494101 146 143 126
34.338610666539367 -1.042273061463845 -34.833102769128914 146 143 126
33.326613825299603 -1.111361688172188 -36.343715713741346 144 141 122
32.709513590705370 -0.896394315498599 -37.270157578036560 144 141 122
32.148865811800675 -0.644971308254129 -38.113122474870664 145 142 123
31.193365916675631 -0.696186035928074 -39.540088464950401 145 142 123
29.899398808374528 -1.012977212292361 -41.467552498137564 144 141 122
28.323354069854958 -1.557200435103573 -43.812024912205658 142 139 120
27.480734274280181 -1.553450283378545 -45.071840366264354 141 138 119
26.807401898006745 -1.426884651339781 -46.081329888122781 139 136 117
26.246949816828320 -1.218899404719509 -46.923941279386923 139 136 117
25.404427792038675 -1.236702067020110 -48.183581652712149 139 136 117
24.900481120506129 -0.996047612755885 -48.942702433912018 141 138 119
23.663042126549797 -1.340673640212895 -50.786063920213792 143 140 121
22.707746756733656 -1.472318319880038 -52.212299848599855 143 140 121
22.034620305700997 -1.386890665281726 -53.221464430519831 143 140 121
21.474394739046303 -1.216746644860767 -54.063794666804682 140 137 118
21.083514289285844 -0.914487683406083 -54.655922297240778 140 137 118
20.354079789192411 -0.891916677311244 -55.748361171358852 140 137 118
19.511805788072110 -0.968733877210031 -57.007512732075497 141 136 117
18.782436377460670 -0.960271082784785 -58.099837521868579 140 137 118
16.538087729033066 -1.022916051364227 -61.459859382131413 139 137 116
15.244381414198500 -1.518516272978599 -63.385607606690314 139 137 116
14.797403751257136 -1.307182310953324 -64.060821470850357 139 137 116
14.914994063978938 -0.617669178752059 -63.902456008601064 139 136 117
12.111655368439131 -0.705181794236571 -68.103391820405619 138 136 121
10.987436447844942 -1.115182711157712 -69.778526695298183 138 136 120
10.540798492896997 -0.937344944796639 -70.453558281428798 135 134 116
10.207151867066486 -0.663195925503694 -70.961918142375453 136 135 116
9.647690450876780 -0.593599553123837 -71.803578958171443 138 137 117
146.729342991946737 -0.531212667288037 130.562311015989820 140 138 126
136.488625430968028 -2.409950995383198 115.415315821722373 142 142 132
135.188892265379138 -1.797232385426936 113.481042339401142 143 143 133
133.549509203592436 -1.343293608672683 111.045737294262892 144 143 133
131.117629286596639 -1.250040840398101 107.441248361596564 147 146 136
128.515892682102447 -1.254940063205794 103.586451958999561 145 143 134
126.083931888843082 -1.209394219834178 99.982492788604446 143 143 133
122.916049745285278 -1.518028362985134 95.293076118224661 147 147 137
120.257580640899405 -1.625716031724504 91.355619517303126 147 145 135
119.014258735123974 -1.109406349077624 89.506210352089653 147 145 135
116.638765062682239 -1.130220100442538 85.986779462213747 145 144 133
114.150022748283547 -1.226946722489285 82.300589973938543 145 143 132
112.453773717369586 -0.972478863451975 79.783683782951755 146 144 131
110.417850541767422 -0.896760394906852 76.765963186227793 144 142 129
108.381905161575077 -0.840636638918634 73.748454910323460 143 141 128
106.798823149135501 -0.583245890615025 71.399097688676022 141 139 126
104.309951837541490 -0.787145182509208 67.714073094346503 142 140 127
101.821052677774603 -1.014945697082323 64.029307849779485 144 142 128
100.068084828760831 -0.897203101213419 61.430084243853969 141 140 122
97.975428474534866 -0.968447700106176 58.330158485079068 142 140 124
95.769527645526281 -1.117703852250374 55.063493737136952 143 141 126
94.356201362264187 -0.878916940291349 52.965694109919610 138 136 122
82.424637049830892 -0.707997346827085 35.280729499549921 139 138 120
76.091815907763717 -0.693663147264805 25.893986766610624 139 138 120
74.848338647904569 -0.533123816606148 24.048314045214994 141 140 122
73.095272778855787 -0.679166262865557 21.451852603691094 144 141 124
66.255175372847219 -0.501407369379525 11.308376919867584 144 141 124
64.841879095665050 -0.532526166661500 9.213341212898627 145 142 123
63.032200132731219 -0.819563882327310 6.534555731653370 148 145 126
61.845425562868442 -0.739909805690668 4.773448115197425 143 140 121
60.545407790037444 -0.741911892322986 2.845638416944325 144 141 122
59.358660686063772 -0.685406346618744 1.084755940358889 144 141 122
58.058667596504918 -0.711627487328466 -0.842816267396728 143 140 125
56.305635397825512 -1.038105962175496 -3.437436498024397 143 140 124
55.232187892746452 -0.946204928568843 -5.031167688059696 142 139 122
53.592427928684714 -1.229766967968521 -7.458700958052219 143 140 123
52.349107410441036 -1.271353630614492 -9.302368079710931 144 141 123
51.785420994190005 -0.879945517870074 -10.145320239867544 146 143 124
50.712047618104762 -0.829892423872850 -11.738656131094416 149 143 127
49.412146301194568 -0.940451020857403 -13.665404114765664 143 140 123
48.452084980077132 -0.836075592951876 -15.091789501919067 144 141 124
45.458765455737634 -0.654832096843355 -19.537182232855145 141 138 119
44.442158219571112 -0.626277135267784 -21.046594674843874 142 139 120
43.538860486106202 -0.528866696839783 -22.389204988704904 144 141 122
42.409012217088446 -0.597988662483105 -24.065155640895739 146 143 124
