ply
format ascii 1.0
element vertex 679
property double x
property double y
property double z
property uchar red
property uchar green
property uchar blue
end_header
89.048031356532192 -2.893783895742669 -74.289909758342873 141 138 119
87.505666859737616 -3.041588877912233 -75.656845252416076 140 137 118
84.895410698202326 -3.761973694593823 -77.948176686593712 139 136 117
84.503136114851273 -3.323959150872260 -78.319316998863798 137 134 115
84.193257199163298 -2.844368414867083 -78.619444195827981 138 135 116
82.158042635280722 -3.292755583654586 -80.412661173231385 137 134 115
81.684137608406687 -2.911204767924406 -80.855027436529156 138 135 116
80.635140477396959 -2.845151477670367 -81.795036228380411 139 136 117
78.599891771704691 -3.325268260501272 -83.587910263602140 140 137 118
76.564535300904765 -3.818877994221010 -85.380593854643962 139 136 117
75.680058649235249 -3.688746572084110 -86.178250498443163 139 136 117
75.700166411129075 -3.060420602746781 -86.194337657655780 135 132 114
75.638376824045636 -2.477556799847227 -86.281636325841419 135 132 115
75.741390915506940 -1.801895567830186 -86.227013949657504 133 130 113
73.952997569256326 -2.197939218902150 -87.806271494905246 130 127 112
74.056521642262823 -1.526362183267945 -87.751851051459340 133 130 114
71.280953511322195 -2.506110154491083 -90.183145820713918 135 132 115
69.410147042002649 -2.982000913581939 -91.833014188899853 133 130 112
68.691296560543805 -2.801311925643673 -92.488708469390701 135 132 115
67.089488048314252 -2.549953796107379 -93.942173821588398 139 136 119
67.770604475466598 -1.556258770202696 -93.391375108393731 142 139 120
66.064612865475922 -1.976116916126260 -94.898949342339392 143 140 121
64.440877362752587 -2.358044747837212 -96.335406166909621 143 140 121
61.169973299894181 -3.740655088903639 -99.190740368973508 144 141 122
61.275553619332229 -3.104271580783451 -99.136941362113816 142 139 120
62.040554521244871 -2.065984564633824 -98.515872816948786 141 138 119
60.087294611525323 -2.683634217570814 -100.235695431286729 142 139 120
214.808846460348605 -3.310668927626030 35.497509158132772 162 163 160
211.946001393413951 -3.157407876664072 32.985445859936789 165 164 159
206.866461408663810 -3.737412488058963 28.548199791200346 162 161 156
204.988742461491768 -3.308562967671710 26.892325382525826 163 162 158
201.222661755468607 -3.513148209618675 23.596602675571404 163 162 158
197.538609955297403 -3.715364847273945 20.372472124915618 163 162 157
195.086143814335827 -3.528706763652479 18.218035607363305 165 162 154
193.290598077738821 -3.135645272396889 16.634077085498603 164 161 152
190.017008413494978 -3.260100658547552 13.767076844938316 163 160 151
189.124842410260669 -2.583507845856330 12.967473758959102 159 156 147
187.247327466623176 -2.256401751029128 11.312549051883764 158 155 146
184.712855652059716 -2.172955018458695 9.087547288855575 159 156 147
182.096255213872155 -2.135408224391547 6.791449164060452 157 155 144
178.576187565095751 -2.439194011852484 3.711632429591816 155 153 141
175.713126046183646 -2.528374146715669 1.202168250197673 153 151 139
173.507149135101542 -2.396386445010522 -0.737048465568080 153 151 139
171.301194035164201 -2.278920277375199 -2.676126138265516 154 152 140
168.191647702132826 -2.512084853416419 -5.398767378041043 153 150 141
166.314294116935173 -2.303351913772389 -7.052550804089151 152 149 140
164.436987796127823 -2.106947215422266 -8.706229940478693 151 148 139
161.984625263573832 -2.142507233179408 -10.858428621387674 150 147 138
159.860901200623118 -2.067623586605324 -12.725548132113744 146 143 134
158.148025296728321 -1.847082574875403 -14.236420893691673 148 145 136
156.763886183247791 -1.508970121330157 -15.462334891219911 142 142 130
153.736374663341337 -1.829353354717581 -18.112464634027219 140 138 126
150.380082737521832 -2.300726156997814 -21.047188285809227 140 138 125
148.913855759378379 -2.034787360664937 -22.343947695466255 139 137 122
146.132738994427939 -2.311167163192605 -24.779828139131752 142 139 124
143.515945555825112 -2.538762275352918 -27.073104694353134 145 142 124
142.953968863067587 -1.937468577798735 -27.586458583369108 145 142 124
140.830391030863268 -1.987991780492254 -29.452357174684437 145 142 125
138.295802964056975 -2.224456846978410 -31.674010310180620 142 139 122
136.665461429042097 -2.096256194340980 -33.112557840302117 142 139 124
135.528454659635202 -1.769041112291709 -34.124010277255849 137 134 119
133.487170171527538 -1.836617286108643 -35.918243302590156 138 135 120
131.528116389982699 -1.882108751813457 -37.641183660155377 140 137 122
130.062442737922737 -1.725827739448208 -38.937079016456323 143 140 125
128.925773198663478 -1.434908233233976 -39.948319174561362 145 142 127
125.815517105918701 -2.023104296661382 -42.666966350270656 140 137 122
123.034096323053745 -2.485487806470005 -45.100786723208728 138 135 120
120.581568476004804 -2.818752173307445 -47.249841897811137 138 135 120
119.198275180682472 -2.685219731142289 -48.474054687017713 143 140 125
117.650541292647446 -2.635541468495289 -49.840454276972167 142 139 124
116.843243863084581 -2.256620881614526 -50.566735223012131 137 134 119
114.802046417093862 -2.452543925256654 -52.359688750189861 145 142 126
113.254488898161753 -2.432336943338543 -53.725869351820904 147 144 127
111.706981737156426 -2.422228391138681 -55.091970096301480 146 143 126
109.830370801548980 -2.577467380303162 -56.742362257460883 145 142 125
109.188171918781748 -2.158675891650792 -57.326318423757868 143 140 123
107.640849652935074 -2.176916898755490 -58.692215805193001 145 142 125
103.706673593815523 -3.354953705036732 -62.119219815277916 145 142 125
102.241564359623752 -3.361519149620106 -63.413708926764031 143 140 123
101.846663450911109 -2.855020362985427 -63.784297756699232 143 140 123
100.875699089199017 -2.634184675170946 -64.652371525962138 143 140 123
99.904864506428723 -2.419549796190370 -65.520443552985626 143 140 123
98.687139288805199 -2.334219408272029 -66.601649605243495 139 136 121
96.646029719042303 -2.669900501113281 -68.393206572298539 140 137 120
94.028383641371462 -3.310179710405327 -70.681827263185909 143 140 123
92.151830240537748 -3.590961412878654 -72.330954674568432 139 136 119
91.757883163635213 -3.125343118876509 -72.701579010924945 140 137 120
91.281789490951155 -2.704431693142237 -73.143303392101103 141 138 119
88.828691983896107 -3.311422253112254 -75.289268442095079 140 137 118
86.293048742208143 -3.977665944823392 -77.505992858252938 139 136 117
86.558825261452995 -3.189501007334494 -77.308675756934292 138 135 116
86.248108447849560 -2.703969409516508 -77.608463258682860 135 132 113
83.547577797036425 -3.491279184058912 -79.966777679334001 137 134 115
82.165612421119150 -3.590737581053879 -81.189227448880217 138 135 117
81.937743281553466 -3.077648582931446 -81.418073771154951 138 135 117
81.957472587606489 -2.431634582968534 -81.434161950175479 138 135 118
80.328527253712139 -2.684194730785474 -82.869458055930409 140 137 119
77.462674459036009 -3.626035150857333 -85.368810037911317 139 136 117
75.998484320304641 -3.813134227202767 -86.661880518151236 136 133 114
76.101369005835522 -3.139487362530708 -86.607175499718750 135 132 114
75.874663991174714 -2.649002844263947 -86.836346056090946 134 131 114
74.823283780843283 -2.623292328793811 -87.774799522515934 136 133 116
73.854506340969394 -2.557646558934179 -88.642322059903847 134 131 116
72.720813059360992 -2.592028221020948 -89.651637561124659 135 132 116
71.917296841940001 -2.444804685056683 -90.377342451952643 136 133 116
69.875898966200893 -3.015192081106324 -92.166345544531680 135 132 115
69.072536436701270 -2.882253508000217 -92.891976916835659 135 132 115
68.351882105688716 -2.706245157883848 -93.546760061726587 135 132 115
67.548833708705061 -2.583030694745473 -94.272441618800599 140 137 120
66.167891846968388 -2.805346105201727 -95.494116405064887 141 138 119
64.869537060416576 -2.987726915191384 -96.644852746996321 143 140 121
66.049200963892304 -1.701949110797893 -95.670410682842999 144 141 122
64.999050819332368 -1.744072736219118 -96.608754357627532 144 141 122
62.213903661332054 -2.838558732637544 -99.034285497038070 142 139 120
61.824752230664387 -2.499476379860850 -99.405901556105988 141 138 119
60.857342459017929 -2.515078864277370 -100.273242052189033 142 139 120
218.157044980229614 -3.642484811927741 37.114065673166493 138 140 137
215.203430558109517 -3.497620703738575 34.534653672389680 159 159 157
207.319819215544442 -3.901204736634776 27.667847656743106 158 157 153
204.695479395498182 -3.714327873804053 25.373914896286010 159 158 154
201.412318426885463 -3.760736279706246 22.510690158152983 163 162 158
198.046754699788778 -3.856053581833004 19.576531176143760 162 161 157
197.069537152384271 -3.174657336278609 18.706708128295361 164 161 153
195.515906571445441 -2.694352166579972 17.338696836931263 164 161 152
192.973976021640453 -2.561339639566306 15.116753101654211 164 161 152
190.020208752380029 -2.586878749069100 12.539168268348362 161 158 149
187.148782571289303 -2.603223198232606 10.032955980366410 158 155 146
185.430572687275685 -2.233672561181728 8.523101145664498 158 155 146
181.900117976745150 -2.517486228598365 5.448047962870476 157 154 145
179.770059375508652 -2.323741532908560 3.582735377058128 155 153 142
176.321878405188329 -2.619719197750880 0.579306814014927 153 151 139
174.768540308121942 -2.248247487746552 -0.787724123157318 153 151 139
171.649839564252574 -2.462264478402117 -3.506183019881973 154 152 139
169.355031736247014 -2.391271543036154 -5.513134364627803 153 150 140
167.554628517730549 -2.150371711203331 -7.093202807392458 151 148 139
165.919085371190619 -1.859045396207749 -8.530941038779986 149 146 137
163.294734189728217 -1.954920691812366 -10.821957853965245 148 145 136
160.752769862174262 -2.036400648022232 -13.041677551201303 146 143 134
159.447002216393003 -1.655714813975412 -14.194663534514035 148 145 136
157.152314654884208 -1.669899875632517 -16.200795634426555 143 143 131
153.126758393904765 -2.381088648102796 -19.699748055423640 142 140 128
151.079266294941874 -2.332915563914740 -21.492202846262842 141 139 126
149.691243486119731 -2.033979869188923 -22.715855631192596 139 137 122
147.149218232175087 -2.210223656726458 -24.934570729731121 140 137 122
145.266676705838734 -2.134604688018628 -26.584502053547567 141 138 119
143.796391055421509 -1.902068230285823 -27.878975981249710 141 138 120
141.749045040841622 -1.917946614883593 -29.670841344412054 141 138 121
138.877181405952456 -2.291202554318474 -32.173170486730044 139 136 119
136.499983943945551 -2.475344448644904 -34.248939566927390 137 134 119
135.772013123204488 -1.976164301998526 -34.903549097860264 138 135 120
133.064982550738051 -2.326921258482005 -37.263247635733933 139 136 121
132.419694335792286 -1.808054132323221 -37.846756004916557 139 136 121
131.114760157892817 -1.579417227197753 -38.998575600398794 145 142 127
129.315024143425831 -1.575524630514859 -40.576523596760154 145 142 127
126.030534959636242 -2.237241237434047 -43.432779244887968 146 140 126
123.075857710890972 -2.774247217351294 -46.004663961691307 142 139 124
121.606034268769591 -2.666952999086780 -47.298069826970675 140 137 122
119.476243541009396 -2.866438399125819 -49.159462847618670 141 138 123
118.419059256255977 -2.593304420754158 -50.097686518733383 143 140 125
116.701871385193130 -2.628606674089562 -51.603862926746359 137 134 119
114.572105218835020 -2.865033385757787 -53.464887442006614 145 142 125
112.689889380014250 -3.000655098570708 -55.112800167161112 146 143 126
109.652205491386454 -3.688118356096107 -57.754284944546441 145 142 125
108.842916534041393 -3.347663962707167 -58.479217198668465 143 140 123
109.684699318676309 -2.230475231804786 -57.784834133077766 142 139 122
108.545640010071025 -2.052161307600657 -58.793771927895250 144 141 124
105.672957500347451 -2.713762930340886 -61.292741236328595 145 142 125
104.286280360841360 -2.675694916563376 -62.514352542757962 142 139 122
103.147383765867971 -2.526001035835824 -63.523073578734198 140 137 120
101.843434137376917 -2.464584957177032 -64.673642891307338 141 138 121
100.291804017444790 -2.533875490855306 -66.036953931692040 142 139 122
98.987984562213029 -2.490145167790010 -67.187403470339348 139 136 119
98.262436769634590 -2.165612703433012 -67.841374433310477 139 136 119
95.637101442881615 -2.802327566296346 -70.126353303401856 140 137 120
94.250817282684281 -2.828254794104412 -71.347493874615338 140 137 120
92.864586227671069 -2.863163518803523 -72.568567400107497 140 137 120
91.974183851842440 -2.652439999397042 -73.364218772723888 139 136 118
90.257550422078111 -2.874494081834745 -74.868738093160573 140 137 118
87.631803711469800 -3.580723064861646 -77.152804614865943 139 136 117
86.989540430357323 -3.265718101977239 -77.735661646367674 138 135 116
87.422064693902016 -2.388408395968287 -77.397315936402492 136 133 114
84.548202686804814 -3.261231357737209 -79.893546769984226 137 134 115
83.162285554264088 -3.359015502710077 -81.114123266624404 139 136 119
82.685959437796114 -2.977381833022911 -81.555332141816592 138 135 118
82.127163106121742 -2.643219546136633 -82.067457786868061 138 135 118
80.576122880203656 -2.851968415966681 -83.429615515815215 140 137 120
78.694223407821084 -3.251812420506069 -85.074959816806711 138 135 118
77.970359233602650 -3.026633014550871 -85.728713526089535 137 134 115
77.577596593193320 -2.622673575922531 -86.099269807231309 139 136 118
76.109444473906308 -2.820133007232673 -87.390338245215673 136 133 116
75.717059333055687 -2.424238733913109 -87.760992102054303 139 136 119
75.076644664276031 -2.170509702446696 -88.344102759415080 137 134 119
73.774258851499312 -2.296216822140135 -89.493494042982377 136 133 117
71.561316922731265 -2.949862206964486 -91.421291802133368 136 133 116
71.086799180895326 -2.620401188044029 -91.862828758247360 135 132 115
68.045662848060672 -3.775420007472455 -94.497849113879710 132 129 112
69.393165133987438 -2.402409457819987 -93.382880517217046 137 134 117
67.759742507970032 -2.760847302769849 -94.814944849442213 138 135 117
67.368767457429257 -2.400173054291215 -95.185910751242943 140 137 118
67.143746969005250 -1.943749479016583 -95.415536572795844 143 140 121
65.179047707504537 -2.522082994226329 -97.130291341208874 143 140 121
66.031699579262693 -1.429940217957187 -96.440850199048754 143 140 121
62.823855312496462 -2.771575886246432 -99.215914879382581 140 137 118
61.687771888764772 -2.882633537378893 -100.223297680330347 142 139 120
60.966260945649211 -2.749089291485553 -100.877233920570518 142 139 120
219.289904802950332 -4.674976172709430 36.804455139191987 111 111 109
220.539447718042823 -3.212208664124189 37.854504364696311 128 128 126
218.898634427021705 -2.647911234461912 36.416477523551947 156 156 154
211.972010440707805 -3.770005183935037 30.429554639518244 162 162 160
205.303873910502205 -3.825785062644629 24.640572790864127 156 155 151
202.011031797394935 -3.873035191994902 21.781988143355335 163 162 158
199.544176842942591 -3.669179778070715 19.634258164096337 162 159 154
196.829511550061454 -3.564138686786750 17.273520292020464 159 158 153
196.345301390914358 -2.725764883872221 16.831381660183837 161 159 154
192.969797200646468 -2.873714555406321 13.902519933101161 163 160 156
189.924695422392290 -2.930376900487072 11.258090698007720 161 157 154
187.870988252001041 -2.663354935344421 9.466356454564504 161 156 150
185.899942616649184 -2.380852731197500 7.745776755142259 158 155 148
182.689549417546687 -2.549032994246537 4.959852509321564 155 155 147
179.644357038537521 -2.679379608755436 2.316225086519779 155 155 145
177.012282993877704 -2.681051403740226 0.027933178660760 152 152 142
176.115565577635095 -2.069828644196384 -0.768819640139952 150 150 139
173.318256364730360 -2.160829677940706 -3.198861869000638 153 153 140
170.603559338780343 -2.239626970653906 -5.557692219246178 154 152 140
168.880609215557001 -1.966284681064896 -7.064289018906919 151 149 138
166.992418419002547 -1.766376981865631 -8.712797117555425 148 145 135
162.872574877883181 -2.425960649508135 -12.278032909111943 145 142 133
160.240434566613430 -2.542955186688110 -14.565106040333376 144 141 132
160.666816501388467 -1.495984955016624 -14.225568262359701 147 144 135
158.282770534040225 -1.540748871075888 -16.299495728624237 142 142 130
153.170547238231080 -2.672752297966475 -20.715424212270790 141 139 127
151.282401670944807 -2.561305340197934 -22.363043377595687 142 140 127
150.303778892202672 -2.098926932897731 -23.229939706954610 142 140 125
149.738714240498552 -1.476335395941153 -23.742035556355205 139 136 121
147.271975539128533 -1.629426051033883 -25.886146925487679 138 135 117
143.978270791365503 -2.137148709489118 -28.739579016470316 138 135 117
141.428729586453869 -2.359434641256694 -30.954224574908551 138 135 118
139.127254438196360 -2.495243810407885 -32.955857578549285 138 135 118
137.735549622516373 -2.264721007073007 -34.177044695760316 137 134 119
135.434088679491822 -2.427633607207820 -36.178405505905090 142 139 124
134.621527355175544 -1.971592633246872 -36.902962061624379 142 140 125
133.395507024858148 -1.698192921993033 -37.982135652425740 143 140 125
132.583233597803059 -1.253818309065202 -38.706709849493137 144 141 126
128.709982315702860 -2.148451642027944 -42.054918393471581 145 142 127
125.746622416691849 -2.669048306651793 -44.622818269475090 145 139 125
124.851743209366717 -2.294067621844112 -45.418018722767982 143 140 125
122.302015678768711 -2.662349254160088 -47.631072336548925 140 137 122
119.338433656460637 -3.233142673796791 -50.198349249112482 140 137 122
117.947172466207874 -3.112232753457499 -51.418620294737821 144 141 126
116.555986444574160 -3.000318620048886 -52.638834702618880 141 138 123
114.502692054568101 -3.201283268872119 -54.425949197469635 145 142 125
113.111605530394598 -3.109571796635429 -55.646003248454292 145 142 123
111.306665609964412 -3.219551503443126 -57.220289569215907 145 142 124
109.998481292884648 -3.108392283356952 -58.369345052427036 144 141 123
110.097937617325428 -2.341057852303512 -58.313964290985865 143 140 122
110.280498320903718 -1.533342280909451 -58.187897158108854 141 138 120
108.807164899754000 -1.517057508582075 -59.478687055505986 141 138 121
106.422897269847581 -1.949520470499352 -61.548517698120236 144 141 124
104.618303214456290 -2.116193785082887 -63.122385903745652 140 137 120
102.730874255424993 -2.335116430408984 -64.766947231715392 136 133 116
100.843424091816445 -2.566362650761652 -66.411371562739475 143 140 123
100.612852871893708 -1.989085486637561 -66.639585940071356 140 137 118
98.394084645221881 -2.404693080130657 -68.567046660842095 141 138 121
97.003825660253398 -2.418855642393178 -69.786406789122225 141 138 121
95.116417893836029 -2.693278826203162 -71.430406960642046 140 137 120
93.560472146519132 -2.811397807678203 -72.791150803936119 139 136 119
92.004546255031443 -2.939616805975575 -74.151800181643864 140 137 119
90.365746694889964 -3.120657045256800 -75.583118249686692 140 137 118
89.058540272619297 -3.140360395057807 -76.731294520250998 140 137 118
88.414649502962007 -2.822239800807425 -77.313405037570277 139 136 117
87.024712705065824 -2.900101366160532 -78.532263613202900 137 134 115
85.468969027400888 -3.074629534424977 -79.892523477828689 138 135 116
84.991349096169543 -2.685655383647419 -80.333188955732339 138 135 118
83.518664248617327 -2.832335465962645 -81.622611649400000 138 135 118
82.875495314066143 -2.541689387992897 -82.204784681161726 138 135 118
81.237013081283962 -2.794580416869448 -83.635514961253477 138 135 118
81.589741314280701 -1.972110068532585 -83.369289499655082 138 135 118
79.619519414914294 -2.421711901187742 -85.082727356920969 138 135 116
78.313087750541868 -2.517718071869190 -86.230488845741547 139 136 118
76.093736257385743 -3.129244794976608 -88.155653839803136 139 136 119
76.613420255314352 -2.224764152900335 -87.748425847182631 138 135 118
76.137382026662294 -1.876231035783313 -88.189431726303297 138 135 120
72.340523961531019 -3.408496601618297 -91.456764169613223 136 133 116
71.947591349724647 -3.029568579911608 -91.826981476072262 136 133 116
70.475302644241296 -3.270573017708845 -93.115622754772374 134 131 114
69.169113713662838 -3.425532385879190 -94.262893531730697 133 130 113
67.696810735975006 -3.685102573214829 -95.551336876070536 135 132 115
67.886076130230109 -2.986713646810537 -95.427351890153659 137 134 116
67.161761112445134 -2.821751725823961 -96.080270068596150 141 138 119
66.437621183124335 -2.661211423738192 -96.733226494815227 141 138 119
67.126587962318979 -1.668080256360442 -96.186177559049753 143 140 121
64.491116769978092 -2.650513951913658 -98.462748808167589 143 140 121
63.518022131246127 -2.654365985400922 -99.327490636617398 140 137 118
61.380941346488243 -3.365723692705584 -101.180127160184668 140 137 118
62.071110652210379 -2.378147410877768 -100.633596329760536 141 138 119
220.114451980049068 -3.653320871358670 36.177760414885825 124 124 122
220.622642560790780 -2.419820547206312 36.587100054019487 151 151 149
220.468336395232370 -1.392302626317980 36.428625066724038 160 160 158
208.881920220809121 -4.016325641007652 26.478293347877155 158 157 153
205.165203883551726 -4.177509040850495 23.269367024068515 156 155 151
203.353927256344690 -3.742059235502019 21.692497782139696 161 160 156
200.797043691724014 -3.563871252245504 19.477242504230531 163 160 155
197.245904764735030 -3.732954144970179 16.410903598190998 159 158 153
194.274697999931533 -3.730575436797395 13.841374387653303 160 158 153
191.469181908390198 -3.691460630553474 11.413918953695912 162 158 155
189.243697113881922 -3.472141281945377 9.483135793980722 162 158 155
187.266840480392204 -3.181432944254863 7.765251586294170 162 157 151
186.615969192082503 -2.441010886409457 7.182133564060166 159 155 149
183.976257920024011 -2.405184515285908 4.897109292149224 154 154 146
180.259116987867685 -2.769589494724801 1.690477954893396 154 154 144
178.613916773322842 -2.415037038375020 0.256708813302765 155 155 145
175.974161489124924 -2.431255855581994 -2.027758676082811 150 150 140
173.417278104548444 -2.434450865384115 -4.241146973857923 154 154 142
170.528810693034728 -2.576572994189337 -6.737912102776221 153 151 139
168.717957984051452 -2.336826025440462 -8.312969678120481 152 150 138
168.067770345177280 -1.673421643799359 -8.895621974269574 150 148 136
165.345128717512068 -1.798531332663557 -11.250174937527419 147 145 133
161.876272905956796 -2.226301891393481 -14.242356116927397 145 143 131
160.065563898581161 -2.038313490188969 -15.816949661691211 146 144 132
159.166994201633202 -1.507901836663613 -16.611984526441347 143 141 129
154.122498882291097 -2.606916082550933 -20.949794531169516 139 137 124
151.399635808499426 -2.822155457192384 -23.303313805226537 143 141 128
151.745137779806328 -1.833348825229081 -23.035343507732847 145 143 130
151.676245027056723 -1.008511225937032 -23.121734803654903 141 139 124
149.119413398396290 -1.191077002714618 -25.333301507870175 138 137 119
144.986610580500098 -2.033461366574742 -28.890455966440044 139 138 120
141.848970433102465 -2.493536257263119 -31.597321519861680 139 138 120
140.370285848586775 -2.286216975177479 -32.887517853223272 138 137 119
138.228012067711802 -2.365845487997886 -34.744172771200539 139 138 120
136.417588965043933 -2.319643146527964 -36.317443616656504 143 141 123
135.105011779234303 -2.073854638856471 -37.465783373413785 143 140 123
135.203081395716424 -1.233014045905498 -37.410495851489145 144 141 124
132.978017960316549 -1.392973897112591 -39.337576476620427 145 142 125
129.923092141799145 -1.927969349122084 -41.972382201562368 144 141 124
127.863909478977263 -2.047066088599466 -43.757522474399138 143 140 123
125.223754837616127 -2.435808670871233 -46.037964338433028 143 140 124
122.168508638333876 -3.026240876646712 -48.672046155959720 140 137 121
119.362132216260136 -3.525256717439902 -51.093550761655735 140 137 121
117.883832299719614 -3.443731273651916 -52.382636259687075 141 138 123
116.654649700904599 -3.258623108653539 -53.459388202839136 138 135 120
115.674637553431907 -2.967438100306591 -54.323857683304084 142 139 121
114.196576403104700 -2.912063914724462 -55.612788218235437 144 141 122
112.220354391824785 -3.097488184292468 -57.326074954896825 145 142 123
110.659329740050964 -3.101687406429113 -58.685561701018969 145 142 123
110.011893290937962 -2.685914716464897 -59.266981159517570 143 140 121
110.527428506230365 -1.722876084436812 -58.858371170312353 139 136 118
109.382082328282650 -1.549098843469207 -59.864254650026396 135 132 115
107.073870932808092 -1.941672007413808 -61.860022055302835 142 139 122
104.765574936382365 -2.349347599443207 -63.855593530895135 141 138 121
102.955690440179538 -2.529200923262903 -65.426795139314322 134 131 114
102.142885116050749 -2.231617412436289 -66.149603884089402 139 136 119
100.000673517736445 -2.595846326870547 -68.003359015085778 139 136 117
98.523230949324201 -2.643477537536723 -69.291525191195944 140 137 118
96.796490733430758 -2.825461723652335 -70.791621919363848 140 137 120
94.404778924961462 -3.353736216630314 -72.856905056249332 140 137 120
92.844215749492690 -3.476067500632875 -74.215396578396764 140 137 122
92.281304391965207 -3.099175112780584 -74.725993451580223 140 137 120
91.469166895275194 -2.853834971717354 -75.448583915463075 140 137 118
90.490884020839360 -2.699560073905724 -76.312471389675949 140 137 118
88.597959283154438 -3.027598658017493 -77.953280370802673 138 135 116
87.453498678344403 -2.975892215888090 -78.958330969614707 136 133 114
86.142772988014499 -3.019176434021382 -80.104580904678755 137 134 115
84.665728628527717 -3.159138570920392 -81.391987173967124 138 135 120
82.523137384259599 -3.663933113682837 -83.244113771014042 138 135 120
82.127710076816967 -3.244242509005632 -83.613557213375600 139 136 121
82.731095094075840 -2.287068717087939 -83.136055013641254 139 136 121
81.753717653790162 -2.185211859202907 -83.999836079230448 139 136 121
78.778882981029938 -3.182472557001364 -86.557339920455689 138 135 116
77.135581782240337 -3.466300434423836 -87.985446375204106 138 135 118
77.012809113768526 -2.303202364739975 -88.160402473999170 138 135 118
76.035937448278759 -2.234930546240121 -89.024079792835039 138 135 120
74.226360697593336 -2.642387472667240 -90.593085787435058 138 135 118
71.333886358478907 -3.675836534260730 -93.078759140040319 135 132 115
70.023801679493289 -3.825505376736863 -94.224220662352849 135 132 115
70.380023173238143 -3.027344925801808 -93.959416130736258 134 131 114
69.486826778522044 -2.947674581244159 -94.752381858129809 134 131 114
68.427089805482311 -2.970343247871092 -95.686339486694720 136 133 115
67.367438942238252 -2.999724265412881 -96.620269216290751 141 138 119
65.307563540266145 -3.623303412374933 -98.399885194242216 140 137 118
65.915355003681185 -2.684668492579571 -97.924300193320988 141 138 119
64.689281970542510 -2.830948428487642 -98.999128597836147 141 138 119
65.214530269174617 -1.938886875822591 -98.594434711673273 140 137 118
63.238113593764666 -2.545801332129276 -100.303289711451470 139 136 117
62.429375004045212 -2.460225312501218 -101.025861668418003 140 137 118
217.283495721866160 -3.771810257997958 32.433791149533448 145 145 143
215.467041312844344 -3.281871096724781 30.858838054363162 158 158 156
208.914476172423292 -4.311553537916154 25.246309887144804 156 155 151
207.097970696901768 -3.860788935403786 23.671784465425873 156 155 151
205.364621270857867 -3.394831064063404 22.168179967643908 160 159 155
203.298937950862012 -3.049217736185940 20.381366092743178 163 160 155
198.158477921969791 -3.736214233005129 15.974365285532713 156 155 150
195.012373188737342 -3.789224340378204 13.267359038653780 158 156 152
192.281770367733202 -3.722317961557546 10.914638165155282 160 156 153
189.800491295313520 -3.588125258100807 8.774525707764553 160 156 153
188.482846842231083 -3.069162307569765 7.625798192529999 160 155 149
187.497781879940874 -2.443061023834627 6.760298499884072 158 153 147
185.764734094611299 -2.085945955774352 5.257670071870365 153 153 145
182.535463987598291 -2.270331946200144 2.480943287782424 153 153 143
179.139866824803192 -2.535271404538477 -0.437101795469943 152 152 142
177.323742005946201 -2.252270823689528 -2.010082442680044 150 150 140
172.764109391696365 -2.980303590284697 -5.918514492762739 153 153 141
170.282832962619239 -2.974335372507212 -8.057308335674009 153 151 139
169.630761802210117 -2.306306143097760 -8.639107167458349 152 150 138
168.064204498723768 -1.984505920103287 -9.999302788022334 152 150 138
165.666183648846015 -1.986600490192237 -12.066983935399946 148 146 134
162.353417131139508 -2.352466189249283 -14.912757145925866 145 143 131
159.955338845756586 -2.388801198544861 -16.980058362313002 143 141 129
157.224583886394925 -2.569547483994412 -19.330157240059322 142 140 128
154.743295561613735 -2.670680018831214 -21.467842950257136 138 136 123
152.844212630656614 -2.558732728077941 -23.110234868470855 142 140 127
152.109687416015845 -1.996770605319642 -23.762355046247791 144 142 129
151.708064884871874 -1.306233916129134 -24.131622669635362 142 140 125
149.642859623397385 -1.289582530257938 -25.915279075568691 143 140 125
145.664207602395322 -2.064860395736505 -29.325151738046316 143 140 125
143.016530334287012 -2.320226672305304 -31.603367712546827 143 141 125
141.616852139368518 -2.076873422798156 -32.820872462688556 142 139 123
139.301965113817857 -2.223947603569183 -34.815973313780660 142 140 123
137.819193038790360 -2.036587281781562 -36.104008758087247 145 142 125
137.251907188368989 -1.471297848639942 -36.614452154294440 145 142 125
134.937101876451976 -1.655026869217616 -38.609214790228833 145 142 125
133.870711178756551 -1.317160542796550 -39.543700467526207 146 143 126
131.555922373137150 -1.526885959745511 -41.538203406049462 145 142 125
130.406466893196125 -1.243063792891674 -42.543253757479420 144 141 124
126.177014502788523 -2.321004160672442 -46.162605580485746 142 139 122
123.196036743300581 -2.873496045170982 -48.721748818905127 140 137 120
120.797722274287366 -3.185377931043504 -50.786100703429668 139 136 119
118.565870047373082 -3.438024299944981 -52.708979525082100 140 137 120
117.832830379148987 -3.026368744827559 -53.360263202164475 141 138 121
117.433066404498092 -2.467312657411639 -53.729066556723495 142 139 120
115.701008510248840 -2.522871352479563 -55.227920686883550 142 139 120
113.469240945359402 -2.820905700286121 -57.150372809290673 141 138 121
110.904235165362678 -3.288768165563540 -59.355092325389847 141 138 121
108.922226669974350 -3.499693697761799 -61.065348330581202 142 139 123
107.606658466852480 -3.408473469157421 -62.210666145963785 139 136 121
108.040788038725282 -2.492903719803291 -61.873482239846595 132 131 113
105.725654840916448 -2.891916403957024 -63.865871993395814 139 138 118
104.410381356992374 -2.823481331522320 -65.011096262373741 139 138 118
103.428529169283308 -2.601505246158051 -65.873973071684901 138 137 117
101.196655655020564 -2.997282656291935 -67.795368389832532 137 136 115
99.631501389182048 -3.079224893524039 -69.152079294832106 139 136 119
98.733241587479412 -2.840634568457441 -69.944258548873108 139 136 119
97.835127758722450 -2.607672869339058 -70.736449697596470 139 136 119
95.186306588738432 -3.259989269922698 -73.010032426323562 137 134 117
94.204937898504170 -3.086319630007260 -73.872643296659305 143 140 123
93.974207059521646 -2.536796343685548 -74.100495628173462 142 139 121
92.576177903500991 -2.586606951690629 -75.315771590013270 138 135 116
89.259846681470989 -3.634612461623798 -78.152817850458632 140 137 118
88.195372747286342 -3.535681079615248 -79.085761023436021 138 135 116
88.298934896547536 -2.833488168277285 -79.031673940128599 135 132 113
86.483906792286717 -3.138764106439578 -80.599123826107302 136 133 114
85.753560982177149 -2.882092549942767 -81.250100907522807 137 134 117
81.852287541960038 -4.317709152600372 -84.579335134548387 138 135 119
81.372327487112130 -3.946607791421679 -85.018697131733290 137 134 118
81.727283793822309 -3.128480184972234 -84.753492870938373 134 131 115
81.498314881666715 -2.624315481239091 -84.981721203530441 135 132 116
78.514543319828320 -3.624242662986569 -87.534922220194943 137 134 115
77.701359207557985 -3.452350946362553 -88.256255945241634 137 134 117
78.391466694282116 -2.455448363295447 -87.709791541124531 138 135 118
78.413953909620147 -1.824522513913853 -87.727043784580133 139 136 119
74.594522666277669 -3.340248284187623 -90.983747549232788 138 135 120
72.862959851312269 -3.707321150285661 -92.479631951771552 138 135 118
72.969396714565221 -3.046165647452163 -92.426497703122948 136 133 116
71.405029783086789 -3.334452310897661 -93.781461259344127 140 137 120
70.509187376658403 -3.250313741647536 -94.573207137485610 134 131 114
72.288096728723431 -1.632346437699157 -93.112849240849187 133 130 113
70.055389670113357 -2.324475087985275 -95.030795302049256 134 131 113
68.073265694087851 -2.885289137977810 -96.737394483417035 141 138 119
66.759902381215255 -3.067394161973375 -97.880953636605341 140 137 118
63.690358159432165 -4.292237956821186 -100.501665011989786 139 136 117
64.384128641492310 -3.308285045043052 -99.956819674813801 140 137 118
65.998665776071419 -1.770853238729654 -98.638715450259127 139 136 117
62.426846876120834 -3.328894259862968 -101.680863884350543 139 136 117
61.950422145168176 -3.045971480121911 -102.121009501932974 140 137 118
213.764025757246088 -4.123849500746333 28.134737447943593 155 155 153
211.358959485877051 -3.839382716430732 26.067477086080800 157 156 152
208.287173862091436 -3.784342776867438 23.434663503494761 156 155 151
205.215354131280435 -3.749298652619799 20.802072064564896 158 157 153
203.977163130934741 -3.134285156511260 19.725204478287935 160 157 152
201.572154721350358 -2.912866234750264 17.658565418867454 155 154 149
198.667030901357407 -2.873974564832473 15.167905392708491 155 153 149
194.344788219910754 -3.331529655727847 11.475699304646440 159 155 152
191.939721157318132 -3.164899664954217 9.409652274614359 159 155 151
189.784760089604276 -2.927975324235596 7.555808473628446 160 155 149
188.046673587721727 -2.560470740652891 6.055483605839925 159 156 149
186.225280560487761 -2.233390126207186 4.484569513529721 153 153 145
182.736423860709124 -2.507267470957807 1.500372590337719 155 155 145
179.914515296025002 -2.566016676758075 -0.918233377218201 152 152 142
177.175956551509756 -2.613112017837141 -3.265974687207091 151 151 141
173.019781022695156 -3.192776715440983 -6.814652026492325 152 152 140
171.448576315679475 -2.852381319432723 -8.172815754595064 153 151 139
170.294426390301595 -2.367977373274059 -9.177684988437250 151 149 137
167.806001903681278 -2.388602205925574 -11.312785489494075 151 149 137
164.316719892512083 -2.801909182990882 -14.295343725925846 149 147 135
162.578887642137488 -2.573288002310484 -15.794360630129205 143 141 129
159.923579713748637 -2.707070666918374 -18.070177644103524 142 140 128
157.935566542450886 -2.600512796732807 -19.780829049072736 142 140 128
156.448109650357907 -2.311973793490981 -21.067664775949424 139 137 124
154.209905969484680 -2.327749857612868 -22.989943308839429 141 139 126
152.889434128806670 -1.994772131952483 -24.135403772189193 144 142 129
151.986237409766545 -1.503763171899075 -24.927819493712377 143 141 126
149.748156500101913 -1.555655378285922 -26.849784998332183 144 141 126
147.009404734886687 -1.825156782315103 -29.195144630546679 144 141 126
144.354036376400728 -2.078349347257154 -31.469703588879156 145 142 127
143.200786396036449 -1.729605794848607 -32.473606932748311 143 140 125
141.713818122928728 -1.526917000933063 -33.759792713940641 143 140 125
140.477322442475497 -1.228927179356128 -34.834208051502117 143 140 124
137.070718698741956 -1.854740283122512 -37.743272970441183 142 139 122
134.331748228951483 -2.218768747921986 -40.087554960613716 143 140 123
133.345784858561672 -1.849266159846129 -40.949983558625746 145 142 125
133.194824309131263 -1.125445983958540 -41.106932963755099 143 140 123
130.288882909114932 -1.601273532878752 -43.591903598941059 142 139 122
128.301294436678006 -1.693354558055982 -45.300713488452004 142 139 122
126.480713972464173 -1.724528863011561 -46.868328610268605 141 138 121
122.154870321069083 -2.882302072766518 -50.551604309793561 142 139 122
119.415478821824664 -3.357118463789169 -52.894544485138795 141 138 121
118.764008857033048 -2.906908070948447 -53.474388808138229 141 138 121
117.611556909164207 -2.688655699475840 -54.477330716739175 142 139 120
116.375681942077392 -2.515998430792349 -55.550752890518964 140 137 118
113.970333900350738 -2.890883549537964 -57.611091414040345 138 135 118
111.481351898714607 -3.320244800618681 -59.741717872538203 138 135 118
108.825156542770401 -3.844023935162324 -62.013095914629446 140 137 122
107.171553983161203 -3.912558497507200 -63.438490355918049 139 136 121
106.019380050278457 -3.753795221001920 -64.440952914796156 131 128 111
103.947986088431662 -4.041666977133587 -66.218514058004558 135 132 113
103.631760662708231 -3.498437767443752 -66.516260169100661 140 137 118
103.399371650643744 -2.916452376260431 -66.743653385049129 139 136 117
102.331280300324238 -2.743383376044151 -67.675629134294780 138 136 115
99.842034305277750 -3.274973598420503 -69.805077005093040 139 136 119
99.275719889802943 -2.872150740994547 -70.314312782368830 139 136 119
98.207895838971353 -2.722394348789992 -71.246176438387835 139 136 119
97.223815039498476 -2.537487698577272 -72.107605513152123 139 136 119
96.490772599730562 -2.232242676124798 -72.757792527268634 144 141 124
95.005115814776033 -2.313568073390869 -74.041682219151738 141 138 119
90.675316785846704 -3.857369073215816 -77.719092101655320 137 134 115
89.273094148086571 -3.924304732663402 -78.932185639447567 140 137 118
89.627964349351814 -3.091027594899985 -78.667096127839244 137 134 115
88.895424547754885 -2.821419599454987 -79.317156772512391 136 133 114
87.493569175619641 -2.907154723391589 -80.530232496588695 139 136 117
86.175445458463770 -2.957732339090596 -81.672868166372467 136 133 116
83.183272107403241 -3.905164606846349 -84.222590152392939 137 134 117
80.358203738329124 -4.782899933388416 -86.631254244795457 137 134 117
80.630621124493473 -4.014728311230723 -86.436908310209532 134 131 114
80.652242916149348 -3.380048830724220 -86.453785175952873 137 134 117
80.422987401780205 -2.881394548318842 -86.681819677493451 138 135 118
78.853977884525335 -3.117170994901334 -88.035102750633655 139 136 119
79.211503657351685 -2.302318483210695 -87.771094001425666 138 135 118
78.731739677805919 -1.948566042600246 -88.210371219208241 140 137 120
77.079243526875089 -2.251177695926911 -89.633885489528467 140 137 120
75.007723994996667 -2.799346168506103 -91.408707195599874 137 134 117
73.857902073811957 -2.841230807138649 -92.410229579024985 136 133 116
71.953803012303325 -3.318283894253450 -94.044158920798964 137 134 117
72.732054547409788 -2.277254480624477 -93.429457662009327 134 131 114
73.259374910391841 -1.374702562948881 -93.025863026926004 132 129 112
72.948718386329688 -0.951984839024808 -93.325032796225514 134 131 112
69.367744032080012 -2.429605649364946 -96.363629097991861 139 136 117
67.379754309842482 -3.000632497385316 -98.067317001017329 141 138 119
63.965522715416512 -4.422130781191370 -100.964542395055162 140 137 118
63.738818303259649 -3.983583487298531 -101.193178623721678 140 137 118
65.610202398840400 -2.300065011073634 -99.666876193632135 140 137 118
63.118533573753282 -3.209605099997425 -101.791274563001593 137 134 115
60.290762214419289 -4.337327439694281 -104.196072312219798 137 134 115
218.302553330990690 -4.065464191958013 30.729852475701563 137 137 135
212.475559027519125 -3.790183926970898 25.754511034727813 157 156 152
208.893307167022385 -3.894691159222277 22.702391739718848 153 152 148
206.063323989475180 -3.779497798802633 20.285858161063885 154 153 149
205.072455512636566 -3.082713376176213 19.422407272828366 159 156 151
203.412911919810369 -2.612609251243015 17.994310522869625 155 154 149
199.579747776433294 -2.876446299150927 14.731290211006808 154 152 148
195.913694203861894 -3.109016866092672 11.609720703123116 158 154 151
193.250874674193341 -3.025043729674092 9.335255743602289 158 154 151
190.838886132718415 -2.872417668786959 7.272664074827929 159 154 148
188.259670428876518 -2.793230672568781 5.069111482667495 159 154 148
186.182176362995449 -2.555646393062872 3.289059825378388 153 153 145
181.512334689504371 -3.244698954212332 -0.677908716285344 155 155 145
179.852938855757884 -2.893790915408711 -2.104849208487877 152 152 142
177.273651642353343 -2.883636086898415 -4.307657007937706 150 150 140
174.694349057707598 -2.890191552280775 -6.510285446388878 150 150 138
173.453284152455694 -2.424589180094542 -7.584240202653376 147 145 133
170.204849503573087 -2.706806299232966 -10.350791710647485 149 147 135
167.123625785810191 -2.947915532063079 -12.976041729221805 153 151 139
165.046168506084143 -2.832503271526031 -14.754853406916197 151 149 137
162.299474126866642 -2.983721173549172 -17.097630871323673 144 142 130
160.305692097361543 -2.865415371400207 -18.805643401665890 140 138 126
158.395606935500723 -2.727777307774716 -20.443036338358866 143 141 129
156.318217661045338 -2.667407788361486 -22.221313966956103 143 141 128
154.993928253192962 -2.325702861319123 -23.365037952723185 140 138 125
153.502379285495806 -2.058514824449080 -24.649696268434610 144 142 129
151.592487037120236 -1.967391030381377 -26.286702699534374 141 139 124
149.431558617359798 -1.989305595751998 -28.135027380865694 141 138 123
147.019548145857016 -2.126735057727852 -30.194622871181679 144 141 126
145.193407938564377 -2.040898897307827 -31.760782678467706 144 141 126
144.204357393687218 -1.622808870382360 -32.622234517703220 144 141 126
142.629476087350326 -1.453705270708263 -33.976876180783790 144 141 126
139.798929534743877 -1.818996631542504 -36.388194372130840 144 141 124
136.717126385837133 -2.308351477792955 -39.010611876025251 141 138 121
134.723635211874750 -2.356183241555367 -40.717053413235874 141 138 121
133.483739082930612 -2.094851357387997 -41.789464649329943 142 139 122
132.830113081516856 -1.589011111179453 -42.368850157826358 143 140 123
130.753036340373654 -1.704858875216615 -44.145463408266352 144 141 124
128.843448335820710 -1.760901926064776 -45.781100526303021 142 139 122
125.510032521957044 -2.456330233356867 -48.613602830842609 139 136 119
123.014032024959477 -2.801846083232462 -50.741734728051824 141 138 121
121.439391269849025 -2.751707114447185 -52.095266907306126 142 139 122
119.194611575198948 -3.013409709903345 -54.011868052416020 142 139 122
117.284899436153182 -3.137667291108871 -55.646743618507770 141 138 119
115.375182108254691 -3.274243898091857 -57.281489896349314 140 137 118
114.303388164025606 -3.037637911753841 -58.212348355476479 139 136 119
112.226118471182531 -3.273735491011339 -59.987631506728263 136 133 116
109.897387884278658 -3.640586277316988 -61.973847374513639 140 137 122
108.155266142889829 -3.746853507949338 -63.467365026267828 140 137 122
106.580792719998868 -3.785010050311019 -64.820068386630226 138 135 118
104.000417996927055 -4.312564381226028 -67.016821014683046 140 137 118
104.354128336319803 -3.449208543962652 -66.751486244294739 140 137 118
104.288993618341451 -2.785621193007902 -66.838015541358544 139 136 117
104.224157301538440 -2.122085639291829 -66.924687059346752 138 136 115
102.566326653337654 -2.238685193301523 -68.347564040440858 139 136 119
99.734389638275147 -2.944659387793548 -70.754710219763894 139 136 119
97.992593751070487 -3.128104175832479 -72.247589331673737 139 136 119
96.502429374826377 -3.197079536405322 -73.529449732466418 139 136 119
97.948436526732308 -1.799397551263871 -72.351000596600670 142 139 122
96.878115928767215 -1.665355220825537 -73.281508160296625 140 137 118
92.032121157975183 -3.461265219579152 -77.374529994212168 137 134 115
91.381222071062709 -3.138224961421293 -77.953338397151072 139 136 117
90.562672146740070 -2.905709190208834 -78.672729169953158 139 136 117
89.156756096894298 -2.983309407310681 -79.883946016414313 136 133 114
88.422410659655981 -2.718984377295014 -80.533088470968664 138 135 116
86.848737408562002 -2.900585677644738 -81.884698081821625 137 134 117
84.519417695545926 -3.492146133462946 -83.868319064181520 139 136 119
81.602131344984201 -4.411874808035591 -86.343293016630724 139 136 119
80.028192965281264 -4.630886443750212 -87.694390707490697 138 135 118
81.057898179316425 -3.456477413292040 -86.868780315428296 139 136 119
81.248206018926012 -2.730225738915722 -86.745580837057730 138 135 118
79.926750470174994 -2.827356556649463 -87.886143374532111 138 135 118
79.277489068505304 -2.563895800646612 -88.465121958731800 137 134 117
79.048579981762543 -2.072256532770820 -88.693249980992789 139 136 119
78.315737873327421 -1.861812171321917 -89.342557002104741 138 135 118
76.238259468609755 -2.407477847079382 -91.114553766380226 137 134 117
74.496864869714159 -2.777632987539179 -92.605702949788906 138 135 118
72.503166214666578 -3.301716407195586 -94.307142931217157 137 134 117
73.452274421390939 -2.164528565694451 -93.553450955644905 133 130 113
73.645156187928450 -1.453423090394137 -93.431326927658091 130 127 110
72.745076510419082 -1.369744341552540 -94.221040976676193 135 132 113
69.742143088811488 -2.509009493852976 -96.763640749580190 139 136 117
67.832458836740543 -3.031405808928465 -98.394431414709686 141 138 119
67.268918134127816 -2.777932910742256 -98.903456792553811 140 137 118
65.359104270448370 -3.320647146746773 -100.533976309367063 140 137 118
64.543315438061910 -3.227828861134482 -101.253250002689953 139 136 117
62.549133005229081 -3.841883098618925 -102.953532431658630 134 131 112
64.090924944255178 -2.351185296278143 -101.711004983241452 131 128 109
216.863337258405011 -2.709158388513118 28.189499711928562 155 154 150
212.180888319223300 -3.149609951131175 24.226003467992740 152 151 146
209.510494441249989 -2.972524752185320 21.954203601503139 151 150 143
206.588559142351187 -2.894509532901111 19.471183410880172 157 154 148
203.163503349710027 -3.000652274520782 16.565596660792608 154 153 148
199.654525523665683 -3.156792143768927 13.589813684455066 153 152 147
196.564748437634847 -3.195211531080012 10.966569179539050 156 153 150
193.558783990375105 -3.225262230321167 8.414001737330778 156 153 149
190.552777295799388 -3.274760918710565 5.861654694015726 157 154 147
188.049927804056125 -3.170244073699451 3.732166919810908 157 154 147
185.882559244871942 -2.965153578525938 1.884586501979271 153 153 143
184.050716050198673 -2.656202890555147 0.318858354392745 155 155 145
179.283183041079951 -3.399657651066612 -3.711673882917779 154 154 144
177.870727787132182 -2.973823742194069 -4.924944496913270 151 151 141
175.619502531776959 -2.859829674263138 -6.842329342365417 150 150 138
173.871634358505617 -2.577026888025826 -8.337102813939651 150 148 136
170.529827830962574 -2.891193311562851 -11.169515549914991 148 146 134
168.446407055397827 -2.760463821918454 -12.945631979575182 150 148 136
166.279108633975113 -2.674530099494774 -14.792019410550409 150 148 136
164.279641258879735 -2.539259109856790 -16.497486722247373 145 143 131
160.853698596610514 -2.959605598181488 -19.399414939937571 141 139 127
158.266799379939300 -3.080146708607566 -21.597235864160893 144 142 130
156.770841046615743 -2.795214334707846 -22.879967405845747 144 142 129
155.694595448555219 -2.356095423788204 -23.810780776305450 141 139 126
153.611310018834814 -2.320102819024452 -25.585986780605765 142 140 127
152.031653400033150 -2.097717917369601 -26.938892401779128 141 139 124
149.696602963640032 -2.187630676643391 -28.924935537465444 144 138 126
147.445479182912976 -2.258757009948505 -30.840463390745413 146 140 128
145.614097778464753 -2.173763054317570 -32.404107158040517 146 140 128
143.698798055088048 -2.134932157126118 -34.037988394577752 146 140 128
