ply
format ascii 1.0
element vertex 679
property double x
property double y
property double z
property uchar red
property uchar green
property uchar blue
end_header
129.243969963329931 -3.002896942747295 -42.523298788864054 146 143 126
126.852676935288073 -3.261894701781815 -44.591554069566001 145 142 125
126.536075262294062 -2.628316346244914 -44.890050194403273 144 141 126
126.219696964071389 -1.996556056110453 -45.188634466704968 143 142 124
122.085507826050630 -3.063121646891418 -48.742818104491477 142 140 122
119.694158397547668 -3.376627511409887 -50.810485324093918 141 138 123
119.129017967928704 -2.882221547107149 -51.321225443105561 140 137 122
118.315015931630569 -2.504406818521611 -52.044287545109881 139 136 121
116.089759292847035 -2.777499084044698 -53.970111213631242 142 139 124
114.528698357233836 -2.759004108322936 -55.329814204468107 145 142 127
113.133758478070462 -2.673523289046486 -56.547960688392862 146 143 128
112.320191525512413 -2.325292570861145 -57.270926409886300 145 142 127
110.261041948969407 -2.568622543166171 -59.054803716010582 146 143 127
108.201856949966384 -2.825382104634460 -60.838525838643733 141 138 121
106.474883839238530 -2.936961452607126 -62.339235863088533 139 136 119
104.498712858852926 -3.179545477410502 -64.051958638679594 142 139 122
101.525590161105697 -3.917528769939541 -66.612950355465102 144 141 124
101.709436920697300 -3.136525956324247 -66.487223499541471 136 133 116
102.059794393182287 -2.272384504666636 -66.220292815840793 141 138 121
101.247143505889355 -1.980155608109072 -66.943120324934171 140 137 120
99.686706532710900 -2.064924640874470 -68.302058868946318 140 137 120
98.292523356822386 -2.076579399429413 -69.519567491824660 141 138 121
95.984069853779076 -2.557937321861176 -71.514305167549367 142 139 122
94.340526152781308 -2.717116440399537 -72.943578682365938 143 140 123
93.944029732835688 -2.250295823445879 -73.312995797863152 141 138 120
90.554579473733170 -3.323801249321330 -76.225658563079719 141 138 119
88.495224267769558 -3.731672401162639 -78.007743791774686 140 137 118
87.932672843084333 -3.373881770289006 -78.518316231615643 138 135 116
88.451529785687427 -2.453096158047557 -78.110860413811139 136 133 114
88.222219326729586 -1.922988117903933 -78.339192399378248 138 135 116
86.994953172935396 -1.923527198862879 -79.414950202895369 139 136 121
84.353437790102888 -2.686898195741680 -81.690884854404885 139 136 119
82.377323582866111 -3.110164590740363 -83.401774935672279 139 136 119
79.402547891157482 -4.086063392792870 -85.959526881954673 139 136 119
79.673142420783989 -3.316646006866300 -85.764321722321569 139 136 117
78.196255537426069 -3.501253550706754 -87.051343770048618 139 137 116
77.302066042551630 -3.374654033161057 -87.844317467283190 140 137 118
75.991753050846242 -3.484178557988990 -88.990082991201490 138 135 116
74.848000172836421 -3.509347269472634 -89.994680849514026 138 135 116
74.703585434025072 -2.981716620109866 -90.152742270652681 140 137 120
73.976513845078344 -2.783262602121467 -90.804686465879570 137 134 117
71.833642765767038 -3.392378922417399 -92.655605354338121 136 133 116
71.606565413350296 -2.922476944092133 -92.884385919180744 133 130 113
69.880138296073767 -3.314223007154014 -94.382473248279098 135 132 115
69.820127227915748 -2.755280398779855 -94.470376520950168 134 131 114
68.760434826958544 -2.776805588316869 -95.404367243030720 136 133 116
66.867353475542131 -3.291748033148078 -97.043177405354271 140 137 118
65.724358951021614 -3.378517454837289 -98.047503970320946 142 139 120
65.498501148322120 -2.930889054304077 -98.276638690442581 141 138 119
63.521924910036958 -3.524387991854457 -99.985555448562195 143 140 121
61.128189325121653 -4.380020504884027 -102.046500757181860 143 140 121
61.569974160239653 -3.547943098282064 -101.712119674134215 143 137 118
63.180149833764389 -2.006665734977112 -100.391968525810881 143 137 119
218.862106938571969 -3.279576588790581 33.779840959542696 149 149 149
214.719251662888610 -3.517490398636713 30.221273443248862 156 155 153
210.160837063428289 -3.914760622167009 26.308853994049315 158 157 153
210.089346181844462 -2.898658236933928 26.221736849531055 158 157 153
206.361783496642147 -3.070844273732040 23.018112637070601 159 158 154
203.631337923528179 -2.940129727519364 20.664659727199023 161 160 155
199.488128923589215 -3.295491618148243 17.107470383472986 159 156 151
195.677224681068850 -3.566677262033259 13.833876654130933 160 157 152
192.198660626645449 -3.750409629668361 10.843827857146778 162 159 152
189.218699578846099 -3.786680364990551 8.278884503724868 161 158 151
187.734798149090921 -3.326908161343927 6.988585266500905 159 156 147
185.835381889007806 -3.021299200986959 5.344359354946079 158 155 146
183.936016263871977 -2.728026059404942 3.700236198585571 155 153 141
181.704192614964597 -2.564922760562568 1.773064185127765 157 155 143
179.804913218619816 -2.297409184675705 0.129164933359448 154 152 140
174.164630062124843 -3.392519705475022 -4.699674589711321 153 151 139
171.600172977605325 -3.404229186305246 -6.909352011666584 155 153 141
169.950264275411200 -3.096552693610189 -8.340386111062799 153 150 141
167.801547699230184 -2.984529699006689 -10.195931583093085 152 149 139
165.819152125633224 -2.824271841470456 -11.909823188493277 152 150 138
164.086254799648799 -2.582756400464133 -13.411333670708416 147 145 133
162.103942281993682 -2.447418894656783 -15.125008492087204 145 143 130
159.955338845756586 -2.388801198544861 -16.980058362313002 143 141 128
157.973084793184171 -2.279749911308713 -18.693490575934135 140 141 127
157.737455928174938 -1.501605620955624 -18.921353019430057 137 135 122
156.004883582827887 -1.314272744072519 -20.422461242916654 144 142 129
152.026507357026560 -2.029794312576749 -23.833080946456676 144 142 129
150.044371975155428 -1.972205364357972 -25.546040204026554 143 139 127
148.395019940094784 -1.793185706922538 -26.976016281634401 141 138 121
145.996983844651766 -1.929465883319138 -29.042308895731082 142 139 122
143.765320361421630 -2.013112254603929 -30.967017613588837 142 139 122
142.781705446331358 -1.595285515829905 -31.831067129325419 143 140 123
141.881438198669571 -1.149036024389050 -32.624423568218958 144 141 124
139.816326590311803 -1.197784408699079 -34.407451584793876 144 141 123
136.752592735610222 -1.682652631453386 -37.038559560169233 145 142 123
133.189390671583340 -2.400560519471327 -40.093478171416251 145 142 125
130.208604275610242 -2.891372240679382 -42.653347862391428 146 143 126
128.809162267446766 -2.716655052745030 -43.870259098005619 144 141 125
128.741652858830520 -1.969660122419192 -43.956510907322837 145 142 127
127.925187745057016 -1.552274703069840 -44.678802002504284 143 142 124
124.528070114721345 -2.283373537727216 -47.591321286658143 141 140 122
120.714464348479851 -3.222537227101149 -50.856746782726560 140 139 121
118.982189381001149 -3.250843869390068 -52.355777584867212 141 140 122
118.332449839507802 -2.800090562611977 -52.936455324927039 140 139 121
115.684269198694977 -3.265105437502901 -55.212272469310221 143 140 123
114.368491543359099 -3.135149684824505 -56.357888807679927 141 138 121
113.469240945359402 -2.820905700286121 -57.150372809290673 144 141 124
112.236957405471756 -2.667609423036573 -58.225313817121105 143 140 123
109.755243869136038 -3.108691785872853 -60.359296833212994 144 141 124
108.273125764190510 -3.093448369928899 -61.645873448789189 142 139 122
105.624646702817714 -3.642935375097858 -63.920678315727258 138 135 120
103.559279185521874 -3.930215351200268 -65.701128580841043 140 137 122
102.577139391193768 -3.708168964211794 -66.563868523781423 141 138 123
102.595165776554794 -3.006422906707046 -66.579715709445736 140 137 122
102.863528043405296 -2.181869564115583 -66.384010185052063 139 136 121
102.798840245049703 -1.519334616449911 -66.470742454015749 139 136 119
101.984225054051208 -1.228802049106926 -67.192612785780625 139 136 119
99.835916678441606 -1.609067825791682 -69.043286163937637 139 136 119
97.103908314985659 -2.296559239877591 -71.387569235285639 141 138 121
95.872575931707757 -2.242955638261068 -72.461939086386366 144 141 124
93.724037216705213 -2.664141424691691 -74.312081060750529 142 139 120
91.908992880409173 -2.928436944616362 -75.879945013410975 140 137 118
89.426659570430232 -3.548593720221997 -78.011788229026394 140 137 118
88.445617445442267 -3.405810389790220 -78.874237398757145 138 135 116
88.966322853574951 -2.484917514131662 -78.467666984642221 137 134 115
89.404034921342344 -1.603920264739436 -78.131841060171354 136 133 114
87.839588840960829 -1.778735467333595 -79.487934770578306 138 135 118
85.607543977286696 -2.318982704844163 -81.407761015246280 138 135 118
82.040002049942615 -3.589021660301242 -84.454920088314196 138 135 118
80.224848120008872 -3.938132028463203 -86.021858569913832 138 135 118
78.910492859013516 -4.027478508617667 -87.165897988809974 137 134 116
78.514543319828320 -3.624242662986569 -87.534922220194943 138 135 115
78.035349448135946 -3.269032952887913 -87.974487176027395 139 136 117
76.136763821325388 -3.700499879121153 -89.611523367316863 138 135 116
75.407319246913929 -3.494808624343522 -90.262406830945281 139 136 117
74.678050575868284 -3.293567328032947 -90.913328640482973 141 138 120
74.366650266223402 -2.861944231784809 -91.212234252780206 138 135 118
72.217455963965548 -3.471416791480646 -93.060124466104213 135 132 115
69.900954108007099 -4.190085741859705 -95.048569075756205 137 134 117
69.255626559386513 -3.967622458793510 -95.629007594186191 135 132 115
70.031386534350617 -2.931216675907556 -95.013066788210921 133 130 113
69.135864734701457 -2.856791147482945 -95.804866062328074 137 134 116
67.070009601346328 -3.469434492455462 -97.581733924986196 140 137 118
65.338424312405579 -3.899808398593525 -99.076955986647334 142 139 120
64.944781554774082 -3.553447947945499 -99.446498327408278 141 138 119
62.627682653074373 -4.348628368895865 -101.433869741421546 142 139 120
60.644903464884592 -4.959846740434071 -103.139636634533190 143 138 119
62.259516912226772 -3.429126799875860 -101.821499829136798 140 134 115
65.213849537674918 -1.080180176580791 -99.378960345932967 140 135 116
218.574210286305231 -4.739674069803442 32.269715974214932 119 119 119
219.585756688375909 -3.361804668947404 33.101919159875706 145 145 145
214.264040963273743 -3.966776540727332 28.559068365927374 155 154 152
213.109076832454463 -3.283894500514742 27.552545610448533 157 156 152
213.204353395134376 -2.207575614609472 27.606745423374946 157 156 152
206.715567423248388 -3.263335184696130 22.074832830454312 158 157 153
204.227208310080528 -3.052471762288090 19.937318230062914 158 157 152
201.738858036456350 -2.857777531053525 17.799965838471536 159 156 149
198.333610991369540 -2.985245099184635 14.885122158604560 158 155 148
194.011354803954561 -3.443893569688289 11.192933786457104 159 156 149
191.189465063969493 -3.420179161056738 8.773469973820227 159 156 149
189.034472559596168 -3.185716113059164 6.919666547346850 158 155 146
186.295928073293567 -3.167610379540015 4.571247268862834 158 155 146
184.474459151813733 -2.846275721048526 3.000428630110889 154 152 140
181.986038741859545 -2.772395935954346 0.864353395285463 158 156 144
178.580437471130608 -3.041736412675305 -2.048860455129471 153 151 139
176.342119867065321 -2.913175277336148 -3.972570222857684 152 150 138
172.769618406626876 -3.283617459074598 -7.026616673803659 153 151 139
170.614661555571217 -3.157923834434262 -8.879317538386346 152 149 140
168.042748385982065 -3.200342528445677 -11.085111889443283 153 151 140
165.220615642037444 -3.352780106604065 -13.502646228927716 152 150 138
164.066508784030816 -2.896039509142553 -14.507251313307677 149 147 135
163.496374772184140 -2.225125584957475 -15.017419404799227 145 143 130
161.174762899322673 -2.228187030486769 -17.010785507418291 141 139 126
158.769732327461696 -2.278511610711385 -19.074616772103440 141 142 128
157.532582918348055 -1.889801914809278 -20.149653193354794 142 140 127
155.794991230224127 -1.705509315324633 -21.648328885359177 143 141 128
153.556875233723417 -1.730577346318129 -23.570553719269526 144 142 129
151.235324063998803 -1.803456876420957 -25.563230189443090 143 139 127
149.080639894874366 -1.824250272973344 -27.414553639629048 142 139 122
146.174960556194890 -2.163652132005375 -29.901053942220727 145 142 125
143.686441622466702 -2.351347928977068 -32.034389514739843 144 141 124
142.282788478011241 -2.108008302152499 -33.249992522422957 145 142 125
141.797277578052899 -1.492241247385634 -33.689217481227359 145 142 125
140.393857799970476 -1.263878581867442 -34.904777965196899 144 141 123
137.154188618527087 -1.819513105278371 -37.672708420073178 144 141 122
134.665649382706022 -2.076756417465838 -39.805318392628891 143 140 123
131.843131359367021 -2.493290318803759 -42.219949939646597 142 139 122
130.606748828065179 -2.243160067055262 -43.293926764779371 142 139 123
129.286979417705709 -2.037252793195382 -44.438415268390713 144 141 126
128.384792143501500 -1.656746498759665 -45.230176445414372 142 141 123
125.228160647250064 -2.277798750310221 -47.926299581797821 143 142 124
121.820832306022027 -3.030947704743487 -50.833707123900354 142 141 123
120.000087704411342 -3.095050298872401 -52.400904775526612 142 141 123
119.014573984937172 -2.793761971434032 -53.262846321342749 141 140 122
117.444500970515108 -2.764640865994050 -54.618347344659639 142 139 122
116.041544596609242 -2.669078283466482 -55.832762541631553 142 139 122
114.304497148708506 -2.736693509834938 -57.329105582494122 140 137 120
112.149731084081182 -3.009642982338093 -59.177794284990171 140 137 120
110.245576180024685 -3.179270911085617 -60.814861393472825 143 140 123
107.756480340709757 -3.636890173521182 -62.945142518508874 142 139 122
105.434405200772431 -4.031411311238450 -64.934257504482616 132 129 114
104.282285609762781 -3.881915456981936 -65.936650666093783 139 136 121
102.628776133932007 -3.981035874770773 -67.361774802767854 140 137 122
102.396299707009760 -3.402396364149416 -67.589091758918528 140 137 122
102.080490092730088 -2.865706439215554 -67.886969480641000 140 137 122
102.851787938479077 -1.797044739137948 -67.269226033703774 140 137 120
102.620196916560701 -1.218830269869841 -67.496962189409174 140 137 120
100.131149214666792 -1.765303263671711 -69.626351727129190 140 137 120
97.976463695518092 -2.160455052683879 -71.473821072473044 141 138 121
95.570780153000513 -2.696141247029960 -73.532343887315420 144 141 124
94.085033360020049 -2.780550016879325 -74.816158780964514 143 140 121
92.181055990990416 -3.088167140132498 -76.451890429496643 139 136 117
90.193361128617127 -3.451148395454747 -78.157860910269250 139 136 117
88.707602806861260 -3.567275059676228 -79.441343800371214 138 135 116
88.477034699076896 -3.039302001830180 -79.669052154605225 137 134 115
88.497811405210228 -2.380858882689122 -79.685769345401553 136 133 114
88.016754849792648 -1.986657884367601 -80.124844556641762 136 133 116
85.192193517019717 -2.839042142922662 -82.534012164750891 136 133 116
83.371921654004908 -3.173553910905555 -84.098652515432661 137 134 117
81.384135927850352 -3.609848786411014 -85.803824873361606 137 134 117
80.401042408891797 -3.515857174310094 -86.664790425580776 137 134 117
80.422987401780205 -2.881394548318842 -86.681819677493451 138 135 116
78.100198663295316 -3.529694698565781 -88.667981005504430 140 137 118
78.290106693349756 -2.809634783681095 -88.544526524722272 138 135 116
75.967209626328511 -3.479886801645949 -90.530410067130731 139 136 117
75.319777808317497 -3.231624857234816 -91.110107468878510 137 134 115
73.774096595521229 -2.888488307844732 -92.480509765197382 137 134 117
68.433512712938835 -5.315079520738506 -96.995583254300726 137 134 117
69.378951779642662 -4.190387882623958 -96.240007345020416 134 131 114
71.666436165833204 -2.288873374899651 -94.360715385747795 132 129 112
70.265506400865632 -2.500801293099010 -95.572934951295252 138 131 114
67.271192743564214 -3.646783761705636 -98.119589245186006 140 133 115
66.121645586338644 -3.735243861474361 -99.120763650128339 144 137 119
64.301066584554974 -4.225085099561273 -100.683658182409260 144 137 119
62.564243343779481 -4.677271165826060 -102.176149902345202 146 139 121
62.337687050519079 -4.243715675177048 -102.404805607445667 143 138 119
63.118533573753282 -3.209605099997425 -101.791274563001593 137 134 115
60.626506700845965 -4.135669398826032 -103.915331551527572 135 132 113
219.556269466459753 -3.676892077807866 31.788962479706640 139 139 139
219.317520977601106 -2.688015170431442 31.560423276877202 151 150 148
214.648827964523093 -3.102461795322440 27.590078563156908 157 156 152
213.323600481410011 -2.478321532118274 26.443896100580702 153 152 148
208.069571975613684 -3.131567006694978 21.980019762293495 154 153 149
204.487276887321769 -3.273605730351115 18.928307477808829 156 155 150
203.496512201950452 -2.585065634294240 18.064891799086098 159 156 147
199.412540428047009 -2.932080219332830 14.590136531383564 157 154 145
194.241551728868217 -3.670824218364337 10.198273198430627 158 155 146
192.247547090932301 -3.365409826846954 8.488441160493068 158 155 146
189.082987934808330 -3.473802722208364 5.790833529127639 159 156 149
186.336460366722719 -3.458183575989451 3.446258925297144 159 156 147
184.258881408268792 -3.226894041714129 1.666312675298826 152 152 140
180.926957771342188 -3.450908029263359 -1.171755985984021 157 156 144
179.685680670282636 -2.953255464734402 -2.245939137231943 153 153 141
177.106385688117683 -2.943648464174175 -4.448737581065103 151 151 139
174.527075200946911 -2.950751919104052 -6.651356598243638 152 151 139
171.864106145115414 -3.005120143266214 -8.924326007839426 150 147 138
168.030078554999761 -3.508345332056764 -12.184469107349798 153 150 139
166.538081415051636 -3.165634257705216 -13.469690415556840 153 151 139
165.213475360166228 -2.769749239844644 -14.613820621361214 150 148 136
164.307259680977324 -2.224086397687752 -15.405354662561621 144 142 129
163.903162838519620 -1.492598360191178 -15.773860116698302 140 139 126
160.654604186869506 -1.858361043781139 -18.539492325728901 143 144 130
157.656955206053794 -2.147802546230275 -21.093367818736851 144 142 129
155.747009613400735 -2.030951462868368 -22.730613554030072 142 140 127
153.837100871886008 -1.926414471421487 -24.367750163647429 144 142 129
152.094598043036086 -1.767590256758547 -25.863814223883338 143 139 127
150.101078787245285 -1.720703354507271 -27.571217313655353 141 138 121
146.852158228372872 -2.194436147112473 -30.335564996939723 145 142 125
143.686808270089955 -2.655165554085512 -33.029167534550197 146 143 126
141.107269020009312 -2.895661598616336 -35.229274685165677 145 142 125
140.620429151874191 -2.285954392816705 -35.667801493080020 145 142 125
139.129204923297635 -2.098618978411759 -36.951793199716036 145 142 123
137.386894025914899 -2.026522134333389 -38.447056350914465 142 139 120
135.142267342885759 -2.178659873750195 -40.364858502363234 141 138 121
133.986131031999349 -1.880166477091167 -41.366863785507434 142 139 122
131.406572989749122 -2.201981651210835 -43.566124887361298 143 140 124
129.496885181755431 -2.249861501664880 -45.201798287696505 144 141 126
128.424701998736055 -1.943952277087976 -46.133183909366721 143 142 124
125.091256399189078 -2.640764129721727 -48.965657723010281 143 142 124
122.762748174245630 -2.913337000383866 -50.952950417942219 143 142 124
120.601716809107870 -3.126113644551568 -52.799261211299950 144 143 125
119.864801284670463 -2.711667112424856 -53.448719420983650 143 142 124
118.792941020882836 -2.453754453141302 -54.379765473349522 141 138 121
116.296834387075990 -2.853244686468465 -56.507291009629711 142 139 122
114.219595000380906 -3.076188233963059 -58.282724060295749 139 136 119
112.561317944238951 -3.118422845968284 -59.706152957066706 138 135 118
110.148807943402616 -3.523267747534331 -61.762756832804143 142 139 122
108.406707002020610 -3.628700391616645 -63.256293026028857 143 140 123
106.916075400096830 -3.626359043203781 -64.538664006369942 143 140 125
106.347597491476122 -3.194207431762461 -65.047166671539230 140 137 122
105.192479623359489 -3.047007746462701 -66.048101832039066 140 137 122
102.779827886135706 -3.514603846800566 -68.103991971962103 140 137 122
101.876355149756961 -3.263875059364126 -68.893802323213492 140 137 122
102.147037957962269 -2.443972972357579 -68.699159060139493 141 138 121
101.831027869137827 -1.911231202571194 -68.996900235182608 141 138 121
99.753936184881184 -2.254149006727694 -70.771168990895205 141 138 121
98.263940895466007 -2.317244288884821 -72.053170808848307 141 138 121
97.025649975860887 -2.263346126528988 -73.124214752083645 144 141 124
95.116257769594810 -2.556964767415970 -74.757500054453601 145 142 123
92.703372889075709 -3.119358947197279 -76.812302855169065 138 135 116
91.213391941292087 -3.224263377028842 -78.093881171549441 139 136 117
89.807357900692907 -3.295412552866721 -79.305107975447044 138 135 116
88.401361894550533 -3.375545485870805 -80.516260500572798 137 134 115
88.254527221498876 -2.806711280302863 -80.673588362368633 136 133 114
87.184540996660701 -2.724004182566359 -81.603727469683577 138 135 118
87.206144899861641 -2.070464260265311 -81.620789917653411 138 135 118
86.136495446497563 -1.997534207170689 -82.550989495255067 138 135 118
82.631552523044007 -3.236111598429545 -85.517560681977557 139 136 119
81.393854708650608 -3.275374447333692 -86.587929411624202 140 137 120
80.576213353929887 -3.094697981675188 -87.307221232995630 140 137 118
81.774952765335968 -1.818819154459831 -86.341802931305864 139 136 117
78.437294358680987 -3.025160638629971 -89.167016508006128 139 136 117
77.620071465568472 -2.861237753385589 -89.886336066957057 142 139 120
76.046643757196478 -3.122581055771130 -91.237242320120686 139 136 117
74.809387305678612 -3.206136850175900 -92.307366266715178 137 134 117
73.908429065053951 -3.108488398231985 -93.096803811322161 138 135 118
71.746505726105113 -3.729670925825970 -94.938483960542527 136 133 116
69.836632508800491 -4.221488516598067 -96.569498987522650 133 130 113
69.860827888756489 -3.618930762832471 -96.587276404017331 132 129 112
70.558272240047273 -2.628374520419945 -96.044256604687774 137 132 113
69.069185371696278 -2.898574818336219 -97.324561172196326 140 133 115
66.233955371274249 -3.962079714001198 -99.726451755495589 144 137 119
65.249462149788940 -3.960421901163111 -100.585797256643417 144 137 119
64.601696387929394 -3.766671712410240 -101.164773783913319 145 138 120
65.385006040465427 -2.729363104290712 -100.552454011043977 142 136 117
64.906225888965409 -2.438095994721476 -100.991558695889097 135 132 113
62.322831631925112 -3.410096153904674 -103.182291885060664 135 132 113
216.599508732062873 -3.843513442483597 27.994814206262276 151 150 145
215.354293459161283 -3.185257603722574 26.920861892742778 155 154 149
211.761693273512435 -3.283225541527265 23.873625888772750 154 151 146
209.678179052660141 -2.918532076123498 22.095145854281952 153 150 145
205.498565596128117 -3.249014567338877 18.555116181649481 156 154 149
201.989616435050209 -3.386253713153387 15.579124937449080 157 154 147
200.744608421608291 -2.795179392413942 14.505765004828589 156 153 145
195.474619730941072 -3.560379407956718 10.050676368608009 157 154 145
190.707556307883465 -4.189616994327086 6.018743788184224 156 153 144
189.630281195576515 -3.589767738777188 5.086768455629880 157 154 145
187.295124913158986 -3.430440044115029 3.098210399118813 157 155 146
183.869661076581053 -3.665579578556287 0.194146684642902 152 152 140
182.289349651172898 -3.274826047995456 -1.160178782172892 156 156 144
179.534818509071926 -3.310461194232397 -3.500396917448199 154 154 142
178.457904971626846 -2.763780769956563 -4.431997932686983 152 152 140
175.367843066435142 -2.950670297180107 -7.053577903357620 150 150 138
172.864947264965792 -2.943679217282455 -9.182039641455134 151 148 139
170.865406887855897 -2.767878909241646 -10.887889217873067 152 150 139
167.859113992410869 -2.978184327724057 -13.438444079218044 151 149 137
166.279108633975113 -2.674530099494774 -14.792019410550409 149 147 135
164.699179852469598 -2.380999791681426 -16.145527165425108 146 144 131
162.783678880650996 -2.225296697586945 -17.780515149631839 142 141 128
161.623468607403652 -1.792099387187351 -18.781958038200486 143 144 130
158.449268113107223 -2.145694465043268 -21.472429297188512 145 143 130
156.701708114859912 -1.963084529147303 -22.966318863296834 144 142 129
155.289926791880646 -1.659584241071277 -24.178652642143589 143 141 128
153.458560369444882 -1.531599910712180 -25.742746098305702 143 139 127
151.207534721421951 -1.583257248086215 -27.658521302090435 143 140 123
148.284936057321033 -1.920240421870089 -30.136952354137406 145 142 125
145.530146970267253 -2.207890188042213 -32.474452976347152 145 142 125
142.187589750566019 -2.754181283310364 -35.304117207911617 145 142 125
140.440142899586078 -2.663267414186219 -36.797117029605374 145 142 125
139.028606546366404 -2.443745948778717 -38.008703564936354 144 141 123
137.113323204059213 -2.444606978513183 -39.642184069177773 143 140 121
136.289769611037400 -1.996196898917896 -40.361403412597497 143 140 123
134.206628710970222 -2.089655698670898 -42.135346051051073 143 140 123
132.543426496427571 -2.016235365271484 -43.557609263378311 143 140 124
130.208312222740631 -2.244151096951589 -45.542201325600416 143 140 125
128.965162859157999 -2.011186001072063 -46.612764231792426 142 141 123
126.209990970468041 -2.450106567091968 -48.948524616676877 142 141 123
124.294834760756231 -2.535218696073927 -50.581198701827418 143 142 124
121.707524858610299 -2.932190305882763 -52.775977717530452 144 143 125
120.632579413062615 -2.666946860969618 -53.705623288976568 141 140 122
119.389695048752159 -2.484468388031498 -54.775793285739866 139 136 119
117.978832443466729 -2.386417091421819 -55.986451786304372 141 138 121
114.803082031027500 -3.106969243527776 -58.672404296256900 140 137 120
113.056009770132363 -3.188048565456151 -60.163812908245802 139 136 119
110.552414266669970 -3.632323370890785 -62.287294804853900 140 137 120
109.393766049369333 -3.462617271019840 -63.286772728236627 139 136 120
108.067076425844760 -3.379559690047692 -64.426686071986978 140 137 122
106.488220193588873 -3.424765198195835 -65.777220152826317 139 136 121
105.245748478966519 -3.319176016803463 -66.846796099682223 138 135 120
102.741925787255539 -3.828998352694510 -68.969494596551783 139 136 121
102.088241101289341 -3.457858294586761 -69.547465493855753 140 137 122
102.191753378845078 -2.721118240296822 -69.493710163192759 140 137 120
101.454410252409872 -2.396706409323606 -70.142037037137897 140 137 120
99.371210700513345 -2.742736776129671 -71.913351770736625 140 137 120
98.129288763009740 -2.683213024551464 -72.982716554471295 140 137 120
96.635017746572657 -2.758093263128652 -74.262551570796404 141 138 121
94.720015411895304 -3.054826617205914 -75.893120945656733 141 138 119
92.973277120412817 -3.278423705332464 -77.383222320505610 136 133 114
92.152378175691325 -3.039983593820986 -78.101550312211486 137 134 115
90.237320703204929 -3.369562555853908 -79.731755212990095 138 135 116
89.416632182910163 -3.144868871960586 -80.450042372135357 138 135 116
88.511909711647419 -2.969083916010069 -81.238483419995930 138 135 116
88.365187498162371 -2.401537953170042 -81.395851821533398 137 134 117
89.397799823066975 -1.212436409115242 -80.571783418769570 137 134 117
85.293259364343612 -2.743608432158206 -84.024509570778747 139 136 119
83.209766353958642 -3.221883919624331 -85.794322649381286 140 137 120
81.463118667506279 -3.532546677027490 -87.283571158694116 141 138 121
82.244064327329440 -2.487496363927494 -86.670200149072514 140 137 118
81.930110340324504 -2.032725783078293 -86.968122359561249 140 137 118
81.363617769924971 -1.717957192949735 -87.476366521323826 139 136 117
78.521619450074880 -2.659768385802176 -89.876271818225206 138 135 116
74.499108226999169 -4.274077980976162 -93.256525813680440 138 135 116
73.679637813013784 -4.129524211579991 -93.974570790310054 140 137 120
73.113280806298931 -3.848162869534791 -94.482535927687792 139 136 119
72.125494052010637 -3.807887022683886 -95.340703328856080 138 135 118
70.378738516667482 -4.204357189840747 -96.829016984854690 136 133 116
69.559773567132908 -4.082687685558868 -97.547068214708077 134 131 114
70.175178001157576 -3.142922188316685 -97.075136870433056 138 131 113
70.369257158090221 -2.441916212270775 -96.953481710687640 145 138 120
68.538429051817118 -2.914802399636086 -98.511647633366323 144 137 119
65.525829162925319 -4.089486425718979 -101.049258417194693 143 136 118
66.902306946858403 -2.706614067822833 -99.948253112004977 143 136 118
66.000052900234309 -2.659841537373425 -100.736547056045680 143 137 118
65.520133095663653 -2.367893845022556 -101.175113540348605 141 136 117
63.520302573642070 -2.986419542942425 -102.872647915820892 141 136 117
219.397135463886173 -4.332051038310233 29.100363398364379 130 131 126
218.064293181211781 -3.689847148447052 27.957637891813334 146 145 140
214.377187994082533 -3.796742794211436 24.844845769077892 153 152 147
212.371754597165335 -3.393011449443001 23.139469184472375 154 151 146
207.086816767821063 -4.054999947146284 18.690469756951387 151 148 143
204.240402070374500 -3.960396264508852 16.282008900990490 156 153 148
202.823630647487505 -3.415927796447066 15.069581962306358 156 153 146
198.126994416832815 -3.965334925967848 11.113994404365940 155 152 145
195.280487593393730 -3.927165115872389 8.706158523364081 157 154 145
190.919993377254798 -4.417884518806626 5.032593215307713 155 152 142
189.503272859903120 -3.934528283451997 3.820770982501358 153 151 139
188.507228333857114 -3.315669395466198 2.960598425139182 154 152 140
186.249515175530235 -3.140881797327912 1.045691591883525 154 152 140
183.066455444956205 -3.304653803078508 -1.642495383076295 156 154 142
181.145246163170611 -3.042990549278944 -3.275843232514944 156 154 142
178.971688127197154 -2.883672179940671 -5.119991470381223 155 153 141
176.798152457855963 -2.738323116937714 -6.964006615280056 153 151 139
173.699093445871569 -2.943042354307544 -9.581098870737179 152 150 138
170.515815961708881 -3.198592704494792 -12.268236952521761 151 149 137
169.267879254557243 -2.759320840129748 -13.338633229167726 150 148 136
167.346827582961396 -2.578999909968649 -14.971219181380832 148 146 134
164.163449107420007 -2.885783078471248 -17.657781584099951 144 142 129
161.989923779098717 -2.829999316275174 -19.500879735472324 143 141 128
160.826413931493164 -2.401759217143085 -20.500693091912183 145 143 131
159.410510526108993 -2.078317597055622 -21.711260146813828 145 143 130
157.489641590813335 -1.960400806649537 -23.343291162286903 143 141 128
155.821352735277856 -1.755716006480571 -24.764472114096776 145 143 130
153.648009384440456 -1.761504086377025 -26.607023532971908 144 142 127
151.558860363557017 -1.747677203344366 -28.379196252449788 144 141 126
148.459362866467359 -2.153496719176727 -30.994008711945213 146 143 128
147.296390829321808 -1.794387519067389 -31.993367755993575 145 142 126
145.123055332433495 -1.855476388592424 -33.835353693362748 144 141 126
142.360225309780219 -2.173289225079358 -36.168697075908341 145 142 125
139.681526958610789 -2.473974529489732 -38.431606179083929 144 141 123
138.518773720193252 -2.157764161964111 -39.430628316459519 143 140 121
137.019223193901013 -1.990926624745476 -40.710425755861451 144 141 124
134.761631106183813 -2.155697291264369 -42.621895265084220 144 141 124
132.756729419315405 -2.226807168914983 -44.322638438712374 143 140 124
131.004568366857484 -2.201768698093218 -45.812704914010340 142 139 124
130.347729908835674 -1.711947388400323 -46.390388703316091 142 141 123
128.174418482040807 -1.890175485446026 -48.231180382820781 140 139 121
125.748278785938936 -2.193882586690045 -50.282304921247828 138 137 119
122.310802912420158 -2.962577668586355 -53.175129963139852 141 140 122
120.642937891402710 -2.961388594021790 -54.594418992199223 141 140 122
119.817956576825068 -2.590846228129416 -55.312153787025949 138 135 118
118.740266594889064 -2.340237971631241 -56.240335734324958 138 135 118
116.566822531859188 -2.597623383347090 -58.080249155104383 135 132 115
113.718880954236482 -3.179672346944847 -60.481014431213936 141 138 121
111.208018259235132 -3.623714660004207 -62.601022121460460 140 137 120
110.299108878003295 -3.335550113483439 -63.388616945523779 140 137 121
109.306022706961514 -3.092698256765633 -64.246334340517080 138 135 120
107.554062686408656 -3.215580241451086 -65.734974369231878 138 135 120
104.283947508124086 -4.073774923411291 -68.485225159874403 138 135 120
104.050140903867700 -3.494991688193303 -68.711907243177336 139 136 121
103.985321770079651 -2.835798989835475 -68.798542278269196 140 137 122
102.402233664631936 -2.915828745589691 -70.146693382004429 140 137 120
100.987914562237748 -2.923266793756010 -71.354612451380888 140 137 120
99.489265995282594 -2.981311467153545 -72.632526559473007 140 137 120
96.893581429291544 -3.593677622195488 -74.821082000439475 140 137 120
94.972895195788539 -3.885386022125286 -76.448983941961757 140 137 120
94.402662050606992 -3.509969004616110 -76.956062910300375 141 138 119
94.507970751357703 -2.795931164742247 -76.902933297038658 136 133 114
94.107091239403559 -2.338931637590035 -77.270152462931975 138 135 116
93.199866328188406 -2.144024477013176 -78.057593186555351 138 135 116
90.603933265289498 -2.826572894919724 -80.245307326164664 138 135 116
90.119081897880719 -2.429123388032105 -80.682600550886406 138 135 116
89.296625321090048 -2.211075612755052 -81.399973468188449 137 134 117
87.967507612266573 -2.264691460359190 -82.537318375995397 137 134 117
86.384996389220447 -2.460889481456244 -83.884549679981006 139 136 119
82.605705050509115 -3.837344280679959 -87.051030938569482 140 137 120
82.205919209734347 -3.427096782895328 -87.418292070881733 141 138 121
81.806396723834297 -3.019035642053011 -87.785656685992961 140 137 118
82.083315559561669 -2.246300988802984 -87.593511199019645 140 137 118
80.754555445786991 -2.347860394250330 -88.730533671946574 140 137 118
79.510374641321320 -2.411412731127128 -89.797550937462773 140 137 118
74.884079651539693 -4.351217450017325 -93.661618558143601 140 137 118
73.639561685894364 -4.441877377800123 -94.728195494856237 140 137 120
73.663736766743241 -3.831190736585641 -94.746046875049757 139 136 119
73.519120554291106 -3.314928029047937 -94.903894895953300 138 135 118
72.867249338858031 -3.086203457025984 -95.481267397202629 138 135 118
69.931069530210507 -4.161086729121396 -97.945605699849636 134 131 114
70.971760493416880 -2.979275119504435 -97.125327051000767 139 133 114
72.013143809443918 -1.789820479489660 -96.305458294919532 145 138 120
69.753946784710323 -2.503731768765747 -98.210507427480280 143 136 118
67.748466356840254 -3.084538601549945 -99.905727166588065 143 136 118
67.266914322623421 -2.786002964731408 -100.343580610845009 143 136 118
67.039683155728270 -2.340535758206814 -100.572036071987327 144 137 119
66.135193959958656 -2.297232685364254 -101.359225015468155 144 137 119
64.976695803166564 -2.410807396491742 -102.355858775588160 144 137 119
218.436396634504206 -3.876177970899704 27.005530677538871 140 139 134
214.991593052183191 -3.905381733822717 24.108599230785813 150 149 144
212.643100012113507 -3.609385326912662 22.125014633709299 151 150 145
208.607826711365931 -3.868364535929988 18.736914875943341 148 145 140
205.247182619983363 -3.935206238128570 15.910968128337061 155 152 147
203.995150038350317 -3.335137457865219 14.840876140570742 155 152 145
198.778744014940685 -4.050354155174548 10.470498121516584 153 150 143
196.514509785941243 -3.816130539224298 8.558099141328910 154 151 142
194.756446159236475 -3.426254934896550 7.067100985424730 154 151 141
191.226847991807176 -3.648982304601785 4.101868128318046 153 151 139
190.396860295094172 -2.969317111374751 3.383346412992694 154 152 140
187.626520373140693 -2.966095791294010 1.050291174683281 153 151 139
184.012413437501976 -3.275261754001924 -1.984482106443551 153 151 139
183.182660730732096 -2.626553544759845 -2.702797584364532 154 152 140
180.665424195891205 -2.583169045481835 -4.824773380521236 154 152 140
177.388701422635052 -2.828470487736638 -7.578171938385594 153 151 139
174.533840685269126 -2.942096478667510 -9.980448825164018 152 150 138
172.438482039811134 -2.796616686163548 -11.751006051064110 151 149 137
170.511947395497032 -2.602347349020767 -13.381112545882985 150 148 136
167.572611052692139 -2.796936233205206 -15.853002085765496 148 146 133
164.633206413651862 -3.010434552832508 -18.324664308644799 144 142 129
162.537858575760481 -2.923566893835267 -20.094623380713301 143 141 129
161.286705443915935 -2.528089247257800 -21.163030134927141 144 142 130
160.204510199505478 -2.075572562100665 -22.091135124987346 145 143 130
158.193747765327004 -1.990147996085041 -23.790685824856183 143 141 128
155.676416622594729 -2.115753334540214 -25.910876863628857 145 143 129
154.256733695928062 -1.824582259376403 -27.119303631573814 144 142 127
151.486064012272550 -2.079675816765913 -29.449542148215301 144 141 126
148.884215491241832 -2.284881729604723 -31.639339879131768 145 142 127
147.042387060676788 -2.199639924577725 -33.197988376180291 144 141 126
145.622887069604189 -1.954129236380754 -34.406032654585545 144 141 126
143.020981220282437 -2.203160294450001 -36.595351845608405 144 141 126
140.419008002447583 -2.468917762868874 -38.784466634421136 144 141 124
139.759893859197234 -1.941027114152496 -39.361453610544885 140 137 120
138.678564665211269 -1.594709425246079 -40.288879756541405 141 138 121
135.400708904844407 -2.185623753933169 -43.038178730194545 142 139 122
132.545140579710278 -2.617382202717540 -45.436842412205351 143 140 123
130.703436727941835 -2.631461579856592 -46.994528144500492 142 139 122
130.974381688279834 -1.741880673025429 -46.800727533204252 142 139 122
130.147008970805928 -1.329828248432146 -47.517745572969488 142 139 122
126.699752712468225 -2.075183139475598 -50.406131964598018 137 134 117
124.012984610433747 -2.505797722809554 -52.663843099281735 139 136 119
122.002343555290111 -2.651914774085735 -54.361068492281447 139 136 119
121.428824601051858 -2.164842853819581 -54.867724860834869 139 136 119
119.840980603416000 -2.140576699372394 -56.214674332246574 138 135 118
117.745872625751417 -2.357761789029121 -57.981618384940532 137 134 117
115.227930091350174 -2.782567986796991 -60.098437111283914 138 135 118
113.555527841973671 -2.832432203192953 -61.515030028677842 139 136 119
112.221440548928953 -2.735371540388762 -62.651548493442675 139 136 119
110.041627509172187 -3.043470519262406 -64.487892997363957 138 135 118
107.100449054233053 -3.725144255739462 -66.953887468040591 138 135 118
105.935565544760593 -3.580985967790956 -67.950119472558896 139 136 119
105.278406785738611 -3.201070880862124 -68.526518711000989 140 137 120
105.129114976626482 -2.580364454711680 -68.683205034152650 139 136 119
102.187674142892675 -3.315568344925538 -71.148522970949699 140 137 121
100.684664645312097 -3.366875057138608 -72.424420181997959 140 137 121
99.604869141652401 -3.219571999899140 -73.350531482609426 140 137 122
97.001587318658409 -3.833406645326157 -75.535437305957601 139 136 120
94.906029898541505 -4.210932284958779 -77.300515881093901 139 136 119
94.164965417960858 -3.922376750007272 -77.946693385103913 141 138 119
94.524802514827087 -3.082512488157229 -77.684047823903285 137 134 115
94.800376841365150 -2.282852038129524 -77.491536289094995 139 136 117
93.043819935760439 -2.520511349446786 -78.976795723075611 139 136 117
91.626020423951005 -2.595009624126350 -80.182359491918049 138 135 116
90.123548508476958 -2.722369177149047 -81.457731030307286 138 135 117
88.621090113104415 -2.859275114175911 -82.733010770940552 138 135 118
87.881187550899369 -2.605716139599538 -83.379383895542020 138 135 118
85.192514833427367 -3.385379026626901 -85.632590939192170 139 136 119
84.537500286297345 -3.102232108335212 -86.209019877881701 140 137 120
82.357053450413360 -3.638293716338977 -88.042714642047940 141 138 121
81.447957818142328 -3.504761331568341 -88.828628657731059 140 137 118
81.217232356559862 -3.009904980707920 -89.055920847546048 140 137 118
80.986819947056475 -2.516079601421639 -89.283352188094199 139 136 117
78.043112024916724 -3.509122810389410 -91.744931487933457 139 136 117
76.201562694559954 -3.914087415898558 -93.298667564722763 139 136 117
74.868839931771106 -4.048886313363439 -94.433452169154691 140 137 120
74.638984088232803 -3.577362851815391 -94.660920204110056 139 136 119
74.239757486356737 -3.201987526657661 -95.028089917603410 138 135 118
75.198533367489262 -2.062964899876953 -94.279041810696611 138 135 118
72.084222833748882 -3.227994665746337 -96.878952831735063 137 134 117
71.006585789149227 -3.251065043607508 -97.804342992406504 141 134 116
73.070128866146007 -1.478113780684072 -96.149171567120163 145 138 120
69.615727291279711 -2.876244693011933 -99.027420312299967 142 135 117
68.708293454833651 -2.818255611825808 -99.813351720236113 143 136 118
68.225656942336514 -2.517883786869425 -100.250705254607993 143 136 118
68.422853623874630 -1.821164724456406 -100.130497380592203 142 135 117
66.241664171751907 -2.527097602770897 -101.962088309373996 141 134 116
65.419770826798540 -2.439980126949889 -102.678382943510371 143 136 118
220.243495152582625 -3.617238491264719 27.246944395766263 137 138 132
218.565020946933032 -3.088049726758285 25.827295798216852 147 148 142
214.941153791131399 -3.184146556274039 22.794998545336028 148 147 142
210.894257708576959 -3.438490130237062 19.412411369626540 145 144 139
207.777760323441612 -3.418896680896279 16.801352608941812 152 149 144
205.084198793984285 -3.281590831653172 14.541045536340022 153 150 143
200.614023507723516 -3.745660702806889 10.808818074336045 153 150 143
197.680298904589677 -2.746327331898307 8.321954255883583 152 150 139
193.717538371673356 -3.105409811507491 5.011053936712358 154 152 140
190.939258149316544 -3.085223719779917 2.681622683981885 155 153 141
188.076329144492661 -3.112028037624740 0.282311929603111 153 151 139
185.636478258933835 -3.009896078353900 -1.766430728111686 151 149 137
183.619765023377710 -2.774716629708209 -3.464676087236342 154 152 140
183.041834281221981 -2.042297776010936 -3.971747350809892 153 151 139
178.486185043860957 -2.736621613746729 -7.771573132760551 153 151 139
176.469531013208154 -2.543619236083839 -9.469412665528438 152 150 138
174.114332792739901 -2.486803845098613 -11.447327516934507 151 149 137
172.436329683777331 -2.196217851924426 -12.864745427335208 150 148 135
169.403930812839064 -2.418363384412742 -15.402689403246569 148 146 133
166.625429003902354 -2.565006705755208 -17.730297390760200 144 142 129
164.100862830650044 -2.633676598816403 -19.847613280873020 142 140 127
163.184965726856859 -2.106643871331301 -20.634323992598638 144 142 130
160.914450484633107 -2.104981233575499 -22.541324290612124 144 142 129
158.559253001910974 -2.150585850844632 -24.518185234357105 143 141 128
156.034672380304130 -2.277313051593045 -26.634896599393159 145 143 129
154.102871138614915 -2.187075855052079 -28.261412716995721 144 142 127
151.578244084338905 -2.344209988300864 -30.377788874970634 144 141 126
148.799473764192726 -2.619080785001159 -32.703948497822154 144 141 126
147.460597103922510 -2.331544044188801 -33.840136411680788 142 139 124
145.528851224729124 -2.293307925687132 -35.466143741292200 144 141 126
142.665256029375001 -2.648899209483413 -37.861751422995894 144 141 126
139.801555554498009 -3.022876600690780 -40.257119481896780 145 142 125
139.140648946545753 -2.499114938004193 -40.833206447323761 141 138 121
138.988330945988935 -1.766301521816951 -40.989599024427378 144 141 124
135.361979320325815 -2.501523072574390 -44.014128883618071 142 139 122
132.413357163293711 -2.971599015790730 -46.478740395111998 142 139 122
131.329122622985324 -2.661101928674970 -47.404407913937575 140 137 120
131.262109561169609 -1.917948679250724 -47.490857629511424 139 136 119
130.093449321860589 -1.654569580906348 -48.486510059114210 142 139 122
127.059957466963397 -2.216334796948050 -51.020435279232998 140 137 120
124.958842339868042 -2.385662872656870 -52.784998148515939 139 136 119
123.281615758922129 -2.379772723229331 -54.199857029919485 140 137 120
122.367539622766088 -2.042472739240622 -54.985485871878552 138 135 118
121.708013689229887 -1.595965702798154 -55.561438126536302 138 135 118
118.589350132117843 -2.271755627966896 -58.164302667567966 137 134 117
116.573027151919874 -2.462721038150556 -59.858348200409580 139 136 119
115.574502348173723 -2.197129000361545 -60.713697848266605 141 138 121
113.388544982145945 -2.489308566090052 -62.547266794077586 139 136 119
111.032849195903395 -2.874841649232117 -64.520390296661816 139 136 119
108.592205945082256 -3.315450863377216 -66.563167182003355 139 136 119
107.169633017574640 -3.288915111152212 -67.767487359131707 140 137 120
106.850267648931890 -2.744663730334976 -68.063741854018957 141 138 121
104.579254671580813 -3.140406931152156 -69.966413339317683 139 136 119
102.902250900415154 -3.263203806341833 -71.380054171965156 139 136 121
100.885719926940808 -3.562083293166112 -73.072889387734051 140 137 122
99.972700377508261 -3.332609520160164 -73.857913787803142 141 138 123
98.550434353569813 -3.360248608824349 -75.061823137694603 139 136 121
96.873489129514539 -3.523461015700954 -76.475075961708370 140 137 122
95.960787105966716 -3.315041741674399 -77.260035540537388 140 137 119
95.387938242369827 -2.941194362758245 -77.765847001073496 138 135 116
94.220764848023308 -2.871984994254509 -78.760212045638156 139 136 117
93.393463700909962 -2.636776466387878 -79.475443981350821 140 137 118
91.292019360296962 -3.060670641576577 -81.237228979270355 139 136 117
89.700237369736953 -3.234741525522680 -82.580252945593344 139 136 117
87.938499257425022 -3.507266411570998 -84.062674819169274 141 138 119
87.026543555456371 -3.346516717307158 -84.847500748751997 141 138 119
86.794681628302811 -2.833474290756598 -85.074436455746195 139 136 117
85.288070590400821 -2.996769542153496 -86.347457947957707 140 137 118
81.401058220484870 -4.438093608287669 -89.572596987423282 139 136 118
80.149221100544381 -4.491692618967638 -90.636053952446616 141 138 123
82.128793466484197 -2.810057984691913 -89.050630143806472 140 137 122
81.727941507988433 -2.407012639190852 -89.417307113683819 138 135 120
77.414708317282347 -4.142383981884453 -92.989811221714149 139 136 121
75.907994936510761 -4.364193498959956 -94.262181436716020 138 135 120
76.443190866261929 -3.467307907005494 -93.862296119442590 139 136 117
76.468364792428744 -2.850062610268667 -93.880692855348542 139 136 119
76.408832742844041 -2.279672796500912 -93.968943120698867 138 135 118
73.455733171512435 -3.336693888532217 -96.425370931266457 137 134 117
72.034497157878917 -3.546219223993853 -97.627900788047214 138 135 120
70.868669726135622 -3.619421510726957 -98.621443821798835 139 136 117
69.191980186087150 -3.992302558738312 -100.032660739513318 139 135 116
72.114164253860949 -1.728855713152675 -97.684720289271212 140 137 118
70.097257949524803 -2.304893860454263 -99.374523014717482 141 138 119
69.443224136373701 -2.100429606753433 -99.950611212987440 139 136 117
69.811874981816771 -1.301140324220992 -99.691764460249743 141 136 117
67.027951214649633 -2.355208941770438 -102.007438017105585 142 135 117
64.925421519182578 -3.023843203683248 -103.766184552323750 142 135 117
218.337135995561226 -3.460576069621371 24.388125389730504 142 143 137
217.587173976095187 -2.651741305471633 23.740848942353011 144 143 138
210.219965933977136 -3.953119383296468 17.633968767256647 145 144 139
207.773194354931491 -3.720326214547205 15.587191984116089 149 148 143
206.344583277836364 -3.172658284850574 14.380396161756295 152 149 142
203.982725747251891 -2.940002859952377 12.403857091680067 152 149 142
199.414694411727623 -3.452717685636529 8.608085470254849 152 149 140
