ply
format ascii 1.0
element vertex 685
property double x
property double y
property double z
property uchar red
property uchar green
property uchar blue
end_header
1.608395572830375 -0.889288488570222 -61.081313305087207 143 140 121
1.152779899837356 -0.746807432752095 -61.862544922215307 141 138 119
0.595062949764653 -0.707608396028801 -62.815586274496354 139 136 117
-0.473269466258259 -1.170441067502201 -64.627772122743352 137 134 117
-1.337367800321729 -1.444755008113467 -66.096167834062470 135 132 115
-1.384408869506714 -0.924998415786685 -66.189872548436227 134 131 114
-1.533535291764167 -0.506304437118489 -66.455417461408530 140 137 122
-3.006325580768831 -0.845902849418753 -68.962251641087647 140 138 123
-3.308587313013689 -0.591071413765836 -69.485427081954526 139 137 122
129.839898174266011 -0.573731375419733 154.606280619567315 127 127 115
127.130283166471784 -0.526903293206490 150.026548225753402 131 131 119
122.731073317089937 -1.270814782116412 142.604908489971962 134 134 122
119.560463243518939 -1.501047754559793 137.250836519801567 135 135 123
114.601307807511063 -1.417742321151494 128.869110139864489 139 139 127
112.147205605805411 -1.403737585778069 124.721773587242836 141 141 129
108.925007133686663 -1.782525535567250 119.283051596196543 140 140 128
106.675539495529094 -1.726145111572028 115.480817915233160 141 141 129
103.657959808305904 -2.068497624610246 110.387267490295073 140 140 128
102.278794964442000 -1.634932259774458 108.049402425260610 138 139 126
102.282102148306024 -0.527059380560896 108.036416387742889 141 142 128
97.014516425454104 -0.996395626418670 99.142777308726522 139 140 126
94.201379606833171 -1.365295959442596 94.395130925950156 137 138 124
92.053855285836818 -1.418254719772206 90.766971164481816 136 137 123
50.595983416701046 -0.520565232303364 20.684478921625356 146 143 130
48.091405461381342 -0.544709693186675 16.450823600437332 143 140 122
46.608534807891090 -0.732807718135218 13.947252362981288 145 142 125
45.740449046060448 -0.516799824572840 12.475717094482576 148 145 128
38.738412964081903 -0.693872861297419 0.639622622746060 143 140 123
37.562809943128855 -0.772527354016125 -1.346917644624654 143 140 123
36.643403450187293 -0.677846543365738 -2.903511255579218 146 143 126
34.497105331039023 -0.743519644515338 -6.532126752711406 146 143 126
32.555747192579844 -0.701372685735376 -9.816459140488831 145 142 125
31.431313082171286 -0.811032048146983 -11.716300405651936 143 140 123
29.948121228360975 -1.203802409252834 -14.217611186801292 142 139 121
29.131152568181392 -1.104746620201109 -15.601537969831213 141 138 119
28.262932060212393 -1.053528769329454 -17.071312509546374 143 140 123
27.753476757384391 -0.734385834623879 -17.939464786695424 145 142 125
22.697916838017917 -0.536816975326644 -26.497965532925321 143 140 125
21.778428428748612 -0.596800820826804 -28.052927914386913 143 137 121
20.910197618339595 -0.624623994155039 -29.521883916481187 139 135 117
19.939437198057888 -0.745490340813228 -31.162550134371514 139 136 117
19.122464163359837 -0.749631825669574 -32.545412563264591 142 139 120
18.151692400117057 -0.889898965519532 -34.185873652610724 143 140 121
17.642321817088416 -0.654886244061702 -35.053200464873015 143 140 121
16.569008271459708 -0.899093853929665 -36.865253775377369 144 141 122
15.803303589989241 -0.894304201245925 -38.161875856486205 142 139 122
15.191417208876757 -0.766531383198443 -39.200773357982371 144 141 124
14.220629260355068 -0.952383292729106 -40.840757477412382 145 142 125
13.403656621784535 -1.015786713799854 -42.223010082931438 145 142 125
12.791788340702581 -0.909844481180865 -43.261691530237613 143 140 123
12.333764423590324 -0.676011798236103 -44.042711379823032 139 136 119
11.619365182945018 -0.671777418867722 -45.253013207334590 144 141 124
10.853690750038140 -0.720157355214176 -46.549102457962533 144 141 124
9.985454183608823 -0.867500776759800 -48.016825424439759 144 141 124
8.706943111989403 -1.390292351279998 -50.171280876853558 146 143 126
7.684829205691699 -1.696007324565542 -51.896335908205430 143 140 123
7.534579857087436 -1.224309380530248 -52.161889213504907 143 141 126
7.384371015553285 -0.753945293869990 -52.427448167183826 137 136 118
6.772590630862481 -0.707002783110559 -53.465564350046265 137 136 118
6.109529758865548 -0.713463395522776 -54.589457303302424 137 136 118
5.241302229531755 -0.916478887055428 -56.056611532511511 138 137 117
4.321773428801563 -1.176167903364001 -57.609498925190195 139 137 118
3.248343375420816 -1.589333350756919 -59.419757330886625 140 137 118
2.739180673138222 -1.482714305387468 -60.285861971977823 143 140 121
2.537840343345053 -1.089975748213208 -60.637019643287488 142 139 120
2.028724573755710 -0.991944325506702 -61.503058340104161 140 137 118
1.827453538263512 -0.604494561445101 -61.854194721365502 139 136 117
1.267079267948688 -0.564388804523027 -62.805974154077717 139 136 119
0.347562266964630 -0.877382334760042 -64.358318501574814 138 135 118
-0.315416481801208 -0.950307138070769 -65.481566592997609 137 134 117
-2.197496150124536 -0.544181112165047 -68.687145332163283 138 137 119
122.909869842255091 -1.701932638218477 140.528350629295517 136 136 124
120.032584295549583 -1.796724036269871 135.697712352262670 137 137 125
117.721093078082177 -1.662232143506726 131.813487613533823 140 140 128
115.718197052756068 -1.408972774447880 128.445562768886106 140 140 128
114.435480339449583 -0.838742101478108 126.281868253958891 140 140 128
111.815101840389872 -0.917580989412888 121.882456743337855 141 141 129
108.680163660999852 -1.271306838922543 116.623449520406012 142 142 130
106.059612444746676 -1.408487586926470 112.224721179172434 141 141 129
103.336081793480304 -1.623966927551578 107.654346043571991 140 141 127
103.339320679170100 -0.515820255721634 107.641389861381725 142 143 129
94.653590853168581 -1.642318468764127 93.073057298401551 137 138 124
93.473283807449931 -1.192402091340254 91.083326574857153 136 137 123
92.241491436900958 -0.781954821127183 89.007773644662194 135 136 122
48.886616752867013 -0.520330316287045 16.181005180093706 144 141 122
47.242162247702083 -0.812149992983845 13.423226107721007 144 141 124
46.369870996141856 -0.596595046668911 11.953707393507273 147 144 127
41.902476790298664 -0.510970852451658 4.445289107710693 146 143 126
38.564669489479016 -0.560420361708416 -1.163233831813869 142 139 122
37.125953564414516 -0.835385385839090 -3.576175489417778 145 142 125
35.484202657375434 -0.526249866502595 -6.341433887593467 144 141 124
34.302890819373573 -0.650153606323176 -8.324777303224522 145 142 125
32.709627936870135 -1.092129524757641 -10.994641753859611 145 142 125
31.940222912928235 -0.934975843423060 -12.291061963301814 143 140 123
31.273809261335884 -0.708314732425977 -13.415750597301269 142 139 121
30.143944762427751 -0.839819377559880 -15.312769118750765 141 138 119
29.065564127023421 -0.943806710099430 -17.123841708630152 142 139 122
28.450652166113997 -0.702916840961761 -18.162456153754306 145 142 125
26.705859789433688 -0.641309443631010 -21.097589704583953 143 140 125
25.012566019146533 -0.575280148211173 -23.946546644087533 143 140 125
24.140167795081368 -0.575893388534988 -25.413789055282905 141 138 123
22.701214425611980 -1.038655264041993 -27.824684032965166 140 137 122
22.240850158553087 -0.728629939963910 -28.605368556289164 142 136 120
21.522967915832552 -0.631970705136452 -29.814955503014232 137 132 115
20.753583703568992 -0.584719242521748 -31.110254389944629 140 137 118
19.778163379193330 -0.714508577848735 -32.748599476884237 143 140 121
18.648202394103862 -0.982040851302593 -34.644171638962661 143 140 121
17.518226727165327 -1.261301097340737 -36.539616055381344 143 140 121
16.542778456340542 -1.423021053228238 -38.177619094917532 143 140 121
16.133994039679337 -1.117877398088873 -38.872070107479686 143 140 123
15.725233217531709 -0.816853660658954 -39.566489999193578 144 141 124
15.058904436292949 -0.739457530375280 -40.689682775448517 145 142 125
14.392585480308000 -0.668885003666601 -41.812810013291710 145 142 125
13.059977217549744 -0.548191807776909 -44.058868151815687 139 136 119
12.187590766764444 -0.678021555520371 -45.524786104884157 143 140 123
11.469779494281852 -0.681046781612947 -46.733380901294311 144 141 124
10.545865422230932 -0.873554038821469 -48.284861930800304 146 143 126
9.312771642394011 -1.350419920162899 -50.350658711235951 145 142 125
8.028121819084134 -1.886151189459858 -52.502044211104248 146 143 126
8.186343472982657 -1.137372679078200 -52.252867806590814 143 141 126
7.932356177169240 -0.759648925710361 -52.689543679817177 137 136 118
7.420727437386176 -0.618826311682216 -53.554820651535664 136 135 117
6.191373237573401 -0.542363702839757 -55.628102122354449 139 138 118
5.267471551548837 -0.799765140246999 -57.178921088896175 140 138 118
3.982764641942239 -1.402593980381820 -59.329588609872246 140 137 118
3.677363370639853 -1.101744873418591 -59.851735789023536 143 140 121
3.526634066916969 -0.658211015995872 -60.116769578347487 140 137 118
2.860471645501732 -0.704064983878557 -61.238773265395793 140 137 118
2.452066445516706 -0.511242554024088 -61.932249515118770 139 136 117
1.785930568363980 -0.569221640833270 -63.054141090911060 138 135 118
1.016695990207978 -0.733211340647586 -64.347337150882254 138 135 118
0.092795301330554 -1.054765263064862 -65.897496240700121 138 135 118
-0.160870180354777 -0.733418254992976 -66.333745754541695 137 134 117
-0.620733936303282 -0.616239715242301 -67.112684651836275 139 136 119
-1.389943005206916 -0.807993000637587 -68.405607130812768 139 138 118
-1.901335083834553 -0.752528372865976 -69.270118687784077 138 137 117
124.475312843966776 -1.509924387536286 140.775201590069372 136 136 124
120.602086314977853 -2.045701222734590 134.319238536308660 138 138 126
118.744662100018985 -1.701192734112330 131.213357857950967 140 140 128
117.197323764118792 -1.233058089225183 128.623013921329004 139 139 127
115.546550810186659 -0.829702802861160 125.861101788068027 139 139 127
110.797429777505968 -0.767272799989047 117.933404975412600 142 142 130
106.613460720931357 -1.647802046086582 110.964495481943914 137 137 125
104.135302570986653 -1.739307050614542 106.829753277259215 142 142 129
103.207945507252845 -1.091517268159952 105.271269763614441 144 145 131
102.177169176286370 -0.505215698673236 103.541176832146476 142 143 129
98.716588186023927 -1.154575018048286 97.775845808021785 139 140 126
96.703454997031784 -1.103193826253294 94.414896420875323 137 138 124
93.707986213313930 -1.578436043085168 89.422995000889756 136 137 123
93.607616071250916 -0.580577309689159 89.239022501747684 137 138 124
84.933723829617662 -1.073434609636008 74.769363379669699 144 140 128
74.971954605853298 -0.752928437710974 58.135975709543857 141 139 126
48.340294197385674 -0.579192805469042 13.671497796158235 144 141 124
47.256907006034140 -0.501550332387697 11.860950718650685 147 144 127
42.612881450405197 -0.520424075716027 4.105531260155061 143 140 123
39.259057733555110 -0.569555445607673 -1.495332755608558 144 141 124
37.813452933271861 -0.844393385652638 -3.904980107061192 146 143 126
37.143834183425014 -0.573243942336572 -5.028593373795474 144 141 124
36.163812802280901 -0.535079724500123 -6.666466161243505 144 141 124
34.976842167995429 -0.658871521624024 -8.647103580411653 144 141 124
33.272486258862912 -1.177136779523049 -11.484753993247722 144 141 124
32.551122589783617 -0.981952813457135 -12.693689602089279 144 141 124
32.140201657224836 -0.561711212142850 -13.388303273749585 143 140 122
30.283587430354899 -0.519761932653060 -16.491457053700344 141 138 121
28.323476998131540 -0.595932102656782 -19.765600510774533 147 144 127
27.446905571934465 -0.569022868489649 -21.231129779030567 144 141 126
26.570334550812277 -0.551170252934351 -22.696566016748108 143 141 128
24.713696289374468 -0.624451075287430 -25.798522177319001 140 137 122
23.371373793813007 -1.004977335882768 -28.034773756510901 141 138 123
22.650044685813910 -0.901904561679496 -29.242777752484216 141 135 119
21.928723525559946 -0.806240544913274 -30.450709288569414 137 133 115
21.000394878764439 -0.885984607817607 -32.001239128855786 141 138 119
19.968553451659005 -1.059839774295545 -33.722997846828576 143 140 121
18.988460714252511 -1.201799025299283 -35.358982396334255 144 141 122
18.474183598510606 -0.968530301432823 -36.223943988321395 144 141 122
17.597610698977192 -1.042076446752408 -37.688438514052933 144 141 122
17.238644223823457 -0.691060886836391 -38.296335556710062 144 141 124
16.465609134937765 -0.692648732422659 -39.589385149244492 144 141 124
15.692579506139410 -0.702150393023203 -40.882355892992507 145 142 125
12.548744684666545 -0.864199372822272 -46.139080019157205 140 137 120
11.775739580011717 -0.913480701609105 -47.431653023063205 144 141 124
11.209829458435436 -0.788525863221070 -48.381657517727263 146 143 126
10.126195470882692 -1.127317434401878 -50.187799963962050 145 142 125
9.404976893748099 -1.154726501763997 -51.394513722378349 144 141 124
9.356871485916002 -0.586934142878651 -51.488203717067876 143 141 126
8.739247349659408 -0.532219731165156 -52.523604269292690 139 138 120
8.018076108212028 -0.577528172693609 -53.730156425689387 136 135 117
7.348694709015760 -0.582990541132121 -54.851035935825081 137 136 118
6.523971688366274 -0.737546545998682 -56.228642505787491 140 139 119
5.647462902102731 -0.948224177698928 -57.691756139809314 143 141 121
4.926313257528108 -1.023891733258539 -58.898006126464082 144 141 122
0.862651754541304 -0.809824944046287 -65.714019798217748 137 134 117
0.037979528347620 -1.039024100698141 -67.090882328614924 140 137 120
-0.165037356167744 -0.671129824752125 -67.440982207224835 137 134 117
-1.093305869081206 -1.015256892255613 -68.988819388273356 139 138 118
-1.810035306908560 -0.603732056362805 -70.202198902714429 137 136 116
127.031841025921281 -0.879662156713323 142.649728442882434 134 134 122
124.750121336313171 -0.683903566810565 138.861489343303106 138 138 126
116.654745733883288 -1.988862234130993 125.453735830404042 139 139 127
114.996011053646910 -1.593795930604121 122.695717882380819 137 137 125
113.181409116286090 -1.289547124769685 119.680624471262831 139 139 127
109.081423110116972 -2.091226867821264 112.892443906645411 140 140 128
108.097719436037067 -1.437662019853839 111.249998087679273 140 140 128
105.399940223082226 -1.627522874343606 106.777898733232206 141 142 128
103.688972955310149 -1.360990604209677 103.935332856502953 143 144 130
101.250765022310645 -1.473450575987320 99.892553189894841 142 143 129
99.383862628596873 -1.324932639322219 96.793224268973546 140 141 127
95.130460175109036 -1.352768993546912 89.737895393377585 137 138 124
94.613979961098622 -0.567379810768337 88.868304502805501 138 139 125
88.648939613369464 -0.597021039192172 78.973492704912132 141 139 126
76.252763039170674 -0.528648393881312 58.407803797492733 140 138 125
46.693009502860377 -0.585998571405919 9.360114496425695 143 140 123
38.968734138568422 -0.519260310339870 -3.463279469495291 146 143 126
36.635482912991506 -0.694611212052201 -7.333904927396418 144 141 126
35.286906518793032 -0.933190454904725 -9.568625794878614 145 142 127
34.146241075682752 -1.032889601413708 -11.460804571619434 145 142 127
33.421433187758424 -0.836539373640470 -12.668104482888936 144 141 126
29.898426026012103 -0.600475930292753 -18.523544026770111 146 140 124
28.913699794855617 -0.643802760224049 -20.158327201806827 143 140 123
27.980960806511362 -0.657169963799721 -21.707430400171660 145 142 126
26.892246743888833 -0.801254947180440 -23.513146768626456 144 142 128
25.855517412099005 -0.915912507681788 -25.233176480449174 145 142 127
25.078751938467207 -0.836667584590844 -26.525273522002664 142 139 124
24.042017348781982 -0.971309766453138 -28.245095006719168 142 139 124
23.369251748861174 -0.826420589715608 -29.365903170812913 139 133 117
22.488507213871316 -0.855306793551796 -30.828861707654141 138 133 116
21.607764296497194 -0.893221997391819 -32.291728078324383 142 139 120
20.727022931057050 -0.940161901662386 -33.754502295659421 143 140 121
20.210294546197247 -0.698339989820939 -34.618379251163361 145 142 123
19.537577501805359 -0.590172232330506 -35.738832652040116 145 142 123
18.760864089585525 -0.575011590340084 -37.030294947896124 145 142 123
17.828140272784808 -0.697835539169935 -38.578278711010086 142 139 122
16.895414837372542 -0.830205922734157 -40.126163433537442 142 139 122
16.014696170498723 -0.928222065859071 -41.588422756403702 142 139 122
15.446038781856814 -0.770221083437379 -42.537453128481985 143 140 123
14.152740014876073 -0.605546261328698 -44.691910635096889 140 137 120
13.428089817323055 -0.600493807596514 -45.897316860811600 137 134 117
12.807481331534021 -0.512276763728991 -46.931634569872585 138 135 118
12.082853116824353 -0.521373266356109 -48.136905669788518 144 141 124
10.890060676173889 -0.950021511672082 -50.111619916179137 144 141 124
10.217457406099982 -0.930173410832636 -51.231218627705744 145 142 125
9.804979019397564 -0.685382044183992 -51.923281221238227 143 141 126
9.080384165862341 -0.724362227145973 -53.128260673291692 141 140 122
8.459849886875219 -0.676883832102548 -54.162194539254727 139 138 120
6.906651660711461 -0.885241158757571 -56.742771652757170 141 140 120
6.390215365145892 -0.762655855078122 -57.605560980471154 142 140 120
5.873801448763160 -0.645194395243579 -58.468308272010830 143 140 121
1.530890460740224 -0.664670078725708 -65.702620401919631 140 137 120
0.650292287801008 -0.943123344382715 -67.163080038725155 140 137 120
0.134040044537002 -0.877330198577506 -68.025372826218387 140 137 120
-0.069875581405981 -0.512238071675298 -68.375013906082160 140 139 119
134.656604965658175 -0.526144801063589 152.855789192941444 131 131 119
123.346956154110927 -0.622331342773988 134.210898486804922 139 139 127
117.975412006635736 -1.884728457477807 125.375156135711308 140 140 128
115.473807780822440 -1.874662772736155 121.250584935226385 139 139 127
112.763391909214121 -1.988497438741532 116.783748339213986 139 139 127
110.157267027217657 -2.081298291272884 112.488520549483155 141 141 129
108.699154914118324 -1.652095083267288 110.077609604393359 141 141 129
108.336919019392980 -0.708244355388974 109.465174290653977 140 141 128
106.409054998159206 -0.533607403787924 106.283881462316998 143 144 130
102.028300369208111 -1.590787139504307 99.078355209618366 142 143 129
99.734975345391092 -1.651616285832270 95.298309248612441 141 142 128
97.702536601685381 -1.604817827884105 91.946642745048621 138 139 125
96.661660005055253 -1.074051991357422 90.221953403251376 135 136 122
80.298396694427808 -0.679445066032147 63.236330730138377 141 139 126
47.419383915235144 -0.595833318377060 9.012720701339845 145 142 125
44.085832179086054 -0.503373935167724 3.511560059665186 144 141 124
37.470749951687566 -0.590471992635042 -7.401989118191949 144 141 124
35.906879034774292 -0.979863780375523 -9.975596974370859 145 142 125
35.074167430889744 -0.850479237402940 -11.352304576194598 145 142 125
34.345917399406147 -0.652691054854594 -12.557972579374933 146 143 126
33.304298397188433 -0.694852963544275 -14.276409323788101 145 140 124
32.419367708439850 -0.630663915420375 -15.738323289345544 143 136 120
29.346718846068725 -0.811165490018301 -20.807194822670425 142 139 122
28.618496484997777 -0.665114283925385 -22.012343508592210 144 141 124
27.629101360987249 -0.728347744686854 -23.644688192339885 144 142 127
26.639704458779107 -0.801715087931493 -25.276927712260630 145 142 127
25.650305699372623 -0.885211948459457 -26.909062075494063 143 140 125
24.504184220487659 -1.102381617157311 -28.797421520324974 142 139 124
24.037192798204700 -0.792403788819386 -29.574935146408279 143 137 123
22.995553946732699 -0.946091970912157 -31.292214399048135 142 138 121
22.476351192486277 -0.690482237464061 -32.155049549693160 144 141 122
21.539206402517706 -0.778232778376589 -33.701279362604538 144 141 124
20.863295553190412 -0.662858228653467 -34.820279041280514 144 141 124
20.030653978038927 -0.682755776583961 -36.195483509055578 145 142 125
19.041269397726879 -0.840362175238104 -37.826861808813760 144 141 125
18.208634449709763 -0.878007526700603 -39.201886759929664 142 139 120
17.166995502425038 -1.098605313098108 -40.918477232563475 141 138 121
16.073096383453731 -1.373727239163487 -42.720364258755581 138 135 118
15.658505179221777 -1.085859348048132 -43.411859495930173 139 136 119
15.191685640752112 -0.846530858488487 -44.188728121505335 137 134 118
14.672633613638951 -0.656551250401667 -45.050959815644148 137 134 117
13.373292202481082 -0.518388009778689 -47.202253644970710 136 133 116
12.592987474645071 -0.572915830456314 -48.491280529391133 141 138 121
11.394574544286755 -1.001717904158388 -50.463304369338118 142 139 122
10.562005421042826 -1.120263260103739 -51.837528066413086 143 140 123
9.886243037975049 -1.108201437030649 -52.955535321043413 142 140 125
9.105955157932158 -1.196157507577380 -54.244226171621591 142 141 123
8.796113636991862 -0.869980351713799 -54.764509864897036 142 141 123
8.381763705845444 -0.641082492077618 -55.455513518130743 140 139 121
7.653796959927050 -0.700839342446523 -56.658666003751080 140 139 119
6.925839821359986 -0.767910488638666 -57.861747795774050 142 140 121
6.563839263467301 -0.506413975138702 -58.467271879133591 144 141 122
1.886873643586597 -0.818895014449349 -66.203910676407162 140 137 120
1.315902944128126 -0.797006320363959 -67.150433296359353 140 137 120
0.849543340151882 -0.679846094149690 -67.926264413713000 140 137 120
120.556725598997502 -1.207594488167727 127.348202143712626 141 142 128
116.627682690261693 -1.841568535473828 120.919952247934560 143 144 131
113.327688966241013 -2.223313767215481 115.518477679526967 142 143 130
109.768452417079914 -1.641874771797447 109.676815026341899 142 142 130
108.880108654762864 -0.950065951133628 108.210073457872682 140 141 128
105.110870288020024 -0.574044541650204 102.027553881115750 143 144 130
99.765502923224787 -2.134560380386356 93.293216217623552 139 140 126
99.086722929609820 -1.408251894313353 92.169300477826511 140 141 127
98.040877902679767 -0.875242349068349 90.446964920433430 137 138 124
88.773479119189304 -0.525992690098247 75.254839099359145 144 140 128
83.118141027954451 -0.599451621870250 65.988330035605401 142 140 127
80.865848613484474 -0.866232078678179 62.301633060156178 143 141 128
79.662372863674804 -0.570531321910051 60.324573584087801 140 138 125
77.619771853249134 -0.760342402418392 56.980204214931263 138 136 123
59.504636056970085 -0.685144222022366 27.288474851251294 147 144 127
48.198189828468799 -0.570467233966186 8.750740401042890 144 141 124
47.099243399783717 -0.515951697674371 6.947874866521488 141 138 121
43.540041013446924 -0.601781138866598 1.113064399183230 144 141 124
37.992645297253773 -0.712352693780324 -7.982984138080184 144 141 124
36.526342927096465 -1.026549522822022 -10.382324702233831 145 142 125
35.899582690417077 -0.744525848827359 -11.415694383759359 145 142 125
34.957994567633364 -0.699735418684547 -12.961162832280394 146 143 126
33.911458471342385 -0.742060251539076 -14.677245578683028 145 139 123
32.917395569564988 -0.756072920975775 -16.307863867878297 143 136 120
32.290671374266239 -0.505246037366369 -17.340929667241397 146 139 123
29.935204143834213 -0.859034417331362 -21.199090317967062 140 137 120
29.046100413712168 -0.833453547367317 -22.658610501462505 144 141 124
28.104519255766178 -0.857296020878924 -24.203375808982486 145 144 126
27.162939978653455 -0.890731039250657 -25.748043275403518 146 143 126
26.063910212957211 -1.056480312934052 -27.548601645443824 144 141 124
24.912389432928478 -1.274617472172524 -29.434368124248635 144 141 124
24.653132727143344 -0.799844240535231 -29.869522108839874 145 139 123
23.869031838122112 -0.744815605454755 -31.157860642397026 144 140 122
21.254326682254373 -0.840050262037650 -35.448958606150825 144 141 124
19.945324798558303 -1.246185630361043 -37.590028159514333 145 142 125
19.213745281342355 -1.191825305637841 -38.792626973140244 144 141 126
18.534673751294605 -1.101496372994401 -39.909856785875036 144 141 122
17.540632555355970 -1.279720358605784 -41.538795149499094 145 142 125
16.861582145289731 -1.204680981959267 -42.655877682879975 143 140 123
16.392547925078631 -0.959811250795289 -43.431743851084832 139 136 119
15.818536879803958 -0.808456129676199 -44.378144642991828 135 132 117
14.982030228838767 -0.886362838963628 -45.750902954306810 132 129 112
14.408053809850472 -0.747814503945526 -46.697188484627560 137 134 117
13.886605086168899 -0.569730808038839 -47.558151156743207 142 139 122
12.161156379055441 -0.824405889471193 -50.388424113428016 142 139 122
11.167159333064646 -1.079965162608271 -52.016587547271399 142 139 122
10.120644286304184 -1.391925374253114 -53.729904871290216 143 140 123
9.704295550641845 -1.155120154089277 -54.420033697729053 141 138 121
9.340494607632962 -0.875479750955431 -55.024883247190900 144 141 124
8.350399718478002 -0.563857946065524 -56.660751739252504 140 137 120
3.703932112796650 -0.736185951803953 -64.302564462641499 142 139 122
2.504092326043022 -0.723559886925164 -66.278449540964658 141 138 121
2.088087811315205 -0.550503207987191 -66.968086845759331 140 137 120
133.779349324762620 -0.669481971475492 146.625407630838311 135 135 123
116.886965350919780 -2.219062029554715 119.136914768186188 144 145 131
114.466901190208262 -2.189541083848121 115.194852587118930 142 143 129
112.310152655809034 -2.061680788365343 111.680103281267861 140 141 127
111.417599600686174 -1.357176780781865 110.215244746112262 140 141 127
109.787531108685371 -1.015281102760466 107.554919188776125 142 141 128
108.262777416819034 -0.639341145179038 105.065578727013531 143 141 129
105.737076438928781 -0.768935590756304 100.953972922006074 143 141 129
101.894307924156706 -1.575741116879092 94.707946462955050 142 140 128
100.422077072187477 -1.238123028457111 92.304732605789951 143 141 129
95.478352306847967 -0.588320378097500 84.242369660220561 142 140 128
78.801159166115497 -0.595434756372519 57.078488406192406 138 136 123
77.065039616647638 -0.625665540032185 54.251010026005275 141 139 124
60.495257242858557 -0.564881949501060 27.256762691183752 146 143 126
52.658718216766005 -0.536770709587549 14.487472883593767 145 142 125
51.449208686054419 -0.515416420548540 12.516123933639051 145 142 125
44.297388584193570 -0.574923810156569 0.861334346252335 144 141 124
42.560704902432164 -1.005524181013975 -1.961752949689782 143 140 123
41.930958354606346 -0.680047131894047 -2.994141277618354 146 143 126
37.303448222249344 -0.959455279233137 -10.533062076654545 143 140 123
36.568298162617509 -0.753210020130783 -11.735516182957468 146 143 126
35.727721754872022 -0.631375576623284 -13.108383572605817 145 142 125
34.623553044703797 -0.711792330781581 -14.907361859716417 145 139 123
32.889704129192282 -0.552811243187517 -17.737874156247898 143 137 121
31.838258054168364 -0.624956561854064 -19.451301028413695 144 138 122
30.575912939447903 -0.867082348451794 -21.505520368224722 141 138 121
29.735361824175158 -0.801306824693833 -22.877822815082766 144 141 124
28.578457934101223 -0.986231555950714 -24.761355904699400 144 143 125
27.632459555322683 -1.020374003099167 -26.303902006111116 147 144 127
26.475547418025059 -1.227727361930695 -28.187200281153480 144 141 124
25.529550200411748 -1.282124540368140 -29.729538445938402 143 140 123
25.163604755241082 -0.890179430876305 -30.334518081676435 144 138 122
24.481292291421582 -0.752159014837146 -31.450688355200526 141 137 119
22.589359014328977 -0.919298574190612 -34.534793366132874 146 143 126
21.221500806278058 -1.357467010171761 -36.758235408130702 146 143 126
20.275529904842614 -1.467110230307350 -38.300017487224494 144 141 125
19.909697932071381 -1.112491111977666 -38.904667192591461 140 137 121
19.385675465920500 -0.891489157926235 -39.764840374323171 141 138 119
18.650707601852872 -0.850159007264210 -40.965684088302140 144 141 124
17.546545243983005 -1.123421509326593 -42.762680356169909 144 141 124
17.233557651781339 -0.745443439705612 -43.281992192565696 141 138 121
16.182149809562063 -0.992533290059313 -44.993636563224953 135 132 117
15.341731043671274 -1.071425302246433 -46.364513189951424 132 129 112
14.501319299747990 -1.158758721436252 -47.735306284320188 140 137 120
14.241181880430005 -0.756793746045066 -48.169289486618879 138 135 118
13.717320153227647 -0.584877986806969 -49.029034296450590 137 134 117
12.771445995944333 -0.784471131007624 -50.569936757859836 140 137 120
11.825571727844547 -0.993580712342002 -52.110741208786720 139 136 119
11.143487508416499 -0.980510703566353 -53.225734496333672 140 137 120
10.461419237735953 -0.974224516842497 -54.340665584418531 138 135 118
9.779366828770222 -0.974718130605867 -55.455534472801048 143 140 123
9.572199839795587 -0.557568412721505 -55.804155966670663 142 139 122
8.784664703602928 -0.664012378026333 -57.089189449560024 141 138 121
8.049904985456749 -0.730612506641003 -58.289021759250176 141 138 121
7.526232045606250 -0.612611380608317 -59.148301913899957 143 140 123
5.691501019862343 -0.533291529044327 -62.151450331411326 141 138 121
4.851266938013694 -0.731545615935275 -63.521186656553226 141 138 121
4.011035743328620 -0.938191607778578 -64.890837980810886 142 139 122
3.856951789806899 -0.508128127054344 -65.154128259815565 141 138 121
3.122316327534861 -0.628185114917589 -66.353469754783333 142 139 122
137.070574998662721 -1.003666572370961 149.599550761538239 131 131 119
133.581274733169181 -1.255625021740605 143.954727178371172 133 133 121
121.739880076450390 -1.668481989178411 124.791469315222656 141 142 128
120.578632855577951 -1.027196837087086 122.901509466790799 143 144 130
114.654410782466655 -2.595312570707204 113.335583291940310 140 141 127
113.810568846636201 -1.854507649262970 111.957906745661091 140 141 127
112.119936737835161 -1.521844162847588 109.215790761673048 140 141 127
109.212016614305284 -1.786903086198386 104.512419495279801 141 140 128
107.732979148116385 -1.393479644326062 102.111887466489065 143 141 129
105.460029738039907 -1.401905374906439 98.432413351948298 144 142 130
104.033836136925729 -1.017145979370349 96.117549067541205 144 142 130
100.652080094400446 -0.557732432846231 90.635671957261422 141 139 127
98.484794204590727 -0.595879402691849 87.127672482296703 140 136 124
96.582101437092390 -0.520744767309461 84.046220924699526 141 139 126
54.512013798114381 -0.649217542385282 15.930056685110657 147 144 127
52.187561467926912 -0.525582162422906 12.163003134740677 144 141 124
43.998844863508666 -0.502786203660779 -1.102904723205739 143 140 123
42.095164000302177 -1.057760449824661 -4.177397551945830 146 143 126
39.561572411964562 -0.579542496040413 -8.291485034327337 143 140 121
38.081515571919496 -0.892390423395022 -10.684259392155752 142 139 120
36.919219015225408 -0.991094476568501 -12.566100161298948 146 143 124
36.286557432246212 -0.716913635368480 -13.596565928764903 145 142 123
35.230192734611606 -0.759019663263811 -15.307948958243742 145 139 122
33.435266590051413 -0.639659139443196 -18.219693168307430 141 135 119
32.484845187276207 -0.633135346323345 -19.760541908240100 142 136 120
31.216611152691456 -0.875137437844473 -21.811945282229118 142 139 122
30.319162546692411 -0.849353245191649 -23.267475398611452 146 143 126
28.680114424293549 -1.397682088878302 -25.914341603332474 145 144 126
27.358877980348666 -1.718849435931570 -28.050432803536722 148 145 128
26.673320328095244 -1.562562949160412 -29.165238611879744 145 142 125
26.093730202492935 -1.330805371123533 -30.109798013761264 144 141 124
25.884999457819021 -0.814723651818450 -30.458689769054274 145 139 123
24.775681002547159 -1.009792460217988 -32.254024264568557 142 138 120
23.984235330781360 -0.964138613435472 -33.538752579831112 144 141 122
22.768955818364901 -1.264485244631014 -35.504029761135399 145 142 125
21.765595028695927 -1.406990749226780 -37.128877331332291 148 145 128
20.815218546259999 -1.516797468172945 -38.668550112601139 142 139 123
20.394693634734708 -1.205444361586111 -39.357448429666448 140 137 122
20.027186293844892 -0.854870503132371 -39.961255004776092 140 137 118
19.447762939567568 -0.682327623703848 -40.905284662848146 144 141 124
18.285482772707169 -0.998272557964416 -42.784897103310072 142 139 122
17.653099714273253 -0.884350854406728 -43.813846488152763 140 137 120
16.596800465288723 -1.132141668346988 -45.523143611211538 139 136 121
15.646484742966877 -1.301149368519576 -47.062236074470945 134 131 115
14.802161357397907 -1.389739200799091 -48.431144919993301 137 134 117
14.487813447422198 -1.034306054877351 -48.949573918803452 140 137 120
14.279501977149593 -0.590824377464651 -49.297918944830570 138 135 118
13.170237451333719 -0.927680282383599 -51.091819754199577 143 140 123
12.378973923572516 -0.999307009195893 -52.375427978668853 141 138 121
11.958744300426432 -0.754458263071392 -53.063782997891479 140 137 120
11.379533886703427 -0.653491811811039 -54.007177753862777 139 136 119
10.482307051954294 -0.839504905533585 -55.460633828984385 144 141 124
9.903134548614233 -0.751546196700689 -56.403912825925602 143 140 123
9.164955213494508 -0.811551327176371 -57.602177088205963 141 138 121
8.638837772755025 -0.688062521079154 -58.460344289457225 139 136 119
7.794664129292542 -0.857549587895803 -59.828492055215719 142 139 122
7.162559420592373 -0.842441284206821 -60.856557465652486 143 140 123
6.742546155341401 -0.639448235073911 -61.544585148034884 141 138 121
6.004450061270347 -0.733251953336544 -62.742541326704526 141 138 121
5.425431369961217 -0.687137744263990 -63.685463180337223 141 138 121
4.793412896795004 -0.696017665228100 -64.713322922710830 141 138 121
4.108388476625578 -0.760711472234109 -65.826109166280247 139 136 119
3.741546662371505 -0.532769507159215 -66.428971815367646 142 139 122
130.612442322867139 -0.600526580136958 136.832129030924705 137 137 125
124.982962104067809 -0.705494534898907 127.775291757674552 140 141 127
122.540273182136943 -0.632378202059807 123.843604435603169 141 142 128
114.996302803513245 -1.795558604169711 111.722625547673687 141 142 128
113.085073686525547 -1.561774934879518 108.643624696207638 142 143 129
110.269918030686256 -1.776456446916398 104.117074436280120 141 140 127
108.092732011163463 -1.714078628193489 100.612776397287234 142 140 128
106.659882530939996 -1.313357223110695 98.300931957648714 144 142 130
105.546028416306868 -0.771199023640038 96.500178658082831 144 142 130
101.401344547888485 -1.740003407171342 89.845960580355154 142 140 128
101.723068916535468 -0.518738493758965 90.344630961431562 142 140 128
98.056802989749173 -1.307906395010884 84.457420256037068 141 137 125
97.368199994706089 -0.615958555566525 83.338557497849820 141 139 126
55.367566744090837 -0.591351907529110 15.741885218137753 147 144 129
54.199921537468455 -0.522949328110535 13.860883112270244 143 140 123
52.979075881418638 -0.501096234549083 11.894952191374756 141 138 121
40.294271239084964 -0.550836257284147 -8.531442244556189 143 140 122
38.647717128134857 -0.977049881591687 -11.175974603381150 143 140 122
37.692845091629508 -0.923400285395926 -12.715179264957811 147 144 125
36.844396480661388 -0.802451801076474 -14.084271499945089 144 141 122
35.836327209550646 -0.806252142517486 -15.708294310683442 143 137 121
35.147528740137886 -0.586180944326760 -16.822206291283322 145 139 123
33.979835924702172 -0.726503323269854 -18.701037110406929 145 139 123
33.131420751643503 -0.641321537301602 -20.069777177381724 143 137 121
31.750869692764695 -0.962832436189812 -22.288347817683928 144 141 124
31.062111144403644 -0.777135522190517 -23.401925064602807 145 142 125
29.362247567332474 -1.365134562164129 -26.130147903928020 144 143 123
27.875228803473860 -1.807789715322135 -28.518255530282715 147 144 125
27.133262739497880 -1.692852279518263 -29.716509006176437 145 142 123
26.763856380285304 -1.297138123661442 -30.319871749187399 144 141 122
26.500926840265194 -0.822160392898887 -30.753270767482320 146 141 122
25.546134462240701 -0.891974282963983 -32.291242665716339 143 139 120
24.591347552820537 -0.971357989924220 -33.829118673179210 143 140 121
23.423662667992147 -1.229326439307727 -35.706742296174809 146 143 126
22.309199331926322 -1.456500705097941 -37.499285020751131 148 145 128
21.460875360312770 -1.480874980721007 -38.866941002606438 141 138 121
20.665791480981795 -1.470650079862885 -40.149564123902138 141 138 123
20.403033960384576 -1.034945857244917 -40.582641173750631 143 140 121
19.820921322852655 -0.863398601994996 -41.525374039471956 143 140 123
19.025896395198544 -0.873124682377741 -42.807819997575393 142 139 122
18.177648752222098 -0.934914506348463 -44.175127357753951 140 137 120
17.276173763547860 -1.049579724979611 -45.627285550119637 143 140 125
16.161750297542000 -1.352030230811037 -47.419072492241725 134 131 115
15.473243398178866 -1.305872893751511 -48.531333776214495 135 132 115
15.370416293706370 -0.768841680624373 -48.709387343795669 139 136 119
14.735207896511525 -0.687777977059651 -49.736646872359188 142 139 122
13.514324694325097 -1.116636419124345 -51.697920431057327 144 141 124
12.825895440257511 -1.097127741996878 -52.809944552229581 140 137 120
12.350478845680612 -0.899071701461868 -53.582275537579960 139 136 119
12.034845237544360 -0.565796169557809 -54.099861383345001 141 138 121
11.186734484383408 -0.704274018471300 -55.466444842776582 143 140 123
10.338631597876557 -0.851165028279889 -56.832945464697019 144 141 124
9.810069786381803 -0.721909504573421 -57.690002647078870 143 140 123
9.015249928257589 -0.836278822190632 -58.971469564333376 139 136 119
8.167181332529054 -1.006479256038463 -60.337746655233303 140 137 120
7.585425186711845 -0.943846769845303 -61.279528950936992 142 139 122
7.376536268036190 -0.547227422320124 -61.627115350124285 142 139 122
6.741579273675740 -0.542788742124102 -62.653706409083412 140 137 120
6.106643740869984 -0.544549708531714 -63.680243919099809 140 137 120
4.677022969162778 -0.715512035121453 -65.987748333986104 139 136 119
4.255237816245725 -0.537099313612284 -66.674675333722234 139 136 119
125.522093674571096 -0.960002568732230 126.411403992175423 138 139 125
118.851277508011364 -1.649405266418194 115.752435333847700 140 141 127
115.649275914721358 -1.983479331717890 110.636167617484887 140 141 127
113.622308386975007 -1.801356453173561 107.391349625637929 143 144 130
112.236270530019056 -1.337350297973385 105.167318129081053 143 142 129
109.781887901787272 -1.397397573170268 101.242595755934531 144 142 130
107.915026204757950 -1.199141881170631 98.253594275077660 145 143 131
105.887871276662338 -1.098086789362730 95.009700406369291 144 142 130
101.243207917249478 -2.306569395955044 87.599407967416766 143 141 129
99.215930346644342 -2.260209712744378 84.356135777781901 143 141 129
98.150150437910483 -1.751371636584715 82.643585808586749 143 139 127
97.832226996555690 -0.873895491936919 82.121493680894616 142 140 127
95.858275587944476 -0.848718760607578 78.963787369834250 141 139 126
44.172582091166305 -0.597335461710320 -3.734801127556068 145 142 125
43.159831414733659 -0.536984938266687 -5.357244707113836 145 142 125
39.480180069392802 -0.872106748102342 -11.242725598665317 143 140 123
38.360528153228429 -0.932114023022260 -13.034506858121944 144 141 124
37.454693179505142 -0.849527410626195 -14.486609660772615 144 141 122
36.121225130177095 -1.085879653977537 -16.617722347357869 143 140 123
35.108486638263656 -1.101624086345601 -18.239388472340778 144 141 124
34.309582525965098 -0.970433625283336 -19.521429166558534 143 140 123
33.884902073590183 -0.570427402121986 -20.209252038189788 142 139 122
32.765275131925321 -0.692195224384269 -22.000409513021765 144 141 124
31.806031031985540 -0.704933544749840 -23.536839230262018 145 142 125
30.472559552659447 -1.009753800176077 -25.667245500304318 146 143 124
29.032151775210778 -1.409207510017287 -27.967237472026625 146 143 124
28.233302884024923 -1.332362092363505 -29.248745183002939 142 139 120
27.648331102892342 -1.098804309631982 -30.190748549736838 144 141 122
27.277251697245646 -0.705277958458641 -30.793288392895789 144 141 122
26.585397501962206 -0.565620923295432 -31.904910781336696 142 139 120
25.519275974151356 -0.726687006590827 -33.610401661092197 143 140 121
23.918446614258102 -1.320921183502416 -36.164220179216755 147 144 126
22.798841868142290 -1.548518849808071 -37.954298912574245 147 144 127
22.427866057108560 -1.188180941625273 -38.556546689724769 140 137 120
21.575651318135982 -1.219019531411783 -39.922274801378904 142 139 122
20.937353910600550 -1.084973125537562 -40.948601935554819 143 140 121
20.031689843448419 -1.175259374227440 -42.399007032120267 140 137 120
19.500389784618775 -0.967380297814651 -43.255563558088056 140 137 120
18.862157007292268 -0.852997059532287 -44.281719208272449 140 137 120
17.956535509242698 -0.967009013616354 -45.731900449146224 141 138 123
16.997437974845226 -1.134705768060161 -47.266805217833138 137 134 117
16.519714416003737 -0.907214027320077 -48.038335555836397 136 133 116
15.296922368787733 -0.693668944992107 -50.005308511807783 141 138 121
14.123915011118797 -1.076615854288656 -51.879099415968682 144 141 124
13.111373708610714 -1.333085211645463 -53.498381973104557 142 139 122
12.687263036246833 -1.089971209481731 -54.184862455093423 140 137 120
12.102702787193948 -0.990724595222517 -55.125680165034396 142 139 122
11.357677420392250 -1.037796854945912 -56.320802433759894 143 140 123
10.880163244803086 -0.856438310942857 -57.091958067824010 144 141 124
10.242180419959297 -0.821935852892216 -58.117411041419814 143 140 123
9.657723386379431 -0.745956115430287 -59.058038631638112 141 138 121
8.377733147601646 -1.299268498191284 -61.100613404621498 141 138 121
7.953824334914316 -1.093446682462624 -61.786806588378766 142 139 122
5.990999867357118 -0.556986086941956 -64.955098891560510 139 136 119
4.978590994550615 -0.918350840840411 -66.573365061600128 139 136 119
0.938084386875474 -1.349117024845364 -73.061241711411611 135 132 113
122.624926553139105 -1.580865433192433 119.600232181654292 138 139 125
120.535029272024673 -1.371999590883951 116.274385404432564 139 140 126
117.264576356840820 -1.727277875165416 111.080223946589825 140 141 127
114.423323187395127 -1.916212653882757 106.565893623656791 143 144 130
112.923515965081563 -1.503623406596098 104.175100491739983 144 143 130
111.423674528339603 -1.106362196412007 101.784481507074617 145 143 131
108.850562860842032 -1.239571026167568 97.695594018137086 145 143 131
105.633442956682430 -1.711259119522746 92.587975380195132 144 142 130
103.221197705250390 -1.821095046995587 88.754466014952499 143 141 129
100.755236383858502 -1.982001025197729 84.836321038222394 143 141 129
100.274808175513030 -1.174864862473387 84.060118024047199 144 141 126
98.613743971920599 -0.969163838921113 81.416022628888896 142 140 125
97.059980396181203 -0.725604216081110 78.941923053421277 140 138 123
49.473667732691254 -0.592939467735729 3.262996525125629 143 140 123
48.187782497017494 -0.669094746701938 1.218330280678373 147 144 127
45.938151160565809 -0.640741045325055 -2.361818824605820 146 143 126
43.903301086325143 -0.509086999133525 -5.602346332184197 144 141 124
40.260398094781635 -0.805113544438784 -11.394951052506627 145 142 125
39.350383322103127 -0.711712056904467 -12.845165576606945 144 141 124
38.332980057765866 -0.704315701298094 -14.464838290207382 144 141 122
36.885980002138538 -1.016913798862256 -16.762570587095126 144 141 124
35.438968499972177 -1.343999242573444 -19.060148282466116 145 142 125
34.636375647620085 -1.214332789589609 -20.340408608705445 145 142 125
34.370834247710533 -0.697251603844679 -20.772991514194956 143 140 123
33.353463366433942 -0.740091061480463 -22.392162617278672 145 142 125
32.389804517511308 -0.752990396405032 -23.926478676334227 148 145 128
31.318739713526014 -0.856189419814893 -25.630200364429328 147 144 126
30.193970076393455 -1.010685306498646 -27.418560704968996 146 143 125
29.230330126809832 -1.053711547668934 -28.952575694023153 140 137 118
28.212987479078805 -1.147484829856911 -30.571236016495163 141 138 119
27.840195547815540 -0.754150987995505 -31.172954611674157 142 139 120
24.949410555322743 -0.990005891649597 -35.773964992746244 145 142 123
23.824678999048714 -1.215312851651740 -37.561614657088029 145 142 123
23.505728070975394 -0.809931614618166 -38.078355728611683 142 139 120
22.757056655823163 -0.752094191572747 -39.272813628370784 142 139 120
21.632352746566170 -1.004976271581480 -41.060192674387963 143 142 122
20.722539334642534 -1.094609078181022 -42.508619464845140 143 142 122
20.296256163390410 -0.798339323580112 -43.194607789675587 143 142 122
18.637886341375037 -0.884428328941747 -45.836988626394543 142 141 121
18.050503072229645 -0.738610226191237 -46.776935196926303 137 135 116
17.463147595447523 -0.598510741494089 -47.716836198620911 138 135 116
15.966117197661077 -0.608511557687553 -50.104607822058824 141 138 119
15.056422623689599 -0.761872222382814 -51.552435481327478 141 138 119
13.824312396832653 -1.200539950792482 -53.508237097994169 144 141 122
13.183317822689787 -1.141833135261966 -54.532498408659450 142 139 122
12.434866166954322 -1.182567271429663 -55.726046793993191 141 138 121
11.955144296170261 -0.996252538687298 -56.496197290783897 145 142 125
11.529201870538259 -0.767379232405277 -57.181654881651440 144 141 124
11.049552333811974 -0.589964543292292 -57.951748370187346 143 140 123
9.817466044709008 -1.084858781601484 -59.906982670881320 142 139 122
8.639112245954408 -1.544020822483453 -61.777431335316322 142 139 122
8.482029168995368 -1.098262689836582 -62.039448396885263 141 138 121
8.432512746813458 -0.556748572475869 -62.132192872005305 143 140 123
6.989737461317389 -0.700859792959668 -64.433680604508908 141 138 121
5.703896975930945 -1.301515185120701 -66.472969314188845 139 136 119
4.901887968710938 -1.468425233983212 -67.750456139017359 139 136 119
2.133494902505191 -0.686321262712249 -72.198778990337985 134 131 112
134.018180979542649 -0.602807473513672 135.424576579688477 136 136 124
128.148474958896998 -0.777128745445189 126.150799740388806 141 137 126
124.162391349373905 -1.379394233793540 119.860370413142277 140 138 126
121.416008355066879 -1.460745233066157 115.521264879564256 140 138 126
120.340610131684102 -0.805114210877903 113.811805265592398 144 142 130
114.629313264416325 -2.305460697757856 104.808472128734593 143 143 131
113.499904581236294 -1.720341166178243 103.014717858871592 142 142 132
112.208751275882463 -1.223206437580688 100.966670678857867 143 143 133
109.731607891111665 -1.305808861152348 97.053069145095293 142 142 132
107.577858886137051 -1.257322881621664 93.648560799277845 141 141 131
104.345890749472829 -1.756540401103220 88.548328879083385 141 140 130
103.324135514698909 -1.199183769021599 86.925077115820415 142 141 130
101.978904158229199 -0.813266661595068 84.793186624021644 144 141 127
99.824990439058851 -0.847613901679637 81.389609720852235 142 140 125
96.163982790991540 -0.649842504082087 75.600583295864141 138 136 121
94.117780379805836 -0.690399520018017 72.367259362341571 138 139 123
92.179368146662085 -0.695246477018614 69.303719165382773 141 141 128
57.670240951777203 -0.588684674907102 14.751125199842448 145 142 127
56.270612440177999 -0.657280404716776 12.539077764640581 147 144 127
50.189242166259078 -0.602741174548425 2.920769062782853 141 138 121
48.951390195065201 -0.642749195944945 0.963610672292134 145 142 125
46.529618994123112 -0.723314140492153 -2.865642812288826 146 143 126
45.453578449226399 -0.689653713859537 -4.568392886058916 145 142 125
44.323603140917996 -0.703832411836590 -6.355707206664277 145 142 125
42.279425702170840 -0.615421295852880 -9.591327413830214 144 141 124
41.257347319962946 -0.586487650532739 -11.208985261208738 145 142 125
40.289219327630846 -0.529543755576569 -12.741882228827592 142 139 122
39.159267538881252 -0.597593751276090 -14.528653276779210 140 137 118
37.435918982609508 -1.102870484930325 -17.246492484809693 144 141 124
