ply
format ascii 1.0
element vertex 687
property double x
property double y
property double z
property uchar red
property uchar green
property uchar blue
end_header
-110.589626470110360 -20.731358487065286 0.669061081271565 9 15 11
-110.607626266786497 -19.961957427937897 1.113187830369725 8 14 11
-110.621368735764946 -19.306276398902781 1.223871811126543 4 10 8
-110.624670705744236 -18.923118708698183 0.556354118136369 4 10 7
-110.629737307479687 -18.503519352686247 0.000164391477341 4 10 8
-110.639680632360836 -17.967363881881493 -0.222315443425714 4 10 7
-110.646796157696997 -17.511696421752344 -0.667037354251562 3 10 3
-110.663518134209113 -16.816630559615554 -0.444474510255418 3 10 3
-110.675879984705688 -16.241389208314452 -0.555340776476555 5 11 7
-110.690113956342884 -15.625462419004240 -0.554871337092749 6 12 8
-110.701510124089452 -15.091111830586840 -0.776637558387819 8 14 11
-110.724295240487379 -14.268139578599115 -0.219914079017002 5 11 7
-110.736334892514364 -13.733039648848475 -0.441380172984708 3 9 5
-110.743882374389855 -13.324185631902967 -0.996272447915487 2 8 4
-110.750088422403010 -12.959777217205025 -1.662207844216965 2 8 4
-110.772680995878090 -12.173728579818043 -1.216055288326999 3 9 5
-110.789195062179644 -11.555780156947360 -1.214515869161090 3 10 3
-110.801173585425573 -11.066299666221411 -1.546400508045537 5 12 5
-110.800367813221428 -10.924308174757037 -2.767695310583235 8 15 8
-110.829348243803196 -10.003516145594412 -1.987297152408644 9 16 9
-110.843931590006335 -9.472923916682614 -2.207499951772348 8 15 8
-110.865495962690431 -8.766259430900472 -1.982739912505735 10 17 10
-110.894148196476735 -7.880100440647791 -1.313001152205857 12 18 14
-110.926642405972714 -6.900451357621016 -0.420668974545038 16 22 20
-110.917481253459727 -7.040635164022630 -2.308209699811925 13 19 17
-110.928762548686350 -6.646401865080575 -2.861165232838744 7 13 12
-110.979579134082954 -5.206175786439740 -0.856219794536059 3 8 7
-111.013984933449294 -4.213554861554432 0.036893355481595 0 4 1
-111.043780342157433 -3.354081207897359 0.596594807400237 1 6 3
-111.098376188465409 -1.840981562245648 2.713456991855423 6 12 8
-111.129351550543689 -0.970294968143692 3.273607508992882 4 10 4
-111.136047531442472 -0.751695000486920 -3.598690181048710 35 40 34
-111.116940186886637 -1.289009390042501 -6.262913460345857 50 55 48
-111.143253706643421 -0.620986970892801 -6.146342568114875 57 62 55
-111.144402532020123 -0.637911035323869 -7.586784270061571 61 66 59
-111.134182710930148 -1.039086996775085 -11.245887094111310 68 73 67
-111.124505798574589 -1.377515203929023 -13.353351697753595 59 63 56
-111.096020001825366 -2.228026435875189 -16.573132128600463 24 29 25
-111.063485175808992 -3.195538000431737 -20.015363027811304 22 26 25
-111.057317530237739 -3.469456902262781 -21.900095067098135 23 27 25
-111.051178564743822 -3.752433848733388 -23.784720146930482 21 26 22
-111.070198299743367 -3.376809781547615 -24.222923197803624 20 25 21
-111.105170899526740 -2.589402533627540 -23.770862064623685 17 24 21
-111.140746228615484 -1.798715451516319 -23.318546348791045 21 32 28
-111.127547416777929 -2.310755394178478 -25.647626514105696 19 30 26
-110.590362608189679 -176.985035370404063 -21.335131649587993 76 63 46
-110.635281910165048 -177.757490255310927 -17.203912401257554 64 52 29
-110.616618173751164 -177.155635019028296 -17.329895151997619 50 38 16
-110.606512106629737 -176.731489450531683 -16.895660263594891 38 25 8
-110.540587932365810 -175.112969189507936 -20.269624952329337 41 32 15
-110.526222122663484 -174.590202636142351 -20.171019720277741 27 20 2
-110.534930773812931 -174.550471182776107 -18.504379233420366 35 28 10
-110.524166323038926 -174.091877436390291 -18.181672790821011 34 25 8
-110.529760817781280 -173.971560647642832 -16.739069380894989 44 32 16
-110.512878926139564 -173.372804792526807 -16.864167799716398 51 33 21
-110.494648501224688 -172.741534761083585 -17.101104921904465 64 37 28
-110.481463306888585 -172.211081516680281 -17.002014010480735 82 47 41
-110.474841396993327 -171.811787443629498 -16.454997619356305 100 63 57
-110.468376033881242 -171.410031811224883 -15.907931674854382 106 67 62
-110.451055999677266 -170.779752566100768 -16.144423070585560 110 66 63
-110.430852842669978 -170.086849492087993 -16.604656130754535 103 64 59
-110.415598971291203 -169.491676201612933 -16.728938833125028 101 67 62
-110.406782723525566 -169.023195738425983 -16.405402145827054 122 96 89
-110.395045901820012 -168.490963533342352 -16.305636649637478 17 0 0
-110.381964344175628 -167.927543805743625 -16.317694384268663 86 61 58
-110.359887560068344 -167.180594582506473 -17.001097875225383 140 113 108
-110.353357767482393 -166.740792788468326 -16.565313266737860 174 140 138
-110.336329974704029 -166.088473903416144 -16.912750605178786 188 147 147
-110.330137903300439 -165.646694676049407 -16.476824786749830 200 155 156
-110.312018051029966 -164.966724790662454 -16.935928073266098 193 149 150
-110.307662349460529 -164.552476546826909 -16.387981466638706 97 51 49
-110.298942588582548 -164.048774579824737 -16.175620057897390 49 8 6
-110.290383338651836 -163.544199888375402 -15.963190844660346 99 56 50
-110.279009861538441 -162.981896117522268 -15.974419952316907 102 59 53
-110.270775433361635 -162.476113014165691 -15.761847784256929 105 57 55
-110.256793078314985 -161.857942624134012 -15.996617803191441 102 52 51
-110.256233856264856 -161.489482775912478 -15.224665880976147 91 43 43
-110.245517395741501 -160.926102031155239 -15.235591759981531 107 57 56
-110.234967912359480 -160.362921841091804 -15.246435693284639 141 93 90
-110.220219115075224 -159.719612378811263 -15.592690029578392 131 88 80
-110.214358921271725 -159.237144182558950 -15.267883158960728 120 83 69
-110.208627839323896 -158.753213991706787 -14.943029570718721 121 85 70
-110.203023907039324 -158.267818110731241 -14.618130241598436 127 95 81
-110.191805151166449 -157.678247479258658 -14.740424887558419 114 87 73
-110.182177500577765 -157.114801442473464 -14.750830555706813 65 45 30
-110.178401418671427 -156.652034993895171 -14.313964968194711 43 27 11
-110.187525589356085 -156.410918754498454 -12.870916422826554 30 14 1
-110.210844176485253 -156.408624967733743 -10.310030148601953 41 22 9
-110.219979745348496 -156.150830416298191 -8.867147828628504 55 33 19
-110.216472608469061 -155.669788836326660 -8.430341693845463 87 61 48
-110.207456556774076 -155.091681036229801 -8.440605696074726 99 70 58
-110.205575475198629 -154.631137516124056 -7.891951780259859 106 74 61
-110.200997631837154 -154.121583004990356 -7.566810250632358 109 79 63
-110.190963605602064 -153.518786754363930 -7.688674263936463 112 84 69
-110.183843054156341 -152.961999920889809 -7.586953113003062 110 85 73
-110.175459950543612 -152.382412882835581 -7.596929541578731 105 87 80
-110.168582555546877 -151.825071801792319 -7.495097770582248 40 29 26
-110.159070525608740 -151.223630038524647 -7.616698120228364 36 29 28
-110.151059655457317 -150.644427334305391 -7.626492517450799 37 35 37
-110.140432354521124 -150.022757993117267 -7.859693506460957 47 46 50
-110.127208442042289 -149.360258861054916 -8.316274756922297 48 48 50
-110.115489264649113 -148.720808189929699 -8.661040012968954 50 50 50
-110.110689967607982 -148.185478797860043 -8.447128624740827 48 50 50
-110.093804291282439 -147.467356798486236 -9.238610859352121 50 50 50
-110.079775891924612 -146.793019582302776 -9.806557713846018 53 53 53
-110.067234426373190 -146.141169964002330 -10.262702863241486 55 57 56
-110.064227561606955 -145.627274785121926 -9.936854463512560 57 59 58
-110.053261806593142 -144.997185935607035 -10.281162918942613 58 61 60
-110.045089119498755 -144.406499400538706 -10.402011822596364 59 61 61
-110.033019705767018 -143.760761045372760 -10.857868237717838 58 59 61
-110.023732346189277 -143.153873194759910 -11.090276050066990 62 63 65
-110.007914545818963 -142.458076765652436 -11.881017608171533 58 59 61
-109.993555921128333 -141.783926204451376 -12.559979404919716 57 58 60
-109.978002208347149 -141.095657091773489 -13.350517141977406 58 59 61
-109.974442001587889 -140.566071893193367 -13.135953849336460 58 60 59
-109.965694507350150 -139.967766419258425 -13.368015049242928 58 59 59
-109.960979638557987 -139.420584233737230 -13.265044162507678 53 55 54
-109.949793817287116 -138.791023078374394 -13.720311349980335 52 54 53
-109.943937741022452 -138.228143506131914 -13.728906878995900 48 52 51
-109.935552708830855 -137.633658480045398 -13.960755352512933 48 51 50
-109.927255818632943 -137.040327348060259 -14.192549781590714 46 48 47
-109.920343611489045 -136.463438587551423 -14.312653648531722 49 51 50
-109.913510578157400 -135.887154503585634 -14.432713414752868 46 48 47
-109.906755075159111 -135.311473113001881 -14.552729886902625 42 44 43
-109.900075487447623 -134.736392482507256 -14.672703857513937 39 41 40
-109.894758036534284 -134.176111710704987 -14.681014959249211 37 39 34
-109.894649275680109 -133.671597797040164 -14.242824665546550 34 36 31
-109.889455642727910 -133.110330670038422 -14.251086686243241 34 36 31
-109.888167702405326 -132.589264584158798 -13.924489772700525 33 35 30
-109.881817419950721 -132.014165349019692 -14.044306396312635 33 35 30
-109.880635736639334 -131.491014356353418 -13.717680110772960 33 34 29
-109.873135769153507 -130.903438136879799 -13.949034056551341 31 32 28
-109.869516767227722 -130.353878663540286 -13.845563381481327 31 32 28
-109.862146676525398 -129.767747712134877 -14.076840317781432 33 33 30
-109.861172672012330 -129.241498565920523 -13.750146570267333 33 33 30
-109.864031752611808 -128.748090390346135 -13.088704384603943 32 32 28
-109.861872835127883 -128.206628381064888 -12.873592973955880 29 31 30
-109.858499490795865 -127.653179636282076 -12.770044811359782 28 30 29
-109.850146467489722 -127.056572964186643 -13.112758696024429 28 30 27
-109.845622298285420 -126.492802343888243 -13.120726217273017 26 28 25
-109.841148379929678 -125.929063914877517 -13.128669367326751 27 29 26
-109.836723623066575 -125.365356485790500 -13.136588679593160 29 31 29
-109.834843691822044 -124.820826570620753 -12.921375382380916 32 34 33
-109.828017362625076 -124.238030023737551 -13.152357862339898 42 44 43
-109.821245392173424 -123.656349193280420 -13.383302852631829 47 49 48
-109.810800175903566 -123.049509589520142 -13.948840737786043 50 52 51
-109.806619939937789 -122.487844350657213 -13.956622050803418 55 57 56
-109.801244579815318 -121.917989728544285 -14.075918289477073 60 62 61
-109.797151436533227 -121.356644332429994 -14.083654645351004 56 58 57
-109.794333676276906 -120.802991303751952 -13.979842796034291 50 52 51
-109.791552365419932 -120.248815943379114 -13.876018886072359 44 46 45
-109.786346088780050 -119.679865397995869 -13.995224929671593 40 42 41
-109.779953941584537 -119.104624459962807 -14.225921924771797 40 42 41
-109.776060325510187 -118.543654445145833 -14.233558963525240 38 40 39
-109.774653157679808 -117.995323010455138 -14.018158628866303 35 37 36
-109.773274984432575 -117.445921275818890 -13.802755440433174 35 37 36
-109.769483260139268 -116.883915633844637 -13.810354394738397 34 36 35
-109.765726614816444 -116.321925790959014 -13.817936404756409 33 35 34
-109.764439094979863 -115.770396347992403 -13.602511749613086 28 33 28
-109.759531519519129 -115.202941354943334 -13.721559501120595 28 33 27
-109.754660691288578 -114.636043739256905 -13.840583935513905 27 32 28
-109.747401884920635 -114.060888649840223 -14.182553538629151 28 33 29
-109.746237088826206 -113.508053057934220 -13.967083617715446 32 36 35
-109.742679687680351 -112.946414940636146 -13.974566689514006 27 31 30
-109.737946387272629 -112.381196279309506 -14.093508048747594 35 37 36
-109.729631403547160 -111.806572584102341 -14.546836338503340 45 47 46
-109.727377427006928 -111.249372592859217 -14.442791287656860 55 57 56
-109.721544118725888 -110.683309996043732 -14.673126458858945 56 58 57
-109.714546356135742 -110.115839055186555 -15.014892082724373 41 43 42
-109.703991452354884 -109.543309871281181 -15.690988152540683 37 39 36
-109.699469062476396 -108.983852745069839 -15.809769306524800 42 44 41
-109.697368490792869 -108.428323604715743 -15.705633668413071 38 40 37
-109.694098605853583 -107.870840212697715 -15.712936426769460 34 36 33
-109.689663912371557 -107.312217473701622 -15.831667038331375 33 35 32
-109.686450044257256 -106.755016944357237 -15.838940086783083 41 43 40
-109.684452070087488 -106.198422696892365 -15.734766330055010 42 44 43
-109.683665161888698 -105.641618823201952 -15.519156476385234 38 40 37
-109.678154759377847 -105.083499792525245 -15.749255403456942 33 35 32
-109.673861232531294 -104.526257338863644 -15.867904273413984 27 29 26
-109.668413971251937 -103.970046904710173 -16.097953347794174 26 28 23
-109.673631881497968 -103.408108778889243 -15.325229234397199 22 24 19
-109.670595233035485 -102.849572101849617 -15.332431255214374 24 26 21
-109.668763123567643 -102.289735681709729 -15.228211522693584 24 26 21
-109.662245855445775 -101.735647858284807 -15.569609520501501 27 29 24
-109.660465722755845 -101.175812592912337 -15.465364910581712 29 31 26
-109.654011943182240 -100.623899297247206 -15.806710152179107 29 31 26
-109.653456606648788 -100.061675026051759 -15.591045310292913 40 40 38
-109.649407608584994 -99.506342496013545 -15.709557538715075 42 44 41
-109.646557585962285 -98.948620130742938 -15.716661896250088 41 43 40
-109.635553576760813 -98.413320878659064 -16.503448475089783 36 38 35
-109.631598624760500 -97.860971770692643 -16.621885002335404 29 34 30
-109.626507016759277 -97.312910353797719 -16.851680051478070 37 39 38
-109.629599435052015 -96.737799535151808 -16.301826129131570 40 42 41
-109.623399615192042 -96.194292978756764 -16.642963342482062 28 30 27
-109.625368402377575 -95.620474355431639 -16.204492545110639 25 27 24
-109.618069219448515 -95.083151392415914 -16.656950924072476 23 25 21
-109.611967471426638 -94.542890952397741 -16.998007806285216 40 42 37
-109.608217584148804 -93.993499047758235 -17.116315791291100 34 36 33
-109.604498596242436 -93.444643952552354 -17.234603468494413 30 32 31
-109.603121997523203 -92.884481765070944 -17.130169174479704 30 34 33
-109.598309006372062 -92.342348443327268 -17.359769913414880 8 13 11
-109.599296126556510 -91.768967252486036 -17.032623124380137 12 18 18
-109.599154085611261 -91.200683051632780 -16.816822941201366 13 19 19
-109.589831726485968 -90.687373628027444 -17.491719787137043 16 22 22
-109.584003165787919 -90.155473352249487 -17.832559922100103 9 17 14
-109.579361394000031 -89.617640400199861 -18.062034484413260 14 20 18
-109.574756100006269 -89.080883127973280 -18.291480523361912 25 29 27
-109.571333932773328 -88.537104490303918 -18.409573948044908 13 13 11
-109.567946995483680 -87.993856484336419 -18.527645056785076 16 20 19
-109.568027809669289 -87.425218006289015 -18.311741907228708 19 21 20
-109.562424004187847 -86.900037527162482 -18.652405349823908 12 16 15
-109.556861458811397 -86.376473046290968 -18.993032419444432 11 14 13
-109.550199879308352 -85.863979648751979 -19.444930187922068 14 11 12
-109.551561308731479 -85.285550709067508 -19.117656289645112 22 12 15
-109.552953621732243 -84.705472637008739 -18.790384592118471 19 6 6
-109.550964276228129 -84.154559109314036 -18.797007117884476 15 2 3
-109.543329173029349 -83.656343483272309 -19.360082533407137 25 5 8
-109.543694262011513 -83.085119083453378 -19.144070005954347 17 0 0
-109.540690759463601 -82.546047754246374 -19.261914688196299 62 36 41
-109.534327771720157 -82.041576147764246 -19.713587039074469 110 78 83
-109.523480854335133 -81.585782388486550 -20.610338960670475 129 98 103
-109.520616786179914 -81.050993333282548 -20.728072858379420 129 96 101
-109.522323821806296 -80.468022125507900 -20.400680379126783 129 97 100
-109.524070279668734 -79.883392785004204 -20.073286108404687 121 89 92
-109.515688310161892 -79.411577977387779 -20.747305950242833 121 88 91
-109.511878516482625 -78.891033862608481 -20.976204534393361 134 95 100
-109.514889251560888 -78.291968084484864 -20.537495154368997 79 42 46
-109.516814849381319 -77.704230681500150 -20.210047176553502 24 2 2
-109.518785716234461 -77.114828943320120 -19.882594674026222 151 126 129
-109.523055711163721 -76.495602141919889 -19.332631511025625 147 131 132
-109.531873530024981 -75.816212559747171 -18.337676430688447 18 11 13
-109.528358258209096 -75.292751810406600 -18.566464138973856 22 21 22
-109.523775485854657 -74.785238373659226 -18.906457267078480 18 23 21
-109.524870955599681 -74.203477982204021 -18.690203780227051 17 23 21
-109.532760820934826 -73.527946031351661 -17.806511806059348 18 24 22
-109.531718350821421 -72.973718283749449 -17.812715464814488 17 23 22
-109.536346980365366 -72.339522750536219 -17.262734812919774 16 21 24
-109.529813538268229 -71.865131270789348 -17.825037963641506 17 22 25
-109.530075244416295 -71.294239415166572 -17.719930356058228 17 22 25
-109.528157688576187 -70.756358300342484 -17.837243273642912 18 23 26
-109.531909205425222 -70.133601698848082 -17.398423367704794 19 24 27
-109.533483773931522 -69.543307569747384 -17.182028523696744 18 23 26
-109.529524816755327 -69.039964494925457 -17.521680293128071 15 20 23
-109.530116021882534 -68.466635768515346 -17.416440138297787 13 18 21
-109.528538443029106 -67.929032384923929 -17.533587553230291 16 21 24
-109.529272341220334 -67.355042723802853 -17.428285937860323 18 23 26
-109.526722077978704 -66.836572930923467 -17.656560614929447 16 22 25
-109.529843248293673 -66.224224672318670 -17.328794011231025 15 23 25
-109.531921827039753 -65.629429795484526 -17.112204378909240 15 23 25
-109.536316858559033 -64.994424874715605 -16.673202695861988 14 24 25
-109.534078253382972 -64.475962919749080 -16.901328196101275 14 24 25
-109.534159694031274 -63.918376776907039 -16.907028749449779 13 25 25
-109.532086642413446 -63.401405196820427 -17.135059708256904 15 27 27
-109.540171669369414 -62.699895553765145 -16.362400655795170 16 28 28
-109.539390875660317 -62.161606546734461 -16.479173948912290 18 30 30
-109.545416465062857 -61.496806619662358 -15.928840022609904 20 31 33
-109.540336825509058 -61.043548553005941 -16.490230142340664 20 31 33
-109.549909215721172 -60.310725150555470 -15.606322983731076 20 31 33
-109.557340619854727 -59.617408435431344 -14.944751173184642 22 33 37
-109.563752574269941 -58.942978354346607 -14.394331539197566 26 37 41
-109.561297157383990 -58.445941111009333 -14.733199111016518 37 46 51
-109.565670859136574 -57.813642597198488 -14.405038658570589 49 58 63
-109.571273054028723 -57.156531364773656 -13.965687024074697 49 58 63
-109.584845654996187 -56.333704880189821 -12.748215970527951 42 50 53
-109.605281149576427 -55.363041666695580 -10.863830180395553 30 35 38
-109.617980076499862 -54.550228359241274 -9.757532903774916 25 31 31
-109.617306395292360 -54.021831219438738 -9.985012017600241 26 32 33
-109.594228319615425 -53.983205937505680 -12.435345547580141 29 34 37
-109.589257147243060 -53.561078388755497 -13.107222219844118 25 29 34
-109.585521096332712 -53.117122577017668 -13.667873818590351 21 26 29
-109.585281386002094 -52.599994806116776 -13.895029320960390 20 25 28
-109.582900566894011 -52.134899761728299 -14.344391293278420 22 27 30
-109.582896766814159 -51.620245795590584 -14.571408472877920 23 28 31
-109.583014712124196 -51.106550403035776 -14.798357542820810 22 27 30
-109.585522443136369 -50.541099833157858 -14.802978319674111 23 29 27
-109.589295202739393 -49.948876547683497 -14.696410611276292 24 30 29
-109.600017785481498 -49.194539290295992 -13.923033542339880 22 28 28
-109.602935838226003 -48.626454221146581 -13.927485140907351 22 28 28
-109.601437896208267 -48.168018431624354 -14.376356200795925 21 26 29
-109.605768885430237 -47.572989056513919 -14.269550321752178 18 24 26
-109.620521492033532 -46.725249933790721 -13.162630080773880 15 21 21
-109.630879537872673 -45.984952196494909 -12.500141774129645 12 18 16
-109.633391162471924 -45.441027865032524 -12.615397992838808 14 20 18
-109.636050768886321 -44.897474694164750 -12.730579597012422 12 18 16
-109.642307370655288 -44.266995534908368 -12.512358529042785 9 15 11
-109.662538853840275 -43.282762710212452 -10.960786670848876 13 19 18
-109.709504170731535 -41.608760109867930 -6.853771231886213 21 27 27
-109.757945316167991 -39.884296512766333 -2.635710297074837 20 26 25
-109.785892727678146 -38.682274442922342 -0.417535669803584 4 9 8
-109.805989682081616 -37.682339024230842 1.022951310673648 0 5 3
-109.819356102060098 -36.859510514847798 1.796888167417762 0 7 1
-109.818967870025830 -36.404869899247707 1.237728169692730 1 8 0
-109.821074947216957 -35.890152453431476 0.900861288195443 2 10 0
-109.819847237107396 -35.471568385308181 0.230811950272681 1 9 0
-109.824640467076719 -34.896801184360946 0.116329762602135 2 9 1
-109.831973045854525 -34.258085575359758 0.224121907449302 0 7 0
-109.840687250002233 -33.586161620943400 0.443092071876265 3 10 2
-109.847252767856887 -32.978224819316473 0.439975194212820 2 9 1
-109.857574771081218 -32.271161651388553 0.770211703550416 3 10 2
-109.875246421620815 -31.362793557108787 1.767045435760082 2 9 1
-109.891997793347898 -30.482675378943842 2.652870815397961 2 9 1
-109.895887137948350 -29.969443013215528 2.316871851195657 3 10 3
-109.893989364643090 -29.627864968720377 1.425576849181567 3 10 3
-109.893458281246168 -29.256076959111738 0.645483585508373 3 10 3
-109.901532540890017 -28.645573870395097 0.643062068663170 1 8 1
-109.911043279364137 -27.999867667963702 0.751824279953013 0 7 0
-109.915945230873177 -27.493949998720158 0.416385037270288 0 6 0
-109.922274822936544 -26.953924399625805 0.192136567799395 1 8 1
-109.936147640686102 -26.200348697623120 0.634451882675990 1 8 1
-109.949071822394046 -25.480208244528832 0.965798654214922 3 10 3
-109.957353528970842 -24.903155567830947 0.852961816245795 5 12 5
-109.968342843985965 -24.253192161712047 0.962387551948581 5 12 5
-109.979595208215500 -23.602306630559166 1.071929637597606 5 12 5
-109.993599292043157 -22.876269626862705 1.403732334451490 9 16 9
-109.997917702210017 -22.447291410052500 0.847088134184872 9 16 9
-110.007461017752320 -21.870038423759265 0.734852783733146 9 16 9
-110.012236101072489 -21.444730426949423 0.178464833756010 9 16 9
-110.026067654554339 -20.754228510270295 0.399691888265295 7 14 9
-110.041464388017630 -20.023691484590223 0.732114502944370 5 11 7
-110.055901883047227 -19.329839252862040 0.953596951337317 3 9 5
-110.052751759055994 -19.181324966746523 -0.379745408382234 2 8 4
-110.063878920073591 -18.606307873947124 -0.491200037412625 2 8 4
-110.076576949887567 -17.991779225514517 -0.491450995565827 2 8 4
-110.096049865858646 -17.177276429449766 0.063775118838606 4 10 6
-110.102868038069374 -16.761340672643538 -0.491538951241893 3 9 5
-110.115161947893640 -16.185876258595922 -0.602440016144726 1 7 4
-110.123810650216683 -15.732723224923060 -1.046402578100697 1 7 5
-110.132721881790985 -15.281323161892811 -1.490221502755276 1 7 5
-110.136589251069935 -14.996898946888475 -2.378170167239716 6 12 10
-110.147340927872435 -14.508520086287611 -2.710630385625137 8 14 12
-110.161058831132380 -13.937568087239383 -2.820803768394967 9 15 13
-110.179136797084979 -13.240189917317155 -2.597616025444097 8 14 12
-110.200288860690975 -12.456270541628788 -2.152130686977529 9 15 13
-110.206850161723054 -12.139430941465719 -2.928265366668370 7 13 10
-110.190357145082643 -12.556990272959455 -5.592470659424350 7 13 8
-110.197268156177643 -12.251743388771384 -6.368318709370612 7 13 8
-110.221048671230093 -11.427083436019341 -5.811136407047172 7 14 8
-110.253626379872102 -10.335897550486226 -4.587335733259209 6 13 7
-110.257301561666438 -10.164680883668952 -5.695928807254376 9 16 9
-110.278100901927189 -9.465511777639822 -5.471457603167636 7 13 9
-110.296466738763627 -8.853984630539989 -5.468966205907890 8 14 12
-110.318063716991560 -8.151844395014910 -5.244143997880116 14 20 20
-110.307036639408437 -8.489178877315343 -7.573983544039578 19 25 25
-110.378416253980475 -6.241041972596065 -3.572057126487380 25 30 33
-110.429027597013928 -4.659319155401620 -1.236089717678084 17 27 27
-110.468721571028027 -3.433926164210325 0.211451661753955 5 15 14
-110.506128305790156 -2.293206293860725 1.437052646895864 4 13 9
-110.544169659223087 -1.145448119899641 2.662884782639736 8 15 8
-110.567204295319669 -0.742376985640664 -2.318894361499588 31 33 28
-110.564641999912737 -0.932646526473494 -4.202762658520527 41 46 40
-110.549781030838957 -1.519358825197758 -6.975304893768396 53 58 54
-110.565973419517732 -1.145336465141345 -7.525702935174451 56 58 53
-110.587214464866790 -0.626359497922310 -7.742601152363875 67 70 65
-110.542459970307590 -2.178222008543361 -12.625828385245683 63 68 64
-110.530580218641646 -2.713423154327451 -15.175756876637706 43 48 44
-110.533053027500017 -2.812234125005413 -16.725581171283011 18 23 19
-110.522705359177905 -3.319701427486653 -19.164203312715756 18 23 21
-110.528573145591054 -3.334511295593246 -20.491550357442208 17 23 21
-110.526389360179593 -3.609223819388315 -22.374368362534597 18 24 22
-110.530859233983250 -3.688808499429006 -23.812576289102992 19 25 23
-110.558827051498028 -3.056364947209348 -23.694847755344455 19 25 23
-110.599079124519776 -2.061001525577760 -22.798965997946112 18 25 24
-110.607807751926160 -2.046615682956481 -24.014386067344276 21 31 29
-110.596200434786738 -2.664408870194877 -26.563334065619244 21 32 28
-110.077622315891205 -177.021161543088255 -23.132077371939914 124 119 104
-110.087883218944043 -177.156235275180421 -21.019459395822196 96 83 66
-110.092421875185408 -177.137452496621279 -19.354598185001777 69 55 33
-110.109645043448936 -177.431326067041880 -16.682720453959462 67 55 33
-110.073540149209208 -176.368937357696922 -18.262953001176754 43 30 12
-110.057402754043977 -175.805708237008673 -18.276470675990709 43 32 15
-110.041516845282402 -175.242843937789644 -18.289864285280515 38 27 11
-110.024502398242575 -174.645824196666581 -18.415008247456512 39 29 13
-110.015959413005916 -174.255117265242944 -17.868822500427939 42 31 16
-110.004859387549075 -173.794058848082813 -17.546301965701019 44 32 19
-109.996660006406287 -173.399025260981404 -16.999996376092128 54 35 21
-109.980542887641533 -172.801139952755761 -17.124719969214169 61 37 25
-109.970028783181220 -172.336624604645095 -16.801954715817772 79 49 39
-109.965029355506772 -172.002142070512633 -16.031777227190759 91 54 46
-109.957506558311351 -171.598950599137083 -15.485231935341517 109 68 62
-109.942225905132688 -170.999546215037839 -15.609571002805438 110 70 63
-109.925865827811080 -170.368980414823199 -15.845606108110047 93 56 48
-109.907137248844805 -169.676340018249391 -16.305131031327790 76 46 38
-109.897763946156530 -169.206420153376655 -15.981875653680049 75 51 42
-109.880806558976616 -168.548017383463758 -16.329341934807161 50 32 23
-109.875666702316465 -168.169709987067563 -15.670541623169044 72 55 46
-109.854016616209506 -167.390152781212237 -16.464935518531377 81 57 53
-109.846662295479888 -166.948623455179984 -16.029563143836157 73 46 43
-109.833116950198090 -166.354747488923948 -16.153015139168275 72 38 37
-109.823561682351411 -165.851079847636868 -15.941053080765101 130 91 90
-109.810404984645814 -165.257972309499166 -16.064311238612220 164 119 121
-109.797446673718227 -164.665654250320131 -16.187466362401295 168 123 120
-109.785928081327285 -164.103095100442516 -16.198767521453846 95 50 45
-109.777068358948625 -163.598162324125042 -15.986485739153323 140 95 90
-109.768364671975533 -163.092349653884384 -15.774138367239829 169 124 118
-109.759814658630432 -162.585652574607820 -15.561726582055911 122 79 70
-109.746524462084622 -161.966571519683868 -15.796174848667363 110 70 62
-109.743166314135465 -161.569587485747007 -15.136714421701555 96 55 51
-109.733850835967914 -161.032887117990839 -15.035836556106119 53 12 8
-109.729519819473609 -160.604029914523892 -14.488028517583814 140 100 93
-109.716883535342106 -159.985200041268484 -14.722161369198517 137 99 90
-109.710414571421580 -159.500154334685760 -14.397672263726861 127 89 79
-109.702880766308184 -158.987420515109648 -14.184836467208640 123 90 70
-109.691918302465481 -158.395918332245714 -14.307028386368700 118 90 70
-109.681117166368495 -157.805140877753189 -14.429135666894979 100 77 60
-109.671653328772052 -157.240484832897124 -14.439475422690350 60 41 25
-109.671730166588375 -156.877011632892817 -13.556308996619521 42 23 9
-109.676559025628436 -156.608725010773583 -12.226453876938109 41 21 7
-109.695409613089936 -156.628962136955295 -9.556614271513496 44 20 7
-109.694455013996517 -156.223023125151514 -8.785237288179133 60 32 18
-109.686639609893689 -155.669218935895259 -8.683817850519830 92 63 47
-109.678953539060544 -155.115017590185943 -8.582340628398498 114 81 66
-109.674840095083624 -154.630863894622195 -8.145856583421818 115 79 63
-109.671971601904289 -154.167872166526337 -7.597700242568436 119 86 69
-109.661210817948287 -153.541735633962276 -7.831011072442749 116 88 71
-109.652867624781706 -152.962153392046389 -7.840968358628714 112 91 77
-109.645783423587744 -152.405091857215723 -7.739232645498504 85 70 62
-109.636558017827412 -151.803383180045586 -7.860698622599301 38 28 27
-109.627461983183395 -151.202347110336234 -7.982095785514986 39 34 36
-109.619614245644186 -150.623547807850372 -7.991807988238236 41 39 42
-109.610766090636460 -150.023573005782794 -8.113075642224601 61 61 63
-109.598697939959678 -149.361197196527343 -8.569102710777827 47 48 50
-109.585660465236060 -148.680371881311288 -9.136642295586029 48 49 51
-109.581624887961894 -148.166184679284726 -8.811289034335744 48 52 53
-109.564433456516099 -147.408046397611770 -9.825047218685597 47 51 50
-109.554010661307558 -146.774497187488890 -10.169131543236034 50 54 53
-109.540421028593215 -146.083719765135953 -10.847896605493105 53 57 56
-109.536814866552945 -145.570756306130789 -10.522325316865079 55 59 58
-109.526746507198951 -144.941592244824818 -10.866194941977938 56 60 59
-109.517882046096403 -144.332993198552202 -11.098418055342734 57 60 60
-109.510209695446449 -143.744137541237137 -11.219008753611917 58 59 61
-109.502637082291301 -143.155913150123979 -11.339545239865373 62 63 65
-109.489773075832929 -142.478227235333293 -12.017828407544897 63 64 66
-109.477035056135591 -141.803894840252980 -12.696016784126726 59 60 62
-109.463348629119167 -141.115440311392064 -13.485663126656988 59 60 62
-109.459408993691838 -140.585677646145484 -13.271283178143818 58 63 59
-109.451277419949378 -139.987188208305582 -13.503051617429435 58 63 59
-109.446428673917396 -139.439823811663160 -13.400146652697458 53 58 54
-109.433171970802206 -138.760926030273765 -14.189489044383720 48 53 49
-109.428493090384592 -138.214786474314167 -14.086490208623616 49 54 50
-109.422830628599442 -137.652328904726005 -14.094988769250534 46 50 46
-109.418295382248147 -137.105497942479758 -13.991928336437667 40 42 39
-109.410680094175390 -136.512305844131049 -14.223395258252026 41 43 40
-109.405240934517280 -135.950300991125545 -14.231782331867578 44 46 43
-109.398828023176065 -135.373605106930370 -14.351645352035263 45 47 44
-109.393530776462896 -134.811983315558507 -14.359960591938545 45 47 44
-109.385183723402690 -134.207806404856200 -14.702749544726885 43 43 41
-109.383137049060196 -133.688895878209877 -14.376493418684589 39 39 37
-109.379071779188791 -133.141084776244838 -14.273218239805175 38 38 36
-109.375064744658857 -132.592776684575938 -14.169920317102765 37 37 35
-109.369056179153048 -132.017743158017026 -14.289572788126463 35 35 33
-109.366193393698921 -131.481822186775474 -14.074741068814546 32 33 29
-109.361331276461556 -130.919717228398071 -14.082853117748840 31 34 27
-109.355504825357031 -130.345356867896129 -14.202411536630791 31 34 27
-109.348719657749669 -129.759556157701013 -14.433405248388596 31 34 27
-109.346069270787268 -129.221892680499280 -14.218489854855449 30 33 26
-109.347525324034748 -128.729099402557750 -13.557712543217860 29 32 25
-109.346981303138193 -128.210660076404849 -13.119873817693787 29 31 27
-109.344449652608233 -127.668206280262680 -12.904950930217694 28 30 27
-109.337924995353887 -127.082041211850267 -13.135823765237689 27 29 26
-109.332465218955463 -126.507388698501003 -13.255209775473162 26 28 25
-109.328062701185360 -125.943431304389165 -13.263121021649255 26 28 25
-109.323707588332979 -125.379503761380406 -13.271009282202812 26 28 25
-109.321399460530969 -124.834756809503773 -13.056003066823763 26 28 25
-109.315135367061004 -124.251733733412550 -13.286718906917116 27 29 26
-109.311912443758445 -123.696921013493522 -13.183112823497453 29 31 28
-109.306740385418124 -123.124069937096635 -13.302342647304613 33 35 32
-109.302606916188267 -122.560275297001340 -13.310123506272419 41 43 40
-109.295544139429310 -121.971856111482126 -13.652135863499126 44 48 47
-109.290510190678006 -121.400979332287548 -13.771279293719431 47 51 50
-109.285519691803074 -120.830668040619358 -13.890396116820568 54 58 57
-109.282540607611693 -120.275721726085180 -13.786674756762437 54 58 57
-109.277630499561781 -119.705994816821743 -13.905747105826805 51 55 54
-109.272761218154315 -119.136830710760378 -14.024794130349250 41 45 44
-109.266953132068906 -118.561644077066532 -14.255211153634633 40 42 41
-109.262164874359001 -117.993874945927985 -14.374205057520271 36 38 37
-109.259365249955124 -117.438747547339020 -14.270399708504016 35 37 36
-109.256596009425607 -116.883092187964607 -14.166585258512072 33 35 34
-109.252885007535625 -116.321411195929983 -14.174142253711295 32 34 33
-109.252115913787492 -115.775419861097504 -13.847553693854650 30 32 29
-109.248464400313765 -115.212951329175340 -13.855090336543128 29 31 28
-109.242911965392295 -114.641133017050308 -14.085350385361920 30 32 27
-109.237397405807783 -114.070414428051791 -14.315580994746767 29 31 26
-109.233845607242529 -113.509070315970561 -14.323058359946543 31 33 28
-109.231284660590546 -112.951603149877201 -14.219162912714268 27 29 25
-109.227790251803214 -112.390008729590093 -14.226615399389118 32 34 31
-109.223366975696763 -111.825101942460535 -14.345405233781918 45 47 44
-109.220887448661884 -111.266848909202025 -14.241478925009375 47 52 48
-109.214615041170276 -110.696946555809930 -14.582922569232608 53 58 54
-109.206474510444949 -110.123669639982268 -15.147012423114774 43 48 44
-109.199328448747593 -109.555353382322934 -15.599716578955707 41 43 40
-109.195070485852511 -108.995108163242136 -15.718379344213133 40 42 39
-109.190842037377223 -108.435413076062531 -15.837022327089272 37 39 36
-109.188535406983689 -107.879106781874796 -15.732993266392981 34 36 33
-109.182472348499147 -107.317671236456320 -16.074249605660981 41 43 40
-109.180216881922917 -106.761375486027589 -15.970195959837611 42 44 41
-109.175158607198441 -106.202728048091913 -16.200084029687474 41 43 40
-109.174832021575398 -105.646833963816718 -15.873385709435354 39 41 38
-109.171705369097452 -105.089130822309315 -15.880622207865059 34 36 33
-109.169540489676990 -104.531219662650614 -15.776541853675639 27 29 26
-109.163654907150573 -103.974699284363538 -16.117662694769166 25 27 24
-109.162473147734005 -103.416038273132983 -15.902260853018134 23 25 20
-109.159444644617039 -102.858344843197756 -15.909450297163914 23 25 20
-109.159233912008659 -102.296757901673601 -15.582755152666152 23 25 20
-109.154390331822952 -101.741391322441544 -15.812506741857788 26 28 23
-109.152361611180297 -101.181586760433788 -15.708380739517338 29 31 26
-109.142939810228881 -100.638147362464437 -16.494494185964356 31 33 28
-109.141890890684209 -100.077043898667114 -16.279053935465242 40 42 41
-109.137164747126576 -99.525480952676588 -16.508710190668779 35 37 36
-109.137081727136575 -98.960358949603062 -16.181990337056590 36 38 37
-109.126881542120657 -98.428812280507898 -17.079212626859771 38 40 38
-109.125926631964376 -97.866886663317644 -16.863735865429362 31 33 32
-109.120398657158958 -97.322592487829041 -17.204559777767628 39 40 38
-109.123158255947715 -96.743780979381711 -16.544044283269699 37 38 36
-109.117684713686117 -96.200294956049390 -16.884833836549461 30 32 28
-109.118646226692306 -95.626517743180685 -16.446844489434170 22 24 20
-109.112317511526413 -95.089212918925739 -16.898838413233250 21 24 19
-109.107849130636623 -94.543870601401508 -17.128307323606265 37 41 34
-109.102501687304098 -94.004984632667089 -17.468989200917719 30 34 29
-109.099916680767052 -93.450782539992332 -17.475930539731479 29 32 29
-109.096450656945066 -92.902492149280931 -17.594091386996894 27 32 30
-109.092107731388865 -92.360928329157488 -17.823461385996495 9 15 12
-109.088703231676178 -91.813981429994044 -17.941578971105457 11 17 16
-109.087138296878749 -91.254101366263555 -17.837231872383541 13 19 19
-109.084696488333307 -90.700674336335410 -17.844096727658751 16 23 20
-109.081381893873854 -90.154515192288159 -17.962163193643647 9 17 14
-109.077198539135310 -89.616438799966573 -18.191420956664729 21 27 24
-109.069451251150255 -89.110724223300068 -18.865486116390940 21 25 23
-109.063545611624832 -88.592073524821288 -19.317085625966115 16 16 14
-109.063962411456160 -88.017029628705842 -18.990228791294015 18 20 19
-109.066197095440430 -87.423067665846361 -18.440979250398016 19 19 19
-109.063081930624762 -86.879826093556005 -18.558920277893122 13 12 12
-109.060002204913047 -86.337113693399999 -18.676838904407816 17 9 10
-109.054279229794176 -85.823287364672481 -19.128301368295638 13 1 2
-109.053059565200883 -85.262997881612321 -19.023793307850298 112 87 92
-109.049200038838350 -84.732136724949001 -19.252821882441026 135 104 107
-109.046270654202345 -84.192077268818196 -19.370641278214805 132 99 103
-109.038045817357556 -83.715783914459294 -20.155490933177987 133 96 101
-109.033424465132441 -83.200029859155464 -20.495587342587044 133 92 100
-109.029734244617330 -82.674803204894459 -20.724476923076907 127 86 93
-109.025200657299422 -82.161999150010274 -21.064500980218952 127 87 90
-109.021597742089227 -81.639176924005653 -21.293324044162318 117 78 81
-109.017154768489547 -81.129319442101647 -21.633274421456207 118 78 80
-109.014525676263602 -80.596726271993745 -21.750873304137542 116 76 77
-109.009292808439739 -80.101983562956377 -22.201904865091166 108 68 69
-109.004110015819506 -79.609390908917547 -22.652890338642777 100 58 60
-109.000740069344815 -79.092971767762634 -22.881536040972605 76 31 34
-109.005340697472533 -78.458274166537180 -22.109856183056735 79 35 39
-109.006458994874563 -77.873866352227012 -21.782760141865339 159 120 125
-109.006741587614542 -77.301599708210631 -21.566797808675204 157 128 130
-109.016728302231499 -76.573376976595554 -20.128350657072048 121 101 102
-109.027624251611115 -75.823698854518682 -18.578830496866885 19 9 12
-109.029786058345550 -75.212569345470556 -18.140651419295011 21 18 19
-109.022359014550119 -74.763042441065480 -18.924843892282269 19 22 21
-109.021998052964548 -74.195972256838076 -18.819994828424939 16 22 20
-109.025190425343368 -73.566572436841142 -18.270651912349592 17 23 21
-109.026684999926559 -72.965828199009096 -17.943544020458575 17 22 23
-109.028234172083813 -72.363408922067308 -17.616427251294226 15 20 23
-109.026346390931181 -71.824325858581304 -17.733738297031891 16 21 24
-109.025392895522288 -71.269216737893984 -17.739908463009328 18 23 26
-109.021011771859321 -70.781251995967096 -18.190462783455416 16 21 24
-109.018441052715360 -70.261277178912223 -18.418762738528045 18 23 26
-109.020294273630810 -69.655629875595650 -18.091533741177074 17 22 25
-109.020468785065617 -69.083526329225450 -17.986480319787319 16 21 24
-109.021580993525191 -68.492937494711626 -17.770309700791614 15 20 23
-109.019278320099019 -67.973841639263384 -17.998472376118258 17 22 25
-109.020528732964337 -67.382050618357880 -17.782248015317066 18 23 26
-109.018369330401057 -66.863928046545226 -18.010332131856586 16 21 24
-109.021504379227522 -66.232973230256704 -17.571891530450699 15 22 24
-109.022103597281330 -65.657523204669616 -17.466669377861848 15 23 25
-109.023649159041170 -65.061940853807414 -17.250342844905049 16 24 26
-109.020924042701012 -64.564173045194650 -17.589346960093820 15 25 26
-109.021758100998724 -63.987702827558778 -17.484022962086499 16 26 27
-109.019194761652685 -63.491974369807565 -17.822928691652891 14 26 26
-109.025412723720365 -62.791683650482121 -17.051150289639679 15 27 27
-109.027367422359632 -62.191924102122393 -16.834671024994464 16 28 28
-109.030279781688847 -61.569836534764178 -16.507104567353451 17 28 30
-109.026319924432187 -61.117476163621383 -17.067949746640636 16 27 29
-109.028542058144922 -60.515835173700637 -16.851361908596118 15 26 28
-109.032599260618937 -59.869063199250462 -16.412642966000931 15 26 28
-109.036753375564430 -59.220018500267010 -15.973901055106893 12 23 25
-109.034906404235528 -58.726354139466480 -16.312442829882599 19 29 31
-109.033155357886614 -58.234232793784727 -16.650922831446906 24 34 36
-109.031501726508239 -57.743652079788447 -16.989340371527305 23 33 35
-109.039548930041974 -56.997852777601892 -16.106296424451273 17 25 28
-109.050329538684551 -56.176735482409768 -14.890143456917627 19 25 28
-109.054237355941396 -55.540604014442479 -14.562245336540201 18 24 24
-109.051259954550702 -55.096012057143156 -15.122540548122515 19 25 26
-109.053639368173108 -54.507432699099461 -15.016601902890272 22 26 29
-109.055257007401053 -53.942897917515921 -15.021639069933173 20 24 28
-109.054358401843942 -53.453187248620907 -15.359686452437444 20 26 26
-109.057961765181361 -52.838720211619155 -15.142569863820739 22 28 28
-109.063446147957762 -52.171975702040591 -14.703373750398271 22 28 28
-109.065540282954728 -51.606120218865478 -14.708196558143499 24 30 30
-109.065115301261045 -51.118358003500887 -15.045997304203922 23 29 29
-109.068338580469501 -50.526703003427578 -14.939686615696331 23 29 27
-109.069925890155048 -49.987605958422350 -15.055335333807420 24 30 29
-109.076949327125220 -49.287528822905230 -14.504887166677264 22 28 28
-109.082347123262451 -48.638905744537517 -14.176404827931776 20 26 26
-109.087001650571537 -48.015930754398248 -13.958872942709803 19 24 27
-109.091800355301544 -47.391702215489005 -13.741284986911126 16 21 23
-109.102088096619298 -46.598254612168184 -12.857659642139140 14 20 20
-109.107193272788734 -45.969859589357668 -12.639967959166142 14 20 18
-109.111558091076773 -45.368738710953096 -12.533208599316623 15 21 19
-109.111599000355298 -44.910976685862138 -12.981336542624064 13 19 17
-109.116263022183176 -44.309775835418570 -12.874434868019080 10 16 12
-109.123782055489386 -43.619744900019896 -12.434505083636424 13 18 20
-109.140483372244375 -42.630923866173745 -10.884669273703878 20 26 27
-109.179073635553081 -40.916250281752717 -6.671220193617842 22 28 28
-109.219798212873158 -39.120105196103914 -2.235870922273534 21 27 27
-109.246350460474886 -37.789194087860380 0.423745083427548 5 11 11
-109.261362594735047 -36.844483642214769 1.640650191926767 0 6 3
-109.263839733364591 -36.327709002913892 1.303939170827135 1 8 0
-109.265572062758793 -35.843645217886127 0.856349659877452 2 10 0
-109.265637396370877 -35.424679956091545 0.186914985820920 2 9 1
-109.269539073233801 -34.881412586536285 -0.038528359131504 2 9 2
-109.277310919575328 -34.210531920019633 0.180001723637560 1 8 0
-109.286213989205322 -33.505902741442235 0.509584474282434 2 9 2
-109.295332737901305 -32.799359642577990 0.839250704110185 1 8 1
-109.303740364489983 -32.123840269600294 1.058037193434330 3 10 3
-109.313299472016681 -31.413723967862950 1.387877308645074 2 9 2
-109.323086329223884 -30.701672129934799 1.717806455075987 2 9 2
-109.328403818232474 -30.156544372345643 1.493021279892332 3 10 3
-109.330149594980355 -29.748430375987692 0.824502221598323 2 9 2
-109.333020348951109 -29.309011102920682 0.267057992532500 2 9 2
-109.342731844513125 -28.629832300805596 0.486430579961734 3 10 3
-109.352682930557890 -27.949235725933359 0.705903192809558 2 9 2
-109.360961745316160 -27.337528054753765 0.703567135057511 2 9 2
-109.364663804766522 -26.902667746088618 0.146567527394382 1 8 1
-109.375322838214615 -26.220266634868864 0.366360244854178 1 8 1
-109.389146824214095 -25.428449386764495 0.919117444264430 0 7 0
-109.400333393876735 -24.742310206860150 1.139124055422172 1 8 1
-109.407870942417730 -24.200884155574844 0.915439052631712 2 9 2
-109.416624757701129 -23.623384847982116 0.802823472453440 2 8 4
-109.427598765615372 -22.971870229475300 0.912225917883205 4 10 6
-109.431897116990910 -22.581075223148879 0.245106275606247 1 7 3
-109.439390774473424 -22.080263238741495 -0.089040548443506 3 9 5
-109.444116143011058 -21.694539019884751 -0.755903711011086 4 10 5
-109.460122628254638 -20.891393626566185 -0.202219017732830 3 9 5
-109.479487766846646 -19.969567205929533 0.684427455121835 2 8 5
-109.485994129454269 -19.546909592934352 0.128895024953437 0 5 2
-109.489662052093536 -19.243776589984542 -0.759341633072637 0 6 2
-109.495583161902744 -18.866016680745080 -1.425550776474665 0 6 2
-109.517226982614631 -17.896987668345535 -0.427441184973674 0 6 2
-109.526796488570511 -17.401174166606665 -0.760543478336047 4 10 8
-109.528267391909395 -17.227959636129775 -1.981070521523435 8 14 12
-109.535162791769253 -16.858179027813730 -2.646731432952038 12 18 16
-109.545460550391809 -16.369087176307229 -2.979416143412351 17 23 23
-109.561346812755573 -15.676121368209923 -2.757231485289026 17 23 23
-109.561518993091610 -15.600969412503620 -4.199088195605782 14 20 20
-109.554298835686964 -15.823664947408002 -6.417427675555643 12 18 18
-109.563380519047826 -15.429232109292961 -6.971437549316335 10 16 16
-109.584708997513403 -14.573554322826769 -6.304888690115177 5 11 11
-109.606447294169612 -13.713963515986409 -5.638184053980808 4 10 10
-109.605403868901888 -13.747245370455833 -7.301223912012006 4 10 6
-109.586682088174157 -14.476250562790266 -10.739301763608523 3 9 5
-109.587985152527594 -14.443368841065530 -12.180182354134587 2 8 4
-109.618736967648644 -13.284899059123035 -10.736229998653727 2 8 4
-109.648899199776096 -12.162328362831484 -9.403049055253746 2 8 4
-109.667027128079710 -11.517689735108508 -9.290153420803961 3 9 5
-109.663650352612223 -11.715566611388981 -11.285191941089153 3 9 5
-109.671930564125574 -11.476179092297643 -12.170565931639118 0 5 3
-109.688614724575288 -10.925914620750470 -12.279107320023741 6 12 12
-109.708001705511279 -10.285076708481197 -12.165570236436793 15 21 21
-109.766911682906667 -8.140107959544874 -8.390265058753812 18 23 26
-109.837569381672907 -5.562620437275230 -3.616061980163238 20 30 32
-109.884122707815976 -3.928282270118074 -1.171718624032991 22 32 33
-109.931492860229426 -2.280654425915222 1.272878701663245 15 23 23
-109.962572436076627 -1.273316866616127 2.164249112039670 16 22 18
-109.984128922597236 -1.072109621715753 -1.818429323085013 31 36 32
-109.968943550802351 -1.878341280819432 -5.143161553031632 19 24 20
-109.943368175811472 -3.086063659146238 -9.355602658592517 43 48 45
-109.966244835973271 -2.475240761082376 -9.350946049726588 49 54 50
-109.964934504618157 -2.788950223320844 -11.454662552155554 45 49 45
-109.976715758223662 -2.622933843822091 -12.448465295091324 52 54 51
-109.957088320493497 -3.644044166695157 -16.105687394884740 35 37 32
-109.957099429297173 -3.939910888599538 -18.098096504240431 29 31 26
-109.966529821287750 -3.896375043200146 -19.313480907489264 23 26 19
-109.981564757170716 -3.657790313856271 -20.084756312615440 19 25 19
-109.988684164192591 -3.725091560328185 -21.521823151126426 14 20 16
-110.011110922194163 -3.241028442750929 -21.737794741653602 19 24 20
-110.029776039543378 -2.910340342530616 -22.286563776833788 17 23 19
-110.047377659523534 -2.633007700483224 -22.946151255895956 19 24 22
-110.069552321569489 -2.203448502653438 -23.272541296958224 19 26 24
-110.105014666597128 -1.307573921706028 -22.599644610239380 21 31 30
-110.099210318709126 -1.921049134154256 -25.145860934999035 23 33 32
-109.623163285783221 -178.557870342290357 -16.903855573154488 119 105 86
-109.606422329072103 -177.989876683002365 -16.917711033532413 107 92 69
