ply
format ascii 1.0
element vertex 687
property double x
property double y
property double z
property uchar red
property uchar green
property uchar blue
end_header
-107.381525100186039 -2.713368017980828 -21.449186670375781 21 32 28
-107.402909782400641 -3.501296400695973 -24.424035661893186 25 35 34
-107.425280113620090 -3.638148517683803 -25.963949473414743 28 38 37
-107.449713052496278 -2.803453627173865 -25.406558348425847 25 35 34
-107.474028073814509 -2.275826819427276 -25.511216138281696 25 36 30
-107.496987276427120 -2.477339839379885 -27.161041533510655 26 37 31
-106.095868954751140 -114.796549782358539 1.593841971021476 179 183 186
-106.105241810566056 -114.088879054384918 -1.180430620202259 169 170 174
-106.107426857540887 -113.449142166328528 -2.405418168509414 136 137 141
-106.103400184061229 -112.858705829420089 -2.302563288204908 124 128 131
-106.097818928676134 -112.277746649290066 -1.867777906658205 119 123 126
-106.094346951186793 -111.682356309217383 -1.875567540656959 111 113 117
-106.091948657588048 -111.081383880630554 -2.104618757044932 112 113 117
-106.090104382658268 -110.478981926359054 -2.444278532547173 108 109 113
-106.087227730655400 -109.882717676649207 -2.562651245385183 101 102 106
-106.087031282239906 -109.277106757943500 -3.234132392575731 95 95 100
-106.084738085792196 -108.681590896437626 -3.463077163660756 96 97 100
-106.080864114243454 -108.091473322402948 -3.360145950089503 92 92 96
-106.077540748740716 -107.499652547602125 -3.367827745294733 89 89 91
-106.075848067356603 -106.905159063781824 -3.707333593105091 78 79 80
-106.074181259422645 -106.312299378972156 -4.046810245631661 87 88 89
-106.070376477456463 -105.722468043195263 -3.943842985607091 88 89 90
-106.067127469634343 -105.132019049563866 -3.951475087920073 88 90 90
-106.062263063005062 -104.540988374051139 -3.627309324267685 84 86 86
-106.060132652409223 -103.950661705108175 -3.856122804193348 79 80 81
-106.057477320222333 -103.360685588317565 -3.974324911478988 78 80 78
-106.056485724755021 -102.774284030971060 -4.424270952846172 69 71 69
-106.051123634714116 -102.179804728450023 -3.989519892761734 72 74 71
-106.047419352863429 -101.587812496700380 -3.886526797014199 66 68 66
-106.044833310889672 -100.998927453997041 -4.004684525125668 59 61 59
-106.043928257213224 -100.416876316490004 -4.454544384139865 57 59 56
-106.039717463157118 -99.822788176211333 -4.240956291414079 62 62 61
-106.037187738061235 -99.235533314446798 -4.359070297452917 62 62 61
-106.033560209821403 -98.642997455083957 -4.256046078873140 57 57 55
-106.032744834301170 -98.065835157434663 -4.705812712880174 56 56 55
-106.028590065297905 -97.470113395367349 -4.492214633650917 56 56 54
-106.027258957959063 -96.891938276379150 -4.831379532550585 49 51 50
-106.024261070912772 -96.303395232371074 -4.838871880648242 56 58 57
-106.024671945049150 -95.740472686501818 -5.509623073945249 55 57 56
-106.022849703942924 -95.162639346317576 -5.738160526534386 58 62 61
-106.020482267243864 -94.581075948513131 -5.856138309262747 60 64 63
-106.014718891514534 -93.969538765876322 -5.310895923284875 14 18 17
-106.015238138817651 -93.414211556865439 -5.981517088612492 18 22 23
-106.015219745409496 -92.856511809279908 -6.541560996224462 37 41 40
-106.014659955509742 -92.295623967036590 -6.991037837801656 16 21 18
-106.012405664477882 -91.718387342425657 -7.108916954380675 25 30 26
-106.013053575420386 -91.173910240043156 -7.779364881866087 30 35 29
-106.033943183602773 -90.867749099044403 -12.317737117081123 3 6 2
-106.017349309104418 -90.129659514108369 -9.672659858552805 3 5 2
-106.001874222376642 -89.393038642066969 -7.248750027431271 9 10 9
-106.000893441812025 -88.832735176101068 -7.587563369300454 13 12 12
-105.999359781356688 -88.266251445452568 -7.815845938662846 6 5 6
-106.000771986362807 -87.741220273891287 -8.596586948673774 25 21 22
-105.996960476155692 -87.144866217850065 -8.382831164132512 181 169 171
-105.998442920263400 -86.624980327895400 -9.163485609029664 192 163 168
-106.000554066691748 -86.117779301542015 -10.054567598138703 177 135 143
-106.000943739032493 -85.587430656808991 -10.614134749853434 176 129 135
-105.997832374961504 -85.003187087289149 -10.510778243399528 176 128 132
-105.996517609873266 -84.447504402897394 -10.738844913373526 181 134 137
-105.993458165555978 -83.862964971735337 -10.635466614139858 184 136 139
-105.991610582959538 -83.298366831798660 -10.753021068525641 183 133 137
-105.990388148156995 -82.744819285873902 -10.981021589954565 181 131 135
-105.989199500032910 -82.192344456968812 -11.208994905937203 189 140 143
-105.988045392518245 -81.640941619120255 -11.436940663268160 186 137 140
-105.984535698655193 -81.045265140936607 -11.223033516173217 169 120 123
-105.985245112278051 -80.529740837837736 -11.782295110359058 169 120 123
-105.982398666959057 -79.945637854072572 -11.678810420562428 171 123 126
-105.982588330136394 -79.421731307182512 -12.127548059305582 180 133 135
-105.979811014378214 -78.837862143756411 -12.024027891333759 168 122 124
-105.977670107068789 -78.266124319310109 -12.030937278695632 153 107 108
-105.976773646730038 -77.720299808446953 -12.258702357978848 144 100 99
-105.974103742722605 -77.135822773086488 -12.155137061724901 136 95 93
-105.971470440543229 -76.550778540545792 -12.051560093727318 133 95 94
-105.964626758739243 -75.868684697576100 -11.174984142860609 109 78 76
-105.960240200545954 -75.238434344493029 -10.740134601077386 108 84 82
-105.954671008903475 -74.577327845725236 -10.084450675049936 47 40 34
-105.951572818909383 -73.971325276068811 -9.870452957561440 3 2 0
-105.946073912608654 -73.304722191051141 -9.214791986390964 12 18 10
-105.943667208426589 -72.710538648381686 -9.111200690198586 5 15 8
-105.940693927487544 -72.100364240515049 -8.897186159472767 13 22 17
-105.941443441145395 -71.583189110588663 -9.345586677808654 13 19 18
-105.943476346683255 -71.100072934173582 -10.014740409791017 10 17 17
-105.945569282172485 -70.620185005961133 -10.683832193669843 11 18 18
-105.943416932065247 -70.028003713563848 -10.580098605192063 7 14 13
-105.939468963479214 -69.384914232862215 -10.145171403234485 12 18 18
-105.936186944694029 -68.756654465380308 -9.820631848407373 17 22 23
-105.937277724213175 -68.247954212513235 -10.268781870157994 21 25 28
-105.937813472155526 -67.723795713250269 -10.606497651687761 23 27 30
-105.935319873105158 -67.111906999568177 -10.392271289001542 14 18 21
-105.932265577974661 -66.480746580058920 -10.067652649827096 14 18 21
-105.931748218209805 -65.921535409960740 -10.184515279383106 20 25 28
-105.931915595522810 -65.381497799196922 -10.411711854910408 26 31 34
-105.930909106793933 -64.804591547954061 -10.418131741525229 13 18 21
-105.929348410518884 -64.208405855575549 -10.314156327182729 19 24 27
-105.930961960549510 -63.709103627544472 -10.761959518721795 18 23 26
-105.929539874495731 -63.113074723790000 -10.657916179820518 13 18 21
-105.932543083686923 -62.656731946140617 -11.326330129817705 20 25 28
-105.931888902459988 -62.081710541895717 -11.332562072054174 23 29 29
-105.933800003458074 -61.588970071458782 -11.780155372763033 18 24 24
-105.932674905116272 -60.994047307711554 -11.675958569903543 14 20 20
-105.929758067998151 -60.335115870845001 -11.240701147399307 20 26 26
-105.925049888079982 -59.609720601819113 -10.474408188001888 23 29 29
-105.924785327565019 -59.032170719875992 -10.480479763916406 20 26 27
-105.924604528858225 -58.454543752546194 -10.486512061947622 16 21 23
-105.926379873458572 -57.943502357373617 -10.823499803743260 16 22 23
-105.924501593843701 -57.299048333455097 -10.498455400525501 17 22 24
-105.926453646771037 -56.789475959871289 -10.835343484286028 11 17 18
-105.927249676852924 -56.235372748834912 -10.951525213852648 11 17 18
-105.928138523979541 -55.681724851666836 -11.067657853288864 19 26 26
-105.928498911086251 -55.104944054971085 -11.073422539822502 20 27 27
-105.930824876039708 -54.599642467899919 -11.410087784000353 17 23 23
-105.931380323472993 -54.023485610208603 -11.415752731824739 13 20 21
-105.930169654676192 -53.374014067110863 -11.090440593725504 10 18 20
-105.932795730235554 -52.870863377130341 -11.426940125753902 16 24 26
-105.933659826177944 -52.294391734324137 -11.432460657430852 18 27 26
-105.937115314704641 -51.818702920030610 -11.879139607177052 14 23 22
-105.936331906733855 -51.166607938315117 -11.553650073334779 17 26 25
-105.939383065056248 -50.667375519224713 -11.889905914495756 19 28 27
-105.939447054975773 -50.039445203173713 -11.674621134284905 12 21 20
-105.941485408266203 -49.489246605473141 -11.790168348540277 17 21 22
-105.941786215149193 -48.859696294768597 -11.574786951324626 19 23 24
-105.943444638290444 -48.282647087673510 -11.579933424751715 16 20 21
-105.944609179382539 -47.678324924368312 -11.474738018976723 11 15 16
-105.944669409262346 -47.018494462696083 -11.148924516859665 15 19 20
-105.945477097998094 -46.384562629395560 -10.933345730316205 18 22 22
-105.945805163367140 -45.721429837636322 -10.607438089161633 11 17 15
-105.951783414053168 -45.310589584969748 -11.273960409157127 8 17 14
-105.956049060827993 -44.817362186779334 -11.609573430508647 7 17 16
-105.958004328493601 -44.210499210699183 -11.504025897713575 7 17 18
-105.958883942600593 -43.544816186057780 -11.177880648361537 6 15 19
-105.964165121781335 -43.082615693579100 -11.623547351884440 12 25 26
-105.972003364803371 -42.740844378136529 -12.510186666494718 28 40 40
-105.978755706683373 -42.343531224318738 -13.176199422692491 8 18 19
-105.985035302216858 -41.919178270801986 -13.731857788443449 8 19 19
-105.990247064771623 -41.436533640984095 -14.066909257497684 20 31 33
-105.990805234209247 -40.709747004456666 -13.519828986505644 22 36 36
-105.989145686326097 -39.856120936622190 -12.531679746181339 25 39 39
-105.988274249215735 -39.028598721560776 -11.653743661215231 22 33 33
-105.991754066829614 -38.417142323735064 -11.547514071348189 13 23 24
-105.997179531025893 -37.900321610007850 -11.771956212949419 13 21 23
-106.002175178909781 -37.352309752316472 -11.886066158394613 14 19 22
-106.004986600217066 -36.675228527882098 -11.559114066496022 15 21 21
-106.010327452985635 -36.126766487922247 -11.673063501059943 14 20 20
-106.015840680552955 -35.578621676591354 -11.786927206717280 17 23 23
-106.023851925984687 -35.163490685635466 -12.341662230799159 16 22 22
-106.028551431321489 -34.550164581084530 -12.234868392336864 16 22 22
-106.035743985692662 -34.070944311245434 -12.568937008718194 16 21 24
-106.038525205313448 -33.321101910406348 -12.021030562702748 14 19 22
-106.044946425432528 -32.773909879403995 -12.134450080389144 11 16 19
-106.051556621356070 -32.227001612488053 -12.247776271772153 10 15 18
-106.061180344221995 -31.854525992274446 -12.912159703937789 8 13 16
-106.065355311691064 -31.134012807009551 -12.474143478299965 8 13 16
-106.070317047737674 -30.446385002517232 -12.146271244447462 8 13 12
-106.079944306003014 -30.042087395154127 -12.700121660069470 6 11 10
-106.086439449746635 -29.424633540723569 -12.592511283351371 6 11 10
-106.093154840532037 -28.806319071233041 -12.484804399946540 7 12 10
-106.097371575369976 -28.004680464426794 -11.825885487819534 7 12 10
-106.106720088355317 -27.530310256111882 -12.158872776870112 6 12 10
-106.116807321862098 -27.094321104113554 -12.601970473982163 6 12 12
-106.123358550154848 -26.398952655540587 -12.273417510825510 6 12 12
-106.129634926442122 -25.663974189826757 -11.834544876810440 7 13 13
-106.138278815215131 -25.077937925794899 -11.836442035715208 6 12 12
-106.151328189296279 -24.796798759523700 -12.719964245918732 5 11 9
-106.162483956467483 -24.366003314689390 -13.162497298751418 4 10 6
-106.171800284397378 -23.782207175424141 -13.164049706338915 4 10 6
-106.179334163223587 -23.042061559444551 -12.724628675493051 5 11 7
-106.190677245512774 -22.574193838065892 -13.056594836060896 5 11 7
-106.198262611624855 -21.791202609693773 -12.506731320365560 5 11 7
-106.206649619142709 -21.044843296033388 -12.066966116389608 4 10 8
-106.216316949276191 -20.376050808482312 -11.847507745996523 4 10 8
-106.226756028956004 -19.746103310191987 -11.738139207197776 5 11 9
-106.239866149773363 -19.318500751264317 -12.179704437966478 5 11 9
-106.252737033551242 -18.851746863336540 -12.510928238291683 5 11 9
-106.266321077872632 -18.427450178593794 -12.952232716656880 5 11 9
-106.276455912135873 -17.672870394838426 -12.511715975785279 6 12 10
-106.289200063617344 -17.124520990738937 -12.622122538203826 7 13 11
-106.300427946010686 -16.407975014020280 -12.291550270691545 7 13 11
-106.311545722590807 -15.646902766608067 -11.850630123774721 6 12 10
-106.323887835766953 -14.968344495326971 -11.629992670460211 5 11 9
-106.337852187344438 -14.416890164691917 -11.739847453903934 6 12 8
-106.353808768781121 -14.038259677743270 -12.290405738451369 7 13 9
-106.363757905148248 -13.009755283012657 -11.187644168922532 9 15 11
-106.377444005854244 -12.325142016593349 -10.966426083687338 7 13 9
-106.392692255494055 -11.770971027381098 -11.075694618630308 2 8 4
-106.411423591327548 -11.571401482436277 -12.066517845638714 2 8 4
-106.430745913735635 -11.420959239897829 -13.167411539612971 4 10 8
-106.447206779140913 -10.916464795016918 -13.386447502624549 3 9 7
-106.466218856480907 -10.683562886476608 -14.266620645701323 4 10 8
-106.486548281033478 -10.590976776384700 -15.477295888146472 7 13 13
-106.508481851211869 -10.687003695045671 -17.128697763848663 13 22 21
-106.525628933154181 -10.146548265187324 -17.236916722784258 14 24 23
-106.539360057107515 -9.096586902366024 -16.132566730709414 14 23 22
-106.559277068152269 -8.832448981726643 -16.901769599647338 13 20 19
-106.576522086393510 -8.149694844241733 -16.678829803514162 12 18 18
-106.597009560710930 -7.889654100914182 -17.447717590473530 10 16 16
-106.613153397850240 -6.921099946329360 -16.563093169231706 10 16 16
-106.632200179966887 -6.329205859496206 -16.560073917131831 17 23 23
-106.657672333462159 -6.745212461213090 -18.871642544605635 32 38 38
-106.677852148918831 -6.254548097959712 -19.088757014682301 25 31 31
-106.698386370618152 -5.764303941604545 -19.305697612626602 23 29 29
-106.716439271114240 -4.736659335756700 -18.309909264797483 21 27 27
-106.737807572287807 -4.244049218286955 -18.526475196006601 19 25 23
-106.761446911492385 -4.147568724968673 -19.624748188550086 18 24 20
-106.786199661266735 -4.255111706054839 -21.163823952860724 22 28 25
-106.808692256936112 -3.819441294992585 -21.490124801355194 22 28 26
-106.828463932588448 -2.629646901512103 -20.162606631842522 22 31 28
-106.851456422755476 -2.090217835765365 -20.268018602638364 21 32 28
-106.880524727492542 -3.128980604508141 -23.790904235736889 26 36 35
-106.905359420890377 -3.007708492831632 -24.778001682593185 28 38 37
-106.930423576518635 -2.890822849293030 -25.764944203384886 26 38 36
-106.955129456642766 -2.571149890809821 -26.310709973972109 28 37 36
-106.982453252935599 -3.138956933639838 -28.730689108600586 30 39 36
-105.572968305031850 -114.044735560216708 -2.765829450975900 180 184 187
-105.561805136364171 -113.489814607860808 -1.668293103528640 178 182 186
-105.559085759734842 -112.889732522526245 -1.786629875267010 135 139 143
-105.557158735129960 -112.286860360661422 -2.015475193092669 131 134 139
-105.549853017860841 -111.706562278972001 -1.470649098261504 122 125 130
-105.544870002240600 -111.115162095294451 -1.257402765197497 112 113 118
-105.545323512848526 -110.505004176479815 -1.817760893854910 105 106 111
-105.543479950235252 -109.904329271145727 -2.046543666284578 104 107 112
-105.543215558340904 -109.300782660573674 -2.496318298600869 93 96 101
-105.540640900962103 -108.704544508247722 -2.614546269612418 86 89 94
-105.535741847581448 -108.113168968544500 -2.401259515627913 77 81 84
-105.533200593453529 -107.517210639422615 -2.519468626277899 70 74 77
-105.531462112596813 -106.920904426590724 -2.748156158808939 63 67 70
-105.532102084618700 -106.323818821348027 -3.308290525074483 63 64 68
-105.528836074680939 -105.731210564272146 -3.315952987524668 60 61 65
-105.526373630308868 -105.138525197596138 -3.434090705610942 59 60 64
-105.521558317723219 -104.545809677657701 -3.220777683406908 65 66 70
-105.519918309910580 -103.953864083571688 -3.449373220731786 60 61 65
-105.515919277387994 -103.360800911252710 -3.346532156424615 57 58 60
-105.514315491855257 -102.770217092084252 -3.575096347701674 60 61 63
-105.510343726458800 -102.176884865193642 -3.472245008408663 58 59 61
-105.507978369780460 -101.586111159812106 -3.590316602385059 57 58 60
-105.508027052472087 -101.001348168740876 -4.039748111660913 49 50 52
-105.506500795249679 -100.414571309554916 -4.268236026708479 61 62 64
-105.503390981827266 -99.824150049818229 -4.275801253418877 59 63 64
-105.499492340753363 -99.231091205440350 -4.172912117637082 62 66 67
-105.496410035112660 -98.640397478449870 -4.180466989361292 56 60 61
-105.493342375285920 -98.049702933394315 -4.188014862999069 54 58 59
-105.487867092919601 -97.448649844259847 -3.864244505943589 44 48 49
-105.486442754328479 -96.864586004299667 -4.092655736997500 67 68 70
-105.485849436494178 -96.285603169693246 -4.431475994149736 51 52 54
-105.486091475237288 -95.712516162567212 -4.880694815785091 60 63 64
-105.483921105768729 -95.127982523114540 -4.998608896415305 64 68 69
-105.480954978485101 -94.539178575711034 -5.006088736361079 44 48 50
-105.475557789591321 -93.935123336305168 -4.682311922296947 11 16 18
-105.473437414531077 -93.350852264278416 -4.800199383035164 30 35 38
-105.474610428254223 -92.789625601889753 -5.359709629865165 43 49 51
-105.473354725625470 -92.213418285003755 -5.587959314913945 14 20 19
-105.472121975083013 -91.638293335426525 -5.816186878412822 9 15 13
-105.477492070224443 -91.115781186469007 -6.927585172545861 55 61 59
-105.482906905816108 -90.598698249841561 -8.038906177390913 21 25 23
-105.478466022496562 -90.003226451325844 -7.825442401269441 11 13 12
-105.472386541981734 -89.392148478064442 -7.391205396785125 16 19 18
-105.467971877867456 -88.793946550717479 -7.177757180073257 24 26 28
-105.465230351947582 -88.210250586127231 -7.185076992463365 23 27 28
-105.461679657737193 -87.618475238337950 -7.082008188419593 25 29 31
-105.458979499912175 -87.034491764910413 -7.089311169927811 18 27 24
-105.462963052134356 -86.519421676188927 -7.979578406735214 106 102 103
-105.471158862458097 -86.053125491995232 -9.421622884006354 188 171 174
-105.474399142811876 -85.538932632861176 -10.201377784842578 185 155 160
-105.474335024860665 -84.990812002706804 -10.539627194410429 183 146 152
-105.472627678747102 -84.424906468483826 -10.657128017809612 179 141 146
-105.466754359143877 -83.809662542345791 -10.222835268897597 180 143 145
-105.464257451641117 -83.233215627037410 -10.229963438569541 181 136 141
-105.464310782383819 -82.688308751583946 -10.568123580293246 183 133 139
-105.464398807828914 -82.145019009892792 -10.906250478219988 161 110 117
-105.462835488821483 -81.581223233356084 -11.023660682749608 132 83 89
-105.456236809571962 -80.949957673673651 -10.479020977208194 119 72 78
-105.456422200493364 -80.408796991125101 -10.817079380349554 117 70 76
-105.453258590216436 -79.821743739370191 -10.713776789772169 90 41 47
-105.454363896948308 -79.294871823373498 -11.162106911811293 74 24 30
-105.452964282815572 -78.732895063826092 -11.279420076434292 76 25 32
-105.451600800052233 -78.171442629819310 -11.396710558787817 121 70 76
-105.449423473336040 -77.597549534894227 -11.403659554350781 146 98 101
-105.448134124870506 -77.036871086713589 -11.520906604085496 159 114 117
-105.445177973385142 -76.449698469658131 -11.417505994620285 150 110 111
-105.439696248212556 -75.820619623068851 -10.983168318061189 92 64 63
-105.430826583366724 -75.133134707402434 -10.107617083556704 23 11 9
-105.425405606888248 -74.498567631350255 -9.673306838133499 8 8 5
-105.424302738426107 -73.934775491712756 -9.790496727264127 15 19 15
-105.418098839725815 -73.282294799191178 -9.245886538081010 9 17 13
-105.413647395786754 -72.657343887066546 -8.921872372528696 8 18 14
-105.408376961528646 -72.015319147799687 -8.487566873697148 20 28 27
-105.411748891565566 -71.527919341465278 -9.156124114503541 28 33 34
-105.414317798278262 -71.027794714122578 -9.714337616970312 28 33 35
-105.418667673369285 -70.562810006709981 -10.493055167261872 23 28 30
-105.418765946165792 -70.019100877581920 -10.720322594935965 11 16 18
-105.412012302094070 -69.342271310710316 -10.065367152329259 15 21 22
-105.406167208671931 -68.679181314743630 -9.520694518821017 19 24 26
-105.406423069329861 -68.134538465639949 -9.747896168251117 22 27 29
-105.405006980181454 -67.555766276416790 -9.754531213339618 18 23 25
-105.406246642662254 -67.030529299951127 -10.091921345874624 11 16 18
-105.404082399246064 -66.434351695174641 -9.988234583165934 10 15 17
-105.408048173230938 -65.966410885319021 -10.656307429837057 19 24 26
-105.408611425138645 -65.426981884379487 -10.883308355588554 29 34 37
-105.404898557122806 -64.793848119702830 -10.559025088058178 6 11 14
-105.400378805009353 -64.139807185193646 -10.124484154195812 10 15 18
-105.402876114168933 -63.639477300787362 -10.571875136580161 19 24 27
-105.405445155547980 -63.141268686106798 -11.019209967221684 13 18 21
-105.408087170307553 -62.645179605539866 -11.466488070218702 17 22 25
-105.402969256694604 -61.968418279400822 -10.921608282251697 18 24 24
-105.406628825883232 -61.494693840935014 -11.479028265122025 9 15 15
-105.406010652849304 -60.919354059000149 -11.485246258383881 9 15 15
-105.402854752514003 -60.280564924107708 -11.160754752990869 15 21 21
-105.394546220400258 -59.511672609087391 -10.174914156847393 18 24 24
-105.394160000813386 -58.932852758623426 -10.181057006468876 19 24 25
-105.393855850168222 -58.353957699187873 -10.187161368753635 17 22 25
-105.395379573909793 -57.819419660880946 -10.413652462936710 20 25 28
-105.393501104056114 -57.195931812236736 -10.199251220274363 22 27 30
-105.394326316834778 -56.639558425360647 -10.315442356999228 14 19 22
-105.396113082259347 -56.106680156881062 -10.541790528098090 16 21 24
-105.396247043064477 -55.528188270752167 -10.547681149301411 20 29 31
-105.399961825046390 -55.043928858238978 -10.994324275420382 23 31 33
-105.400283738565065 -54.466343175686532 -11.000115652681131 26 31 34
-105.402445803277232 -53.936913931531457 -11.226248779347202 18 24 27
-105.398606985784866 -53.237679865102315 -10.680988399385598 16 24 26
-105.400098124948840 -52.683648327887710 -10.796836853375311 19 27 29
-105.400821304106998 -52.105111138228622 -10.802446060870210 20 25 29
-105.408612012340484 -51.728213454698306 -11.689469689313142 19 24 28
-105.406935175540980 -51.075164125124509 -11.364417392342034 24 29 33
-105.408847899702650 -50.523419817794277 -11.480040617907719 16 21 25
-105.407396024672224 -49.867950229483398 -11.154905612936346 10 15 19
-105.411270596263748 -49.368587012943649 -11.490768882375704 16 21 24
-105.411787282538398 -48.764398381902488 -11.385882033610102 19 24 26
-105.412423622343496 -48.159533142649934 -11.280944907673870 16 21 24
-105.413182061170446 -47.553987393047009 -11.175956374819037 6 12 13
-105.415795515825494 -47.002567665661488 -11.291241032254135 17 23 21
-105.418532511002496 -46.451553828674420 -11.406462410293301 24 30 29
-105.418805055357993 -45.817084476789411 -11.191145167935872 8 16 15
-105.424385849774012 -45.350728787947631 -11.636711308080748 7 16 15
-105.429229237008059 -44.857910152260033 -11.972043732779099 10 18 20
-105.429039398157869 -44.193933415754877 -11.646392542375025 10 20 21
-105.430711623266589 -43.586247503312059 -11.540988887066391 3 13 15
-105.434241404706583 -43.036491700679576 -11.655818049295135 2 12 13
-105.444761771120298 -42.723883346827023 -12.651732941175027 28 38 39
-105.447706738560754 -42.147202322419687 -12.656260146329913 10 20 21
-105.453358847530382 -41.660776783925130 -12.991139873961032 4 14 15
-105.460002874508731 -41.206233360236588 -13.436075777713341 17 27 28
-105.461683436098312 -40.569536410023765 -13.220107874526065 22 34 35
-105.463524688104357 -39.931548887471401 -13.004076382103733 26 37 39
-105.463835924618110 -39.229779659605313 -12.567715611141494 23 34 36
-105.468546840279799 -38.683197698174787 -12.681947052865269 13 24 26
-105.470887103310247 -38.041580017815917 -12.465714202317315 11 20 22
-105.472559515626045 -37.366581880646443 -12.139285566152381 16 26 28
-105.474412664887964 -36.689714644813087 -11.812789705623459 13 23 24
-105.483982551658556 -36.304530826473375 -12.477329704660008 12 22 22
-105.491195972941668 -35.823741333755017 -12.811404491181605 9 19 19
-105.500237103543412 -35.410705664836804 -13.365625253525963 10 19 19
-105.500304013320601 -34.632302332108637 -12.708452431135044 10 19 19
-105.509685177460725 -34.221259824358718 -13.262490005991083 14 20 22
-105.512626911850958 -33.540760772056167 -12.935510754179489 13 19 21
-105.514950584562314 -32.824077710978017 -12.498340756215697 12 17 19
-105.518307273595198 -32.139469578228130 -12.171205288354685 13 18 20
-105.528408865181817 -31.731519331731960 -12.724866382991166 10 15 18
-105.536238294264507 -31.220755669243175 -12.948096127759641 10 16 17
-105.542635304323952 -30.640062505909157 -12.951013186519702 9 15 13
-105.547621350960455 -29.987774972899899 -12.733624432316930 7 13 11
-105.554436025376390 -29.405942536848805 -12.736353408986901 5 11 9
-105.559859573305957 -28.751395086986097 -12.518778618124685 6 12 9
-105.567105740540697 -28.168395190523881 -12.521313187365649 6 12 8
-105.576951107741507 -27.695357522024750 -12.854049066560890 5 11 9
-105.587785685142137 -27.260695993435657 -13.296775571021129 5 11 9
-105.593308684990205 -26.566720270247316 -12.968700172805882 5 11 9
-105.595951315583704 -25.720372226371616 -12.200135638529161 5 11 9
-105.605888262723866 -25.210619020375052 -12.422346752746620 5 11 9
-105.618367635467180 -24.816066191405255 -12.974732418679196 6 12 8
-105.629502683155252 -24.347080147506798 -13.306809613742615 4 11 4
-105.638555125797879 -23.763281869526743 -13.308488285161900 4 11 4
-105.644805815787194 -23.023176353583253 -12.869680714687377 2 9 2
-105.654369611844885 -22.437502121589379 -12.871134066522700 2 9 2
-105.659671609765567 -21.614193622898579 -12.211919027340031 3 10 3
-105.669773165625344 -21.026049432803774 -12.213140541248862 4 10 8
-105.679392974588879 -20.397395089382325 -12.104150627659834 4 10 8
-105.695188913599324 -20.090782913219279 -12.875762212182508 4 10 8
-105.707518929051659 -19.584369113474594 -13.096794116536017 3 9 7
-105.718645302656853 -18.996763203649337 -13.097519820358997 3 9 7
-105.729325580126201 -18.367494331731422 -12.988028907922313 4 10 6
-105.737431910976312 -17.571220400015950 -12.438052890020259 5 11 7
-105.748721136327006 -16.938788481590702 -12.328303217831063 5 11 7
-105.764538758927387 -16.557670935048392 -12.878953580363316 5 11 7
-105.777794995761937 -16.009519426911492 -12.989113125861621 5 11 7
-105.789950513755443 -15.376194923301995 -12.878958210069243 4 10 6
-105.798987793174661 -14.527293762147600 -12.218219663152524 3 9 3
-105.812486682992656 -13.933600343133374 -12.217873025141785 4 10 6
-105.820909301576236 -12.991656538991359 -11.336668494685910 6 12 8
-105.832420835084335 -12.219652256086256 -10.895672504737547 6 12 8
-105.849586454037507 -11.797079576740593 -11.335245824021882 4 10 8
-105.869633268028551 -11.553457444851750 -12.215034301275864 2 8 4
-105.891832498258836 -11.447577508996272 -13.424951875120797 4 10 8
-105.905267777947543 -10.719043009928665 -13.093447000191759 3 9 7
-105.924762034322796 -10.394679576209846 -13.752613160054892 5 11 9
-105.948868777413949 -10.391242786225614 -15.182281457363047 8 14 14
-105.973118230029513 -10.394580018692972 -16.611811754507812 11 21 20
-105.991434685358286 -9.944544929610581 -16.940258317073670 14 24 23
-106.014248345292003 -9.819684655982204 -18.039218439085658 14 23 22
-106.026614317710866 -8.861368003389980 -17.156295955625751 12 19 18
-106.045299722240813 -8.366533420960998 -17.374168272928301 10 16 16
-106.060299489057385 -7.542091243611244 -16.821184408791424 10 16 16
-106.078017842852148 -6.903878086317818 -16.708418572787735 9 15 15
-106.098910289844994 -6.503038734461955 -17.145985278254642 12 18 18
-106.123391157723646 -6.391872303966336 -18.244006856093961 27 33 33
-106.147533367701499 -6.237427898240853 -19.231777043731711 21 27 27
-106.166616294617143 -5.601545446954887 -19.118334409496583 17 23 23
-106.183005474066405 -4.671094315899248 -18.344059288692620 19 25 25
-106.205013443024455 -4.227499601765668 -18.670673549776950 19 25 23
-106.227864975432283 -3.834319486854742 -19.107224195122939 17 23 19
-106.261279976449998 -4.487235549466145 -21.855989903155660 18 24 21
-106.281710024294355 -3.802992576323160 -21.631541725110992 20 26 24
-106.299805231366705 -2.814870329888668 -20.746185199381500 20 29 26
-106.324415325644622 -2.479223359103069 -21.292161222122559 22 33 29
-106.354670278173430 -2.756451912351011 -23.159434747419880 29 39 38
-106.384108888559837 -2.940337594315446 -24.806341863224532 30 40 39
-106.410692720842121 -2.771725720317102 -25.682230935068617 27 39 37
-106.439981813629259 -2.917560105132568 -27.218742375776714 30 36 35
-106.469775774651268 -3.122761451462231 -28.865260080213972 29 35 33
-105.009596415789403 -112.928054848788491 -1.051379258678708 179 184 187
-105.007159797531969 -112.326094275919260 -1.169600095997055 151 156 159
-105.000670485447088 -111.736968449774281 -0.846192073973441 132 136 139
-104.997247449099461 -111.137819077943306 -0.853996988300025 122 126 129
-104.998946782298674 -110.526035540598897 -1.413775853008275 113 117 120
-104.998631524230518 -109.921486429778327 -1.752726253845935 107 111 114
-104.996292021432524 -109.322541081278558 -1.870869594242265 102 106 109
-104.990892869068091 -108.729281603019245 -1.657841478223418 92 95 100
-104.986529594695114 -108.133498173269203 -1.555202666945235 81 84 89
-104.986293157824093 -107.532497697550340 -1.894078832108590 78 81 86
-104.987110190723740 -106.932233205188780 -2.343302330018730 67 70 74
-104.987953005439735 -106.334145414312871 -2.792491088114389 59 60 62
-104.983654390128379 -105.740004963943534 -2.689804432150652 55 56 58
-104.980401030752006 -105.145241093414441 -2.697483031427794 57 58 60
-104.974051820765865 -104.549911757234256 -2.374071840885563 53 54 56
-104.972895976338890 -103.955258775868359 -2.602463624603672 52 53 55
-104.972798291147143 -103.362426919573323 -2.941189327736026 57 59 58
-104.972722281147114 -102.771226700213660 -3.279887866272247 61 63 62
-104.968498984884548 -102.176553717075180 -3.177170659561028 57 59 58
-104.966372902299227 -101.584433711251421 -3.295141643778209 56 58 57
-104.965307608970051 -100.994677198443384 -3.523439706350899 55 57 56
-104.966353976750440 -100.410190164004874 -3.972391085939876 61 63 62
-104.963232729221474 -99.818425519483242 -3.979975610822066 60 64 63
-104.963272605396384 -99.234564377554705 -4.318543164998601 59 63 62
-104.958079857375367 -98.637801854049883 -4.105452364453868 54 58 57
-104.952894554615654 -98.039951879219046 -3.892369195804406 49 53 52
-104.947716884850493 -97.441014180291148 -3.679293572047072 49 53 52
-104.948877403924158 -96.863316562205881 -4.128120455175349 70 72 71
-104.950062769216458 -96.287791091056420 -4.576913092958222 51 55 54
-104.949157444453689 -95.705907977353348 -4.805053582264804 59 63 64
-104.945094074506585 -95.111500246030189 -4.702257136982269 67 71 72
-104.941042317559535 -94.516546739480916 -4.599460754018907 20 25 27
-104.935940521570657 -93.915967265869483 -4.386365732118634 11 16 19
-104.932974961051997 -93.325001112020260 -4.393867557603130 30 35 38
-104.935348255723511 -92.762148064953635 -4.952820335336213 11 16 19
-104.939882889677591 -92.213798442729740 -5.732307614568015 5 11 11
-104.944452434531200 -91.669248758878211 -6.511739077870658 22 28 26
-104.947988438894981 -91.122060247645734 -7.180833261256311 30 36 34
-104.946207026771958 -90.544576811010998 -7.298488694746339 24 28 28
-104.943374214156336 -89.960649766051020 -7.305854557005119 32 36 37
-104.936268522901557 -89.347702752268205 -6.872127727194226 31 36 39
-104.936688594362607 -88.785253138599046 -7.210292997632507 30 35 39
-104.936060080525934 -88.216630355002465 -7.438164566301623 29 37 41
-104.934379624320485 -87.641018762355898 -7.555752434996208 37 44 49
-104.927332641926071 -87.024240621509421 -7.122036954783226 32 41 42
-104.926770756195836 -86.456954148842073 -7.349862893474977 16 25 24
-104.931636972033075 -85.935166144362867 -8.128918132995665 3 7 8
-104.938705798496656 -85.435485053755400 -9.128409863413509 33 32 32
-104.940405350037153 -84.893548426300100 -9.576610769415993 100 93 93
-104.937801754888014 -84.314978698664078 -9.583811829265983 141 132 132
-104.935222111689129 -83.736398235069885 -9.591001541095721 170 160 160
-104.935926559236918 -83.188534740623510 -9.928880624736252 183 164 167
-104.933400701896232 -82.610746172496093 -9.936036454217913 185 153 160
-104.931989947761920 -82.043731217810688 -10.053406808852998 178 135 145
-104.929518652268555 -81.466188275348443 -10.060534007785549 156 106 119
-104.927075321762189 -80.888631153425834 -10.067647974320494 140 91 103
-104.924660840615658 -80.311059077010384 -10.074748293354673 135 86 98
-104.923369510526328 -79.745344756444055 -10.192048127855657 146 98 109
-104.924300088484827 -79.204448127426218 -10.529747318037096 145 98 109
-104.920886481262372 -78.615496378582478 -10.426583867325803 138 91 102
-104.919696628795066 -78.051360610387562 -10.543818906447655 106 54 66
-104.917444752930621 -77.474788443845597 -10.550831143097611 89 43 51
-104.917425031577636 -76.924661409701372 -10.778221081488766 89 55 59
-104.913045845471160 -76.321582491672913 -10.564806093534685 100 72 74
-104.905396849030012 -75.676064685709250 -10.020815561668286 61 46 47
-104.893368494804449 -74.971611655465495 -9.036091209742835 10 8 5
-104.892389495634433 -74.405441834851146 -9.153246314893437 6 6 6
-104.893660253192508 -73.868974273801541 -9.490737173698903 7 11 10
-104.888350070745304 -73.244927379246320 -9.167124520198342 5 13 10
-104.881971451749394 -72.604084925860974 -8.733337003284333 0 10 6
-104.878949087771858 -72.007261169547988 -8.630067413673146 4 15 11
-104.887043929508877 -71.566661040601375 -9.628460151882962 16 26 26
-104.889659605120826 -71.051165361218935 -10.075950617308592 16 24 27
-104.886784350162458 -70.456693334142670 -9.972586443716409 15 23 26
-104.885066246556008 -69.878138411271621 -9.979363735054704 12 20 23
-104.884509058872680 -69.316315143427573 -10.096272305784765 18 26 29
-104.882893626376131 -68.737958431119750 -10.102998439335096 24 32 35
-104.875770507392588 -68.073002948101404 -9.558956411270088 26 32 32
-104.868694711519026 -67.405285886187556 -9.014920170310376 19 25 25
-104.872803373006533 -66.913366181023534 -9.572312601984919 14 20 20
-104.880318738133312 -66.478507926994681 -10.460064570895298 18 24 24
-104.882329020722864 -65.955956188745688 -10.797058400905826 23 27 28
-104.879941466003984 -65.360299786009207 -10.693473104564475 25 30 31
-104.875382462543371 -64.726160253700300 -10.369604978202034 21 26 29
-104.873116513074478 -64.128769991264519 -10.265979353814856 24 29 32
-104.874265570514353 -63.589249384102835 -10.492700975156566 24 29 32
-104.877718128183872 -63.090285312067294 -10.939620910935218 21 26 29
-104.877888483625654 -62.533341185977243 -11.056131204070851 23 28 31
-104.869182271123563 -61.814434391628019 -10.291684100628117 23 29 29
-104.869492070513488 -61.256280153557675 -10.408140140547431 22 28 28
-104.876590398157163 -60.823711192308039 -11.185209168999194 27 33 33
-104.875932056770992 -60.247027981032083 -11.191460207256142 27 33 33
-104.867512262812781 -59.520507678632079 -10.426954451826845 22 28 28
-104.862527076496960 -58.855106392572402 -9.992753117896996 20 26 27
-104.858740623309529 -58.209392439688216 -9.668634547457401 21 26 29
-104.860636835361532 -57.673032862133695 -9.894966194528052 22 27 30
-104.858136028545502 -57.047742479627907 -9.680881230121884 19 24 27
-104.859082318647168 -56.489555456398399 -9.797033112540561 20 25 28
-104.861237143990351 -55.954860906380944 -10.023223900934227 22 27 30
-104.861240695402770 -55.374563401047610 -10.029195495689549 17 27 28
-104.864697375221269 -54.864905799484774 -10.365364648397190 17 25 27
-104.863765553077201 -54.261396211665151 -10.261163771361026 15 20 23
-104.866290289705248 -53.729612026481576 -10.487147637616715 13 19 22
-104.863311427470833 -53.076847170050591 -10.162715296925683 13 21 23
-104.866032730339768 -52.545682748994786 -10.388598747022030 13 23 24
-104.869974235597226 -52.040446774888117 -10.724490446868884 15 20 23
-104.877375301907108 -51.612382916384135 -11.390509387974191 14 19 22
-104.875926447275944 -50.983590918669577 -11.175957217133003 16 21 24
-104.875705265789719 -50.379352982457412 -11.071423869297860 16 21 24
-104.875594809408497 -49.774451789100475 -10.966844378191070 23 28 31
-104.881184738186718 -49.300415536327407 -11.412485208391274 30 33 38
-104.883533646861281 -48.748702627017416 -11.527899441585504 30 33 39
-104.882648850540463 -48.116849964658961 -11.313108932140835 24 27 34
-104.879654232058229 -47.429519726471220 -10.878181043102870 18 21 27
-104.880130922549071 -46.822066465430474 -10.773346932659763 23 27 30
-104.888530623995408 -46.407641325974382 -11.438747739952163 21 25 26
-104.892593275348858 -45.884568222051485 -11.663906205539291 1 7 5
-104.901228863874010 -45.475326279490716 -12.329140812012270 14 20 18
-104.902204275477629 -44.869757237092315 -12.224048719889225 16 22 22
-104.902203820215689 -44.234717936167911 -12.008867946384782 14 23 22
-104.901233476826945 -43.569382221522588 -11.683604135321303 9 18 18
-104.907054630997550 -43.078136965657578 -12.018452604079783 0 7 9
-104.916328094685937 -42.677139275762144 -12.683297191026952 26 34 36
-104.920201614745892 -42.129937259971129 -12.797935622467264 16 24 26
-104.925320714252393 -41.613246397774233 -13.022522991258910 7 15 17
-104.932785850356993 -41.158298202555180 -13.467070245736465 8 16 18
-104.934883535207504 -40.551923358744432 -13.361449556457615 21 31 33
-104.937136147559286 -39.944810055397049 -13.255762351728265 26 37 39
-104.940644220051794 -39.368189559082211 -13.260019546310389 26 37 39
-104.950885008365617 -38.980436160963890 -13.924265038323824 15 26 28
-104.956887473671287 -38.468631930151375 -14.148379507393372 9 20 22
-104.953214763072580 -37.669171258396354 -13.382353575420382 13 24 26
-104.948644319275701 -36.833310991541076 -12.506272910329727 14 26 26
-104.951892078533589 -36.221104821440804 -12.400162054167481 12 22 23
-104.962917898241045 -35.838323676771537 -13.063980807950486 10 20 21
-104.976259231614989 -35.524936452561342 -13.947695291289449 9 19 20
-104.978925703129292 -34.881351494925767 -13.731326633894213 9 17 19
-104.983939163404457 -34.303846826701417 -13.734872757346722 11 18 18
-104.985905092835139 -33.624130380668817 -13.408352271523540 9 15 15
-104.991293911916657 -33.045296195660548 -13.411732509993868 8 14 14
-104.989371544787701 -32.224424757313571 -12.645089611481069 6 12 12
-104.995159859116839 -31.643131302435673 -12.648304047294516 7 13 13
-105.004340986657127 -31.166839129065110 -12.981391196720040 8 14 14
-105.010514397792392 -30.585820469257204 -12.984418574937735 9 15 13
-105.013709675297648 -29.897582290314784 -12.657397691687379 7 13 13
-105.019241735781620 -29.279233762394693 -12.550257260023130 6 11 14
-105.027095332799405 -28.732427075258343 -12.662987566973015 6 12 12
-105.038304227887252 -28.295290513824600 -13.105560475891139 6 12 11
-105.045513456002340 -27.713050046239307 -13.108104899497391 5 11 7
-105.058156271869478 -27.315632426922768 -13.660441863525961 6 12 8
-105.062667234566973 -26.622212757482462 -13.332844896674032 8 14 10
-105.069496152890579 -26.001961079370076 -13.225103642745609 8 14 10
-105.076560405677057 -25.380812204768684 -13.117259040910994 7 13 9
-105.085919796800923 -24.835035719787353 -13.229258376733583 6 12 9
-105.095505896617496 -24.289457643852892 -13.341147213570707 6 12 10
-105.108381124043802 -23.860155422158677 -13.782842312015248 4 10 8
-105.118417444629429 -23.315787116920966 -13.894503312002144 2 8 6
-105.128689906444890 -22.771595550034998 -14.006049523577502 3 9 7
-105.131150101289833 -21.911329933343545 -13.237715526506150 2 8 6
-105.138936713584101 -21.245810107644751 -13.019123197928252 0 9 4
-105.150987317885054 -20.739121156512034 -13.240291603890341 0 8 3
-105.161294892791403 -20.152398884495092 -13.241399922476376 0 8 3
-105.171866916473419 -19.565253056242923 -13.242386089551701 1 9 5
-105.179761517121250 -18.854894639812940 -12.913344760934535 2 10 6
-105.191866720526946 -18.307241791414111 -13.024049823924599 3 9 5
-105.199381709212574 -17.552264386358754 -12.584790501113048 3 9 4
-105.213981409986474 -17.086952892684547 -12.915172394024637 4 10 6
-105.231712176176799 -16.748996234566100 -13.575322123434887 4 10 6
-105.243937171906992 -16.159959107764667 -13.575536982434386 3 9 5
-105.253610029546991 -15.442605793692117 -13.245716943762829 3 9 5
-105.259847892129415 -14.551504732737152 -12.475893128112830 2 9 2
-105.270217932649956 -13.828641755900250 -12.145796273267649 4 11 4
-105.280003681508333 -13.060113507391172 -11.705590112211979 6 12 8
-105.290153406965103 -12.288796950234156 -11.265238527460923 5 11 9
-105.310751441633911 -11.998875239083082 -12.034381002539874 3 9 7
-105.332484843616257 -11.756652617933316 -12.913348216012878 2 8 4
-105.357138677579272 -11.652138204342448 -14.122077459839090 4 10 8
-105.374802427991071 -11.194346484128246 -14.450916117100775 3 9 7
-105.394529815143500 -10.827970807887716 -14.999544316196108 4 10 8
-105.406594953879249 -10.054939667320063 -14.558294053366211 9 15 15
-105.438261831394470 -10.284807419546240 -16.536238512027126 11 21 20
-105.465668546406107 -10.294283055590267 -17.964195199992162 15 25 24
-105.482931689773466 -9.755103954680779 -18.072345497644790 14 23 22
-105.503924066659167 -9.402144557917778 -18.620230429483343 11 18 18
-105.518464100003584 -8.676548213421452 -18.288166800291179 10 16 16
-105.538406409736780 -8.231430606515705 -18.615784941568535 12 18 19
-105.548781112317087 -7.218238777723798 -17.623521047608989 12 17 19
-105.571087726770003 -6.867196513099334 -18.170757518696036 13 19 20
-105.587236433234821 -6.134328556414260 -17.837999156154382 22 28 29
-105.609395045433288 -5.737033920562432 -18.274923644984398 23 29 29
-105.632651969434789 -5.389886758954123 -18.821665396988749 19 25 25
-105.653095233049555 -4.849437239401699 -18.928307413072815 18 24 24
-105.673914884799686 -4.308816319965541 -19.034771130668219 21 27 25
-105.700418509685221 -4.114066953912760 -19.910967619792046 22 28 24
-105.734639385584657 -4.420411543721020 -21.886903039872408 18 24 21
-105.753421659896631 -3.686075652216212 -21.552899897690367 23 29 27
-105.774859701583537 -3.100119666960797 -21.548675551346065 21 30 28
-105.797432961041139 -2.563946331230567 -21.654254567811677 21 31 30
-105.828864551165552 -2.638128514298574 -23.079619712324529 30 40 39
-105.861822617980152 -2.821372905601942 -24.724849733364579 33 43 44
-105.889417157562306 -2.600776120476904 -25.489931508185578 28 40 40
-105.913264664873736 -2.072859966044604 -25.594815933530555 31 42 38
-105.945431332271625 -2.169233714777385 -27.019600990661957 28 38 32
-104.487889720887381 -112.271728480063032 -3.414036663771270 180 185 188
-104.451637708292964 -111.758220719984536 -0.554334287741284 175 179 182
-104.452029637900367 -111.149322738008863 -0.892991137534523 149 153 156
-104.447375782153941 -110.552182147484359 -0.790505309326960 121 125 128
-104.446539670364217 -109.947726084895208 -1.018845042087065 117 118 122
-104.445723386001816 -109.344361073044496 -1.247164058740481 105 106 110
-104.446198495883266 -108.740371366367953 -1.585730592032377 98 99 103
-104.442875388214730 -108.142346720260846 -1.593476123454508 91 92 96
-104.443389908460574 -107.540809332606798 -1.931998560011522 87 88 93
-104.440096575957327 -106.943606218615841 -1.939721390653887 78 79 84
-104.441927281771711 -106.343891422509415 -2.388454292616473 79 80 84
-104.434825922380639 -105.748851259204727 -2.065399951169724 75 76 80
-104.432851178028713 -105.151842314106318 -2.183348860002724 70 71 75
-104.425761542644338 -104.554632943114029 -1.860311238575861 69 70 74
-104.427661686564704 -103.959002426033209 -2.308968880050799 71 72 76
-104.427014396792401 -103.364087352149383 -2.537120070815206 58 59 61
-104.426384343451758 -102.770260435474242 -2.765251814781067 61 62 64
-104.419330225444114 -102.171155138993726 -2.442216717676331 58 59 61
-104.420016861616887 -101.579690322358886 -2.780553132530343 55 56 58
-104.419432337780890 -100.988039712060555 -3.008640693522352 58 59 61
-104.424035209172303 -100.405829725156877 -3.677584985021298 65 66 68
-104.422196582904135 -99.815080098571471 -3.795404345119749 62 64 63
-104.421667659819931 -99.227505594568868 -4.023423349492930 58 60 59
-104.415968453322847 -98.629403910114490 -3.810588621603529 50 52 51
-104.410275179417354 -98.030214970778530 -3.597762247243310 53 55 54
-104.408487127357603 -97.440278995744265 -3.715549037489694 69 71 70
-104.409316071194780 -96.858322479452866 -4.053719499132796 61 65 66
-104.408863073690114 -96.274004706213063 -4.281668657803266 63 67 68
-104.407124119848419 -95.686510328424319 -4.399406827043350 70 74 76
-104.402789951909369 -95.090490378464182 -4.296756525968306 42 47 50
-104.401079264526444 -94.503535616874160 -4.414475618090819 24 29 33
-104.395460323491164 -93.901890914899468 -4.201638961538833 27 32 36
-104.388539958502932 -93.293808083881373 -3.878632287720990 21 27 33
-104.390800908907252 -92.723434984883752 -4.326857333318173 9 16 19
-104.403584342965374 -92.202369179152711 -5.656411993427781 28 35 37
-104.409847310955158 -91.657001619161761 -6.435041747716554 46 53 54
-104.412199526423478 -91.096127465021041 -6.883125355008673 54 61 60
-104.405364412769075 -90.490472063034218 -6.560052910498513 18 24 26
-104.401172223562327 -89.897139658721670 -6.457307023027113 21 26 29
-104.396993748003894 -89.303258797349557 -6.354560220537394 24 29 34
-104.399430429172440 -88.746440956478452 -6.802561666057869 24 31 38
-104.403216518958203 -88.199585095117143 -7.360673900382153 25 32 40
-104.397774088896270 -87.598979408507333 -7.147742106478404 29 36 45
-104.392345040375787 -86.997280066978561 -6.934815168430561 28 38 40
-104.381628599057123 -86.360049472182297 -6.281347902331106 18 32 33
-104.388162993336195 -85.835003410256959 -7.059638627825251 14 28 28
-104.393407764937933 -85.304600603141097 -7.727742559136516 14 24 23
-104.402676258812875 -84.805723292693372 -8.726173702491621 19 27 26
-104.400015433452083 -84.224461970052687 -8.733429847018243 17 23 23
-104.401372021073328 -83.673094643899077 -9.071033015782916 26 32 32
-104.402759227535782 -83.123347294950094 -9.408604861359748 26 32 32
-104.402843675291223 -82.564707838818507 -9.636032588242273 35 39 39
-104.402957737541598 -82.007143616005294 -9.863435079735268 91 85 89
-104.400429272415082 -81.428543919450988 -9.870600506125101 134 122 128
-104.395252012682789 -80.827277403711477 -9.657548657890771 169 142 153
-104.391436236064166 -80.236508371381305 -9.554596309851917 162 134 145
-104.394346131775933 -79.704532871161703 -10.002115656464895 154 124 137
-104.395953255798801 -79.162574003173575 -10.339502123487506 143 109 122
-104.394912834345092 -78.597401625299938 -10.456676345668853 138 103 117
-104.392562376187328 -78.020069849683551 -10.463743562787812 122 85 98
-104.387555167865756 -77.416804720779297 -10.250630935270863 106 75 85
-104.383922186755910 -76.825662649546459 -10.147594978363941 115 101 104
-104.373588578111026 -76.166450425889025 -9.494170834374103 73 68 70
-104.370015544768577 -75.572820607028959 -9.391131806296869 15 14 17
-104.362431090215907 -74.936489913404330 -8.957874715170192 26 28 32
-104.362973785381953 -74.383862189974309 -9.185021336277515 36 41 45
-104.362208635935673 -73.817708827053721 -9.302073967045914 37 42 45
