ply
format ascii 1.0
element vertex 682
property double x
property double y
property double z
property uchar red
property uchar green
property uchar blue
end_header
52.932915007806287 -1.381356228979698 -85.186286836923472 145 142 125
51.072636507448848 -2.000242713752304 -87.061437592375682 146 143 124
50.712352460111603 -1.651469974463495 -87.446963456696182 145 142 125
50.502286555903865 -1.206234616067650 -87.683628334141247 145 142 125
47.441756799983054 -2.647648123871754 -90.749858477926438 143 140 123
45.656331394717910 -3.263239107444990 -92.549993734824710 143 140 125
46.196843036389254 -2.336027624239572 -92.042104710625864 144 141 123
46.212449956418894 -1.757499896343501 -92.055526084202626 142 139 120
45.778044231030705 -1.482832511232470 -92.515688473093917 139 136 117
200.292862860071637 -2.833719476884892 62.391595761267808 187 186 181
196.999754983909526 -2.826808711061141 59.089145208909599 187 184 179
194.681072759052853 -2.513087219046053 56.758540112051378 176 171 167
190.338534990417571 -2.910217807669546 52.410267834855318 173 168 164
184.196917960681446 -3.962260531916220 46.268797010962373 173 170 165
181.878189284097402 -3.720049119732943 43.938950225626655 172 169 160
179.784365257342074 -3.415043819310567 41.833440112446226 174 171 162
177.540641250130705 -3.178760710825554 39.578631258305620 172 169 162
175.446869463947451 -2.904568290190376 37.473413325865351 174 171 164
172.828362332775555 -2.836858453144081 34.845340218342983 173 170 165
171.334380694481069 -2.373960885182482 33.338113377546279 171 168 163
168.041191637139406 -2.590948064927272 30.038006356016410 169 164 158
164.822956263987066 -2.803599091326587 26.812855999605915 165 161 152
162.579345073340278 -2.670019641162136 24.559050354756494 164 160 151
160.260784867426224 -2.581335768463467 22.230703309719217 166 162 153
158.242148061081565 -2.393526325620436 20.201289128771265 167 163 152
155.698706940860063 -2.424950505872757 17.649184020076120 162 161 147
153.080299053427922 -2.504252091466074 15.022576697114175 156 157 144
151.061742432865685 -2.364202580754844 12.993615772536771 152 152 140
148.293399650925153 -2.539251737937653 10.218004597186678 147 147 135
146.349879804002057 -2.400702027721263 8.264020660425246 149 149 139
145.081270307197371 -2.000770746881569 6.982201358037202 148 148 138
142.687919143046912 -2.073002334320468 4.580431549805951 150 148 136
139.919636949283102 -2.318211885783670 1.805513585463757 151 149 137
138.051248231265106 -2.206426349732398 -0.073278443827661 150 148 136
136.482875532620881 -1.981341169703251 -1.653327818888982 151 149 137
134.914561341435729 -1.767523832385985 -3.233289198152733 149 147 135
132.746325911887851 -1.822825555585080 -5.410351215021706 146 144 131
130.728115133164863 -1.828738307369092 -7.437975126256617 146 144 131
128.784939366067732 -1.816402037923703 -9.390824491277328 147 143 131
126.166764449804049 -2.115489254709200 -12.015280902935046 148 145 130
124.673679438854549 -1.933633934841387 -13.520043778137051 149 144 129
122.430571599458048 -2.098428003767891 -15.771018915977237 145 141 127
120.637545494995251 -2.076174766888210 -17.574083675418990 142 140 125
119.144616426888049 -1.930242849761705 -19.078551375511438 142 140 125
118.326892637310493 -1.485291473253621 -19.911382959668089 144 142 127
116.909130081908572 -1.323606437832169 -21.341113331629344 144 142 127
114.816247375455774 -1.486693723713129 -23.442255457075532 144 142 127
113.248550644460778 -1.418213612209447 -25.021016198101279 143 140 125
111.005674599627213 -1.680509286986883 -27.271098592656244 144 141 126
109.137950809029221 -1.780059898105187 -29.148033331817231 142 139 124
106.745037399425911 -2.145384960438224 -31.546995601948737 139 136 121
105.852809673611858 -1.801448053680728 -32.454003850625980 144 141 126
103.985199077323188 -1.939592544028778 -34.330595475369705 145 142 127
102.342739814608166 -1.980529270128430 -35.983322679929842 147 141 125
99.874846243809856 -2.441837324433489 -38.456285581722511 145 139 125
98.157397296537852 -2.546735805340805 -40.183338472680333 140 137 122
96.965335421269685 -2.400089931124517 -41.388311815977630 138 136 121
95.998514613840612 -2.148014912822684 -42.369548294449089 142 140 127
93.755832848869105 -2.552878238208020 -44.618256111376638 143 139 123
92.113617237096975 -2.665759027254324 -46.270359321331171 145 139 124
90.471440211417075 -2.790398346476234 -47.922359954281916 145 142 126
89.805171437745543 -2.418949811008682 -48.605172727395228 145 142 127
88.838749715859279 -2.209476762281344 -49.586161603548192 145 143 128
87.647206329871850 -2.125656315382215 -50.790736296655979 143 141 126
85.629882959925425 -2.489072888060537 -52.815104774784857 145 140 126
84.663700749462308 -2.304691362951587 -53.795949952724158 143 140 125
83.697619425258537 -2.127109802785509 -54.776773398848945 144 141 126
82.881818945445772 -1.874894893696148 -55.608541154522925 145 142 126
80.639350860457711 -2.407184660637885 -57.856039530845550 144 141 125
78.246646289388579 -3.038164538344063 -60.252367190147822 144 141 124
77.205723227093074 -2.938662261596045 -61.307441780938177 144 141 124
77.066170883841863 -2.344689302793263 -61.468512250164480 144 141 124
75.725036056120274 -2.424922590543384 -62.821551992639911 142 139 122
74.759533911926226 -2.302847856448944 -63.802081156851131 140 137 120
73.418529346445752 -2.400779542838898 -65.155001037828043 140 137 120
72.828826386939724 -2.079022609938634 -65.763072248443905 142 139 122
71.638231423747712 -2.106863839589233 -66.966951274035353 139 136 119
70.222301681720211 -2.273561775597840 -68.394178246742229 137 134 117
68.505851615212634 -2.625362394150189 -70.119167511098112 137 134 117
67.390554716946781 -2.637224629318042 -71.248374467746999 136 133 116
66.275332863538139 -2.656957497410337 -72.377536309219778 137 134 119
65.986891747126108 -2.194114091383176 -72.687746887194322 140 137 120
65.698641912418466 -1.733024478390104 -72.998030921007910 143 140 123
64.734091578135605 -1.679957726095604 -73.978305093994805 142 139 122
63.619293440880909 -1.724478238886856 -75.107414488144144 143 140 121
62.730099233937509 -1.639760728185375 -76.013205686386840 141 138 119
61.164362945963873 -1.975025556316406 -77.588748347146463 144 141 122
59.598625673284815 -2.321493513733163 -79.164175217388731 145 142 123
58.408859108158140 -2.446489197699949 -80.367450486170668 146 143 124
58.347163129672552 -1.877672544307485 -80.454649342022066 145 142 123
56.931973399784752 -2.156588107735955 -81.881075221587679 145 142 123
56.795430697897160 -1.640223410202671 -82.042786632105845 144 141 124
55.681255882778842 -1.743941315062567 -83.171584872933863 147 144 127
54.191009206168530 -2.095185471916198 -84.672218136834687 147 144 127
52.324588227051308 -2.698166458072348 -86.544594074790353 145 142 125
51.285732755096902 -2.781148347378512 -87.598779392519418 145 142 125
51.827140521394398 -1.847073400554572 -87.091389720348957 145 142 123
51.390606128134522 -1.546243102273542 -87.550803069835297 146 143 126
50.126377819575779 -1.790946854576069 -88.828082765429741 145 142 125
49.087980623920586 -1.895752205404548 -89.882262681116885 144 141 124
46.769949404022853 -2.856247207395018 -92.200063066031760 144 141 126
47.011383162896450 -2.127206622347320 -91.990491874930257 144 141 122
45.973179496001222 -2.253855575289413 -93.044539526942970 143 140 121
45.462135017639156 -2.032497226456343 -93.578348347337169 141 138 119
210.762506427115966 -2.006830100117457 71.342662077959631 153 152 150
199.868788735717942 -3.319030368343048 60.493148104070286 187 186 181
196.264217004242880 -3.417688004738235 56.897351921400144 189 186 181
194.464465170373956 -2.931994457430755 55.092734303924772 179 174 170
192.890357835565169 -2.382165567677692 53.512085609006363 167 162 158
185.976772196341187 -3.687907982748587 46.633944530966232 171 168 163
184.101836465716673 -3.285030104105416 44.755288210350017 173 170 162
182.527764409899930 -2.789587020792284 43.175182458509539 174 171 162
178.622271823742551 -3.135964537227683 39.282460146736213 175 172 165
175.017580052369510 -3.402266768269417 35.688447040771905 175 172 165
173.142723670262399 -3.065897473913124 33.810437366366045 174 171 166
170.365349480909003 -3.074283794037305 31.037431241059153 172 169 164
168.264908275473232 -2.851791445537905 28.935936110742801 170 165 159
165.111472905481037 -3.038498242399928 25.790377482868848 166 162 153
162.935852884626826 -2.878465035566816 23.614631678558737 163 159 150
161.061137098438735 -2.619318609786436 21.737349637326872 166 162 153
158.584695471009439 -2.605363282511986 19.263583971787767 166 162 151
156.785271110853188 -2.346108336347831 17.461140538285264 161 161 148
154.083201282335494 -2.453876907758879 14.763990941234653 160 161 147
151.682039159462846 -2.461977059754571 12.365297731800524 156 156 144
148.754300079116263 -2.697714619025863 9.444848125612083 146 146 134
147.180684649615898 -2.408698834220560 7.866648785190790 147 147 137
145.155737593406087 -2.314542826232110 5.841217428001016 149 149 139
142.905125353238674 -2.327536681526013 3.592269813909894 151 149 137
140.127889154302977 -2.574689436097394 0.821655417315895 152 150 138
138.704918566729134 -2.276397098145363 -0.606989617496509 150 148 136
137.056296271305087 -2.083340739843870 -2.259177056699542 149 147 135
135.106762906310252 -2.029925118569089 -4.209407819082912 148 146 134
133.307754299284653 -1.926037042014851 -6.010450878219530 146 144 132
131.433546070594730 -1.867546017792189 -7.885910286369949 147 145 132
129.484131413339696 -1.855266828556758 -9.835774400169015 149 145 133
127.008002216619133 -2.088298781815267 -12.307147167333994 147 143 131
125.811168594950317 -1.772685396795616 -13.511576990980103 148 142 128
124.012378514072736 -1.734335248791924 -15.312049977454876 144 139 124
122.589919055962824 -1.539539771344147 -16.739874189673230 140 138 123
121.017008679161123 -1.423172153473961 -18.316633670575641 142 140 125
118.992583458046170 -1.524511515825864 -20.340302339830714 144 142 127
116.968185767465883 -1.640363533470933 -22.363834793547738 144 142 127
114.718011976685446 -1.875598757235572 -24.610704518272627 144 142 127
112.618387300125406 -2.056522053182692 -26.708437713317380 145 142 127
110.744599200629523 -2.145989973169077 -28.582575094093244 146 143 128
109.548325568826328 -1.926879839866381 -29.786279458522557 144 141 126
107.599349517072710 -2.076766388678862 -31.734684146283257 143 140 125
106.704339861663186 -1.732076710632365 -32.640369278030732 144 141 126
105.433015035224344 -1.576672000480189 -33.918372541197442 146 143 128
103.258317142012061 -1.872751533219057 -36.089864490650854 146 142 125
101.234203465903931 -2.110138467401294 -38.112281795968102 142 139 124
99.737160144787978 -2.100095419100090 -39.613382479132099 138 135 120
97.261310541973913 -2.590726802009152 -42.082237402727344 139 136 121
95.689035918208276 -2.643545293267876 -43.657559508089946 140 137 124
94.342720137173075 -2.592852610171903 -45.009468387048429 142 137 122
93.222393243252711 -2.436178326521143 -46.138003842071271 143 139 122
91.047801607946781 -2.830480902745308 -48.308535565813258 144 141 124
91.132631046098069 -2.068445539747933 -48.246102806138396 145 142 125
89.786619590964861 -2.052978329830440 -49.597794680074088 145 144 126
88.666638977392481 -1.928223682118639 -50.726167229580653 143 142 124
87.320768257409711 -1.931039771508964 -52.077738231545368 146 140 126
85.673642271468751 -2.104063675579603 -53.726873252032703 142 139 124
84.553882860678641 -2.005762192504696 -54.855079328479519 144 141 126
83.208195884125573 -2.037500990319163 -56.206440516703879 146 143 128
81.184491812876530 -2.447699393414937 -58.227274940319091 144 142 127
79.160770637405932 -2.872404633682266 -60.247951855170726 144 141 122
77.589132092882537 -3.062368058909348 -61.822166556961491 144 141 122
77.373911652315712 -2.510809976144026 -62.057459955094515 144 141 122
76.782082916362683 -2.170981967439849 -62.664700216206029 143 140 121
76.190399852961818 -1.835168600461561 -63.271968841843119 140 137 118
74.769807423884231 -1.972479655233491 -64.697267694978819 139 136 117
73.500005072615949 -2.034033120191694 -65.973766045561689 140 137 118
71.702614494744807 -2.406971366727345 -67.770674951419096 141 138 119
69.226763191673783 -3.184065787410415 -70.236580353662760 139 136 117
68.409352864696359 -3.016410794727523 -71.066707546272426 136 133 114
67.667452304838321 -2.810378832785018 -71.822494501149237 135 132 114
66.925678645020099 -2.609442726556595 -72.578289710367244 137 134 117
66.485649367252293 -2.235248177703024 -73.036786294170639 140 137 120
65.970381987202146 -1.908781747406656 -73.569656823156464 143 140 123
64.324047426704311 -2.262882149462706 -75.217306547504165 142 139 122
63.507336694453315 -2.129098127430438 -76.047419772916669 142 139 122
62.992450001057733 -1.818142740350040 -76.580312758133232 143 140 124
62.025131624875229 -1.786461755382425 -77.559042574916987 143 140 123
60.454397479262951 -2.131589922750808 -79.132092749407889 146 143 126
59.864440312812988 -1.882930143453494 -79.739289922570208 147 144 127
58.972832591783970 -1.825481962273960 -80.643645807039462 145 142 123
58.458615281810566 -1.538720528961298 -81.176609982470552 145 142 123
57.189927581414196 -1.729104599416821 -82.452315460068547 145 142 124
55.619395666200973 -2.119090403080785 -84.025000638704228 144 141 123
54.199799378847459 -2.424415716916681 -85.449046587454518 148 145 127
52.100852488465918 -3.173812021431341 -87.541252454830300 145 142 125
51.889054225358166 -2.725859565080564 -87.777116546169879 145 142 125
51.752977491275658 -2.230227311483560 -87.938837464628335 143 140 121
51.617141415203349 -1.735123893598741 -88.100668069482282 144 141 124
50.499886529042541 -1.882029470257880 -89.227548262479729 145 142 125
49.835804230125646 -1.739014833953795 -89.909055652741614 145 142 125
47.887895135654162 -2.448931275205809 -91.852206100191154 145 142 126
46.317541828048505 -2.921951007837555 -93.424122014150498 142 139 121
45.502571603734310 -2.901455565875292 -94.253901756328048 142 139 120
44.461054583672507 -3.038825071617082 -95.306253959507586 141 138 119
212.547283419844689 -2.927330195597170 71.606894901448754 130 130 128
212.476960203520719 -1.800597265983709 71.518080374103363 150 149 147
207.955581165960609 -2.126596583412214 67.032915187195670 178 177 175
202.906034985318570 -2.659331489058846 62.026539189954207 187 186 181
198.082750518216614 -3.152929379614147 57.244094162319698 190 187 182
194.391101229338233 -3.299796686905703 53.579592946075024 183 178 174
192.585627778222090 -2.830703446205946 51.777883405973796 171 166 162
186.479563438571461 -3.854993680754466 45.729977511610798 172 169 164
186.032203517119171 -2.954930156756888 45.269574849083625 173 170 161
182.642289039904881 -3.092153729167744 41.904061005073345 175 172 163
178.875085019902258 -3.387682880267504 38.166376279337584 174 171 164
176.088763719077122 -3.358530820054724 35.397264020084179 175 172 165
173.076074031394853 -3.431388141428805 32.404919000225732 174 171 166
171.270709202279932 -3.084252528456418 30.604412866859974 172 169 164
169.163546853764075 -2.861559449320608 28.506131042133688 171 166 160
166.150877874696846 -2.991735091336132 25.514366121613335 167 163 154
163.666441761143972 -2.944623634387629 23.044083698133960 163 159 150
161.332949067942138 -2.857962206494984 20.722901121871274 166 162 153
158.848544398102746 -2.845963259609694 18.252965086532242 167 163 152
156.892429835642361 -2.647153490359631 16.304386131453072 162 162 148
154.181655242210979 -2.757413408394317 13.611426508782102 160 161 147
152.301070673155266 -2.559571185389691 11.737583108113284 156 156 144
149.741267189627592 -2.645639838940891 9.193868180953018 152 152 140
147.558848727018983 -2.598458483743375 7.022536368675873 149 149 139
145.376457086847097 -2.566912472220037 4.851352667083916 149 149 139
143.797925172219237 -2.304070581436428 3.275774777335130 152 150 138
141.766564378507809 -2.239333277321327 1.253714551679337 153 151 139
140.112653608044241 -2.032081439770808 -0.396089020391287 151 149 137
137.779430083140085 -2.121788896406017 -2.715584912316444 150 148 136
135.370735815195303 -2.260164193831325 -5.109333781849585 150 148 136
133.113031966012784 -2.351339549868727 -7.354084033033729 147 145 133
132.138707352446943 -1.906173700241057 -8.333718297297594 146 144 132
130.560525317244498 -1.730086227262904 -9.908570561360136 145 141 130
128.604920704393919 -1.730479060936216 -11.855342982121982 147 143 131
127.026845491509846 -1.578257325343927 -13.430000687591388 148 142 130
125.524330641122333 -1.403691417004088 -14.930177326354283 146 142 127
123.719865425647683 -1.375278901486708 -16.727833054847139 140 138 123
122.368481188035901 -1.154924271081521 -18.079063617207112 141 139 124
120.413101467108433 -1.219447472453417 -20.025283499403031 144 142 127
117.400595076430022 -1.783494869639957 -23.012660141716822 145 143 128
115.294213497872491 -1.949683446148676 -25.107312529876026 145 143 128
113.263367174798319 -2.095699578062540 -27.127449485530690 146 143 128
111.081504017126548 -2.327229832971959 -29.296178035170669 146 143 128
109.352785221409832 -2.359707320802438 -31.018584934925286 146 143 128
108.152786971380650 -2.152159997571375 -32.220388432949505 145 142 127
107.103929034883109 -1.880455450178317 -33.273439571598772 144 141 126
105.299852245748937 -1.982106282653311 -35.069942314542402 145 142 127
103.646878775731508 -2.022878039054856 -36.717641256484711 144 141 124
101.691799588880826 -2.223991353574075 -38.662598922501275 141 138 123
100.265526063944321 -2.177133119464398 -40.087075705860400 139 136 121
98.386049168520003 -2.366546086130524 -41.957462801590083 141 138 123
97.035428171772509 -2.303600470708095 -43.307438205696599 141 137 125
95.231567851545393 -2.479664683154488 -45.103278532321269 142 139 123
94.334389864420118 -2.206404080612288 -46.007191086251282 143 140 123
92.606179519595813 -2.366096814796020 -47.728531736731838 144 141 124
91.784743395946890 -2.069323418589487 -48.558062082604096 145 142 125
90.812293464097920 -1.856938529985086 -49.536197056804525 146 143 126
89.764377198756506 -1.690972920185623 -50.588610263703771 144 141 124
88.036394552728268 -1.891360291545375 -52.309640954164166 145 139 125
86.913056496624847 -1.782735039963253 -53.436241286695207 140 137 122
84.958407308812397 -2.126841599950666 -55.379932761468467 144 141 126
83.154925019217700 -2.403472012046234 -57.174918758238761 145 142 127
81.200271781609203 -2.774937272545380 -59.118326678755324 143 141 126
80.077145934156604 -2.706429545038982 -60.244615581348825 142 139 122
78.500510292833013 -2.895066087500048 -61.816453347429871 141 138 121
77.377522912595751 -2.843992378039123 -62.942629035158745 143 140 123
77.388735303691476 -2.169383900262511 -62.954937088582057 143 140 123
76.644043196608848 -1.918077924698943 -63.709854605001141 142 139 122
75.899480323226385 -1.671884920579537 -64.464781315995765 138 135 117
73.491358647998993 -2.375138997824873 -66.852989530870815 140 137 118
71.007522070842441 -3.138883460213382 -69.315212223190372 143 140 121
68.599214190257669 -3.876999863751070 -71.702972502622856 139 136 117
68.686840925528358 -3.188475850474743 -71.641121271049997 137 134 115
68.774709181756606 -2.498948268417418 -71.579395912513007 138 135 116
67.803750689521493 -2.428761749813897 -72.556780667055705 138 135 118
67.059848943264697 -2.231563868382491 -73.311519327590247 139 136 119
66.694371615882716 -1.815114538563734 -73.695257373682523 143 140 123
64.815786741667424 -2.303871230999425 -75.562989913954311 139 136 119
63.164170701589441 -2.669786360787821 -77.207991381646480 141 138 121
63.177422789942298 -2.042003393042187 -77.220793220748192 142 139 124
62.812511522481017 -1.643620669346444 -77.604616099313574 142 139 123
61.085398993494124 -2.080208358190578 -79.323631722259336 144 141 124
59.963813013778037 -2.156797196489066 -80.449163740457692 145 142 125
60.659117703302954 -1.117556689658643 -79.794762580943569 144 141 122
59.159280293760460 -1.438636157943548 -81.291118171376780 145 142 123
57.508015150560610 -1.865125829359061 -82.935663982745695 147 144 125
55.553837273466868 -2.494033380909770 -84.876649331273399 140 137 118
55.189849328876619 -2.130195431966345 -85.260558337615009 142 139 120
53.992979110082132 -2.299037782214791 -86.459983907068846 144 141 122
53.553567980496055 -1.991255442106053 -86.918092596616304 142 139 120
52.962844584467945 -1.783826557644781 -87.524498797861639 143 140 121
52.448034757641068 -1.531233414476367 -88.056827803885966 141 138 119
50.645418472364270 -2.120909997993436 -89.849005752650186 144 141 122
50.055056223514995 -1.929408876084500 -90.455420773006608 144 141 122
48.100833163216350 -2.640256567347604 -92.395541055022733 143 140 121
46.146485849757013 -3.365178096376767 -94.335457025670422 139 138 120
45.480516842295174 -3.246012479070112 -95.015816331098250 139 138 120
44.587278108667107 -3.283592583359869 -95.918413770850321 137 136 118
211.466067103653131 -3.614060078066886 69.027165158905945 127 127 125
211.546980386627581 -2.446151292137054 69.087293534758345 143 142 140
210.265603244734280 -1.720649719750777 67.808230971453526 172 171 169
205.881015102669437 -2.024521139950820 63.479115485299587 188 187 183
200.815157526672436 -2.586227889916786 58.480841025432966 191 187 184
196.127681282632011 -3.057137031755043 53.854910032549952 183 180 175
192.954005016275431 -3.047707182119948 50.717015647083826 168 165 158
188.115032378707213 -3.632349164400336 45.943012948998643 172 167 161
185.849653143667638 -3.359494351152516 43.698187430693963 175 172 163
182.600226659418126 -3.447525622798570 40.486676021178937 177 174 165
180.107774130333269 -3.290994893706209 38.019102315876410 173 170 162
176.934030019053353 -3.395814800221193 34.882416417323157 175 172 163
174.820100599016200 -3.140777444984358 32.787039000534861 175 172 165
172.706200173185238 -2.900861541947972 30.691803365721483 173 170 162
170.819444955287338 -2.592449142281886 28.819773827933574 172 167 161
167.645713769299789 -2.775958595304431 25.683891736997253 167 163 154
164.471967018545826 -2.982192451552286 22.548251005889995 161 157 148
161.903884961180950 -2.981651232018211 20.007605001144100 164 160 151
159.865795957572715 -2.796765650723580 17.987526781466244 166 162 151
157.600600121741110 -2.714133123557115 15.744571579159270 163 162 149
155.108281550405138 -2.736198813193647 13.278772171585899 161 161 148
153.373148247336303 -2.478330588626194 11.556445275886631 157 157 145
151.032311077670755 -2.473215238052535 9.239615666728440 154 154 142
149.372982852157577 -2.211949646308926 7.591847795878039 150 150 140
145.972078914839074 -2.666116082418213 4.234853724027261 150 150 140
144.691438396836929 -2.280435803949004 2.958936713667725 149 149 137
142.956509895260609 -2.090667600807349 1.237212829367451 151 151 139
140.237152811839167 -2.321569300548567 -1.450399133046261 149 149 137
138.123641321539964 -2.318461409990081 -3.543383249450272 148 148 136
136.237358696730098 -2.234571205080281 -5.413327754410773 148 148 136
134.199645866274096 -2.228573452521530 -7.431744551748523 148 146 134
132.237702797994530 -2.204605635013409 -9.375735433579933 147 145 133
131.033198359335074 -1.866908163059244 -10.576722887271956 145 141 130
129.753033889846620 -1.570779553445646 -11.851945837294295 146 142 130
128.169967751313038 -1.416983522815503 -13.424232106050141 146 140 128
126.283970914965806 -1.408790069718272 -15.293534146538349 146 140 128
124.398013355934609 -1.414022028239163 -17.162716782653746 142 140 125
122.209083689894015 -1.569218090343613 -19.328850485105619 142 140 125
120.398947174962203 -1.567978782762000 -21.123513375897829 143 141 126
117.831272709639691 -1.926426562300994 -23.660659117171605 144 142 127
116.172713410958664 -1.883755571430510 -25.306544735943618 145 143 128
114.362677991644404 -1.923317825375116 -27.100835999562918 145 142 127
112.173849323475977 -2.153254870406215 -29.266248672566746 145 142 127
110.136567926612074 -2.327244457988763 -31.283019166146147 145 142 127
108.629711499833107 -2.263404277142754 -32.779979054108139 144 141 126
107.501791641884523 -2.028631060632061 -33.905685972715844 145 142 127
105.919290746415371 -2.021367613749444 -35.476734318320041 143 140 125
104.639969088585374 -1.877845231194997 -36.750789613992936 142 139 122
102.375520207879930 -2.226211546701099 -38.989665669469133 141 138 123
100.414215572941828 -2.441055730033921 -40.931503763729182 142 139 124
98.983468124738607 -2.406014589004954 -42.353718598257359 145 142 127
98.310733934764770 -2.001431292910094 -43.033779411109833 142 137 125
96.197956221417414 -2.328037673397664 -45.123720649266318 143 141 124
94.767395190623901 -2.323063513054271 -46.545715170707780 143 140 123
93.336893574453740 -2.328199151377408 -47.967634050664969 143 140 123
92.512928388784800 -2.030930439221848 -48.795959600471605 144 141 124
91.385827794109176 -1.896725773374507 -49.921023249207622 146 143 126
89.652275736552880 -2.087336159396243 -51.639490191704965 146 142 126
88.146212536319311 -2.170582163145344 -53.135315524539521 145 139 125
86.640196071196684 -2.264479583141021 -54.631053574912727 139 136 121
85.134224868261455 -2.369027600123552 -56.126703646616022 142 139 124
82.566622182188780 -3.054240035187751 -58.660520174085093 145 142 127
81.515705864210020 -2.938001134732429 -59.710986304086163 143 141 126
80.844095011553080 -2.622768436260221 -60.390664787073376 143 140 123
79.641690806962117 -2.602913697271751 -61.589385270623865 143 140 123
77.604991014902126 -3.051507911948619 -63.603607358571736 143 140 123
77.312959148597557 -2.546422921468867 -63.912534947954924 144 141 124
76.869390271514661 -2.127882245676905 -64.369794676540863 143 140 123
76.046659433676524 -1.925484173348905 -65.197734182964155 141 138 119
73.858370976509249 -2.501406946159212 -67.359843886154835 142 139 120
71.973525941703727 -2.920149887586402 -69.225302273769273 144 141 122
70.316299992769146 -3.221871770349586 -70.868280753633201 141 138 119
70.404465698363154 -2.528934305304069 -70.806732793491733 138 135 116
70.416985628032066 -1.879021211496097 -70.819412166893500 138 135 116
69.215388446685097 -1.937645422454442 -72.017710904341470 138 135 118
68.241564615214685 -1.870917501919926 -72.993689289328216 138 135 118
67.419655203293203 -1.721201430493606 -73.821479480793926 144 141 124
66.294208894004754 -1.757708322242821 -74.945577314168276 142 139 122
64.105954202174729 -2.438038983093520 -77.106628447738927 142 139 122
63.056495320469665 -2.448461570214725 -78.156488019936802 143 140 125
61.779321143210595 -2.604137786737814 -79.428490861469101 142 139 123
60.426251558504006 -2.815053324130950 -80.774475879067126 143 140 123
60.136436346015088 -2.383902491993359 -81.083702866604483 145 142 125
60.758241150269711 -1.392579759404375 -80.504505257111930 145 142 123
59.101680027315453 -1.809315962064675 -82.146617887273095 146 143 124
56.153695787995474 -3.043340733241275 -85.047106407034590 145 142 123
55.332641620237183 -2.964096858676040 -85.874580338652038 144 141 122
55.271482282232938 -2.411015783523921 -85.961873947258539 141 138 119
54.146784684445606 -2.533079952610620 -87.085449277612724 143 140 121
54.010044512349353 -2.032402225303623 -87.246904745194996 141 138 119
52.961553254718268 -2.117719441339303 -88.296456297393803 143 140 121
52.521188338511621 -1.817754594937760 -88.754028229301440 139 136 117
51.244851122711552 -2.063442222166803 -90.025504937658610 143 140 121
49.588423192822745 -2.566285362940969 -91.666794944955285 144 141 122
48.083995530174036 -2.981099812096397 -93.159989712790008 144 141 122
46.579534548599995 -3.406597442382220 -94.653058573614913 141 140 120
45.683406430479252 -3.438902393312661 -95.554328041533239 141 140 120
47.069005783591123 -1.954290070613155 -94.237015954499100 139 138 118
213.332625843075931 -3.361928860317007 69.351062276835052 124 124 122
210.528537301237520 -3.115729719999075 66.588215630150756 139 138 136
210.230236843112664 -2.077501010394391 66.276798997478068 166 165 163
208.185532721386920 -1.613623241194730 64.257013620889154 186 185 181
203.710914002043694 -1.969198149942418 59.860641779366915 190 186 183
198.324991777337459 -2.661836991758108 54.573397360467084 182 179 174
194.989314443339623 -2.699219019121876 51.291767818792664 166 163 156
188.616023186916436 -3.799093919259225 45.039903741608384 175 170 164
186.343428518311498 -3.527669854342757 42.798544789400268 177 174 165
185.513767907510896 -2.768775691688756 41.968192168791603 177 174 165
181.874246628189923 -3.006694469584607 38.390549214902194 175 172 163
178.538476178023615 -3.162395553217277 35.110182137168010 175 172 163
176.417843220468967 -2.904711976790630 33.017984430866193 176 173 164
174.676984538434056 -2.524162315645120 31.297133715182781 174 171 162
171.341208574915356 -2.741259025804845 28.017401251043935 170 167 158
168.840885252201502 -2.672619542962233 25.554497615185113 165 162 153
166.492483425728352 -2.564983988381189 23.240231619952596 163 160 151
163.308588811089095 -2.789619762145773 20.109635012325498 161 158 149
160.580420570431841 -2.863235274556824 17.424619251591309 163 160 151
158.763765755046109 -2.605560039919041 15.630435069573878 160 160 150
156.719272685080284 -2.449310173220394 13.613715295085768 159 158 149
154.902703165389767 -2.218293713720509 11.819764720064853 160 157 148
153.010214774708061 -2.030238771135137 9.951716812253125 154 151 142
150.434066642167238 -2.128496889598273 7.415946581441744 152 148 139
148.617614480104919 -1.939214727164058 5.622369455018912 152 149 140
145.509702359174582 -2.287490546764502 2.567554656871295 150 150 140
144.149146531793491 -1.941845091023940 1.219422070213511 150 147 138
141.497084079342187 -2.139744072891363 -1.389864241623400 151 149 137
139.148929710808346 -2.229819927684653 -3.702213477027470 150 148 135
138.092443629855666 -1.793432725424414 -4.753310498812482 149 145 133
136.200247859746241 -1.718952965523953 -6.620329308892337 145 143 131
133.472266955552215 -2.015372456608615 -9.303141257468809 145 142 130
131.048221058897752 -2.200147528723373 -11.689068344258118 145 141 130
130.295939511050221 -1.675248185199269 -12.443171332207640 146 142 131
128.327907316511642 -1.688632746197472 -14.383864710112277 144 138 126
126.891867411190205 -1.480876208123068 -15.805325497642713 144 140 128
125.227907092482667 -1.384851618534673 -17.449176482341272 143 141 126
122.500011019291165 -1.778483708771480 -20.131028355660106 143 141 126
119.772092918747276 -2.191544797219222 -22.812669698730190 142 140 125
118.108215859674388 -2.138515845466463 -24.456117938853254 144 142 127
117.204464955901003 -1.747733940266389 -25.358095737794798 144 142 127
115.160666041783756 -1.891661436197907 -27.372057717671652 144 141 126
112.888848198127164 -2.156597678419436 -29.608267274186687 144 141 126
110.541015479885630 -2.473456529037672 -31.918435994685979 144 141 126
109.637543948319973 -2.122115700182762 -32.820141457521771 144 141 126
108.278046513819248 -1.994996433166867 -34.166530975867033 142 139 124
106.918620936204078 -1.877454503864380 -35.512856285951642 139 136 121
105.027064429188528 -2.027567258155438 -37.377869073730210 139 138 120
102.603306970760471 -2.451086206851049 -39.761476637722069 142 139 124
100.027453849987822 -2.966683772467815 -42.293092116569255 144 141 126
98.972341482617992 -2.746806235890703 -43.342617675469626 146 143 128
98.449623530803208 -2.268544904035626 -43.873486377638613 147 141 129
97.242636007460078 -2.137968590278220 -45.071153929999213 143 142 124
95.351281422664783 -2.362484707483489 -46.935497445484316 144 141 124
93.688102455025685 -2.484038726824499 -48.577482579932052 144 141 124
92.861591423861682 -2.187646747232843 -49.404581181331537 144 141 124
92.187322791442270 -1.818284167174383 -50.083545377654218 147 142 125
90.220078451300154 -2.126960179255512 -52.021576079153903 149 143 127
88.785319786201185 -2.170366361549331 -53.441064463560934 146 140 126
87.502762893032113 -2.143544170495511 -54.712370780040828 141 138 123
85.915964722549546 -2.287479471490696 -56.279806959340817 141 138 123
83.644461729603577 -2.809056579942554 -58.513525405995182 145 142 127
82.362038027786781 -2.813909601488118 -59.784569391885924 143 141 126
81.764500101835893 -2.456350077451197 -60.389260915466792 144 141 124
80.482248750965539 -2.476705389655090 -61.660227780594113 144 141 124
77.830256322934503 -3.258808014873495 -64.263534090293916 144 141 124
77.385203687750419 -2.839058630710965 -64.720096435932589 143 140 123
76.559768931281909 -2.634078562229297 -65.546768974734874 144 141 124
76.115028549936284 -2.221515694979467 -66.003406727110786 141 138 120
74.604779896973739 -2.412818364497930 -67.496117472162553 143 140 121
73.246810044195129 -2.528358609439463 -68.840739964109275 144 141 122
71.279844992604779 -3.001285176534639 -70.777213562819668 142 139 120
70.759417385653052 -2.656773052387121 -71.307801210335697 141 138 119
70.010729028169507 -2.447798457178016 -72.060371196097549 140 137 118
69.490611301009039 -2.110970009472321 -72.591027997101975 140 137 120
68.742201829621635 -1.911335103414436 -73.343635262903973 138 135 118
68.374714605616774 -1.492425328445928 -73.726437107939120 142 139 122
67.398107240800002 -1.437000517814662 -74.700967511525704 143 140 123
65.431389024665791 -1.978884792617396 -76.636849379145445 142 139 122
63.845489485217968 -2.306226578001481 -78.202827565372871 143 140 125
62.488132238303777 -2.506816766444305 -79.546867664071385 142 139 123
60.673674340635827 -2.994536978894104 -81.334430114203229 141 138 121
59.925895770531838 -2.843510212300146 -82.086838853018548 145 142 125
59.102044969279859 -2.744368575273710 -82.913179702423434 147 144 125
56.373107158707455 -3.828488260737269 -85.587425676461123 145 142 123
55.549318678266090 -3.747586291378639 -86.413608589866044 145 142 123
55.487861098354358 -3.195629825850383 -86.500747944394476 144 141 122
55.884029799612932 -2.355978042065280 -86.144622226136903 144 141 122
54.450876419839773 -2.670434720200869 -87.562088514623582 143 140 121
53.246451353823161 -2.849462760580251 -88.757795024636863 141 138 119
53.567080573307479 -2.061054925393204 -88.475862882440936 143 140 121
52.515399699323666 -2.153125630926072 -89.523819016049629 140 137 118
51.768850838418970 -2.055051621083029 -90.276270974204351 144 141 122
51.251252432428984 -1.813080009240886 -90.807156600757736 142 139 120
49.665885837405682 -2.273348630535435 -92.372021463072343 144 141 122
47.927890444492746 -2.845276472746824 -94.084437637031499 142 141 121
48.555050347145155 -1.864407137800004 -93.507694286183437 142 141 121
210.340582178674765 -2.384897965038939 64.896867739408833 160 159 157
208.746472891955563 -1.774831898694205 63.325167858204139 182 181 177
205.476430214349790 -1.729378603424664 60.122145141220273 187 183 180
200.606545296130975 -2.241044529131434 55.362179593029509 184 181 176
195.203298803303824 -2.967255139083745 50.083568615690552 173 170 163
191.476026109145437 -3.160765901053737 46.436589638935601 177 172 166
187.139225372084383 -3.590706485863890 42.196769400192778 178 175 166
185.240383395669397 -3.203306626566810 40.329709068647588 175 172 163
183.646336813228572 -2.722287088497387 38.759307530674164 174 171 162
180.452325017868134 -2.820654049721964 35.632251199305784 173 170 161
177.258297570784123 -2.941752801884035 32.505436345411795 173 170 161
175.207170873553451 -2.671662902959927 30.490718262829148 174 171 162
170.108231444398825 -3.530802042842235 25.511331669124615 171 168 159
169.657258111078789 -2.709821853242478 25.053471694938224 166 163 154
167.606199298363492 -2.488602283724453 23.039224183486994 165 162 153
164.488355307862889 -2.683497328219911 19.987581932328169 160 157 148
161.980120422238542 -2.668933207685586 17.529019785916461 162 159 150
160.462563023512558 -2.292246705632532 16.033958921909431 160 160 150
158.335410882192122 -2.162292633066555 13.946194754724303 162 161 151
156.513124973197307 -1.928350573257914 12.154948766078689 161 158 149
154.157409788187834 -1.917623138320708 9.845178980459906 154 151 142
151.801713356870096 -1.923618315073924 7.535572357382051 151 147 138
149.141175529241622 -2.068683528998162 4.929796791463900 156 152 143
147.242808397520434 -1.924048480185465 3.065008195993698 151 151 141
144.582292212536572 -2.104182599606921 0.459583258169999 152 149 140
143.065094431021919 -1.832142411375260 -1.034572468400313 152 150 138
140.480830886124096 -2.014298968671429 -3.565596704979583 149 147 134
138.963729819501054 -1.767507254166915 -5.059538804398755 146 142 130
137.827834000748879 -1.370316565413053 -6.183101895330623 145 143 130
134.328879698370429 -1.988448772294465 -9.602360111497774 144 142 129
132.354524052287502 -1.976116013513489 -11.540293093150353 145 141 129
129.999025675236737 -2.142962206126757 -13.848338744399769 146 142 130
129.168295773633020 -1.660246670807858 -14.675336974602089 147 141 129
127.651511029471962 -1.485592288892454 -16.168687855799760 147 141 129
126.134790714016958 -1.321632356291006 -17.661959476130392 144 142 130
122.788232563845980 -1.987539045258641 -20.931913952558375 145 143 131
120.737834220297259 -2.092353109526242 -22.943121402217173 143 141 129
119.068716959236141 -2.038286476521197 -24.584073429045390 143 141 129
118.238448729761160 -1.611525991056365 -25.410716548174065 144 142 130
116.188178435834743 -1.754133895927604 -27.421596225345951 144 141 126
113.222804858419238 -2.337237399904540 -30.320466004966306 142 139 124
111.553853764476386 -2.333281537038965 -31.960981710243715 143 140 125
110.190016029797064 -2.196912121722616 -33.305390060284168 144 141 126
109.131329016071462 -1.924842008152851 -34.353742765035122 139 136 121
107.004918894098111 -2.172471674005455 -36.437975252631134 137 134 119
105.183619238382519 -2.287682790676688 -38.226099052419926 138 135 120
102.980951633756845 -2.601464313307637 -40.384028172330659 144 141 125
101.922524579634356 -2.369605496059061 -41.432091325791220 144 141 124
99.796181910540724 -2.672786914509460 -43.515784260517393 146 141 126
98.737899248663794 -2.459513855872134 -44.563725178183176 147 142 127
97.908595259594350 -2.138890443928442 -45.389737064400265 145 142 125
96.774220350255916 -1.978039606295342 -46.511594988367932 144 143 125
94.648016072806811 -2.329353770633262 -48.594858674649259 145 142 125
93.742686671697498 -2.070701737840568 -49.494721246722861 145 140 124
92.532232592153676 -1.975659755715633 -50.690364637753021 146 140 124
90.863978753205814 -2.126753647362618 -52.329617902416601 150 144 129
88.890485301928422 -2.449157832572579 -54.264517739586921 146 140 126
87.756526914420363 -2.343706253869707 -55.386004673768099 142 139 124
86.393676943982101 -2.367471140530842 -56.729237224020892 138 135 120
84.649234393651426 -2.604363703861328 -58.442017786403198 142 139 124
83.439151091456026 -2.566616870411022 -59.637248788297995 142 140 125
82.076464164963625 -2.619847261143143 -60.980256034979988 142 139 124
80.179423564952955 -2.973431651683359 -62.840550815700340 142 139 124
78.740465276849406 -3.089504233600974 -64.257282123101277 143 140 125
77.377903861775494 -3.173575954638113 -65.600031948709443 144 141 126
76.244469958605649 -3.140068570067966 -66.721029236668443 145 142 127
75.722026521629232 -2.773235161968918 -67.250882282199314 141 138 119
74.970637259571234 -2.538631105561274 -68.002423981389882 143 140 121
73.990256613706961 -2.438745422877658 -68.975606918348262 144 141 122
71.940662291013282 -2.954379707058288 -70.982970229926309 143 140 121
70.425710197200601 -3.178225826275958 -72.473095878921242 142 139 120
69.521902434164659 -3.060416314078793 -73.372236634615717 140 137 118
69.382164083630030 -2.505647138248359 -73.532814574362845 141 138 121
69.471854132809213 -1.817728536041308 -73.471944193291023 140 137 120
69.026950791592668 -1.442873892178773 -73.928115836537017 142 139 122
67.436023117639280 -1.748136667757365 -75.491915850791429 144 141 124
65.845096389749855 -2.064602804641421 -77.055600995813649 143 140 123
64.942001155877705 -1.980888528108977 -77.954731663629076 145 142 127
63.503987643643171 -2.225278130888822 -79.370594117010654 142 139 122
62.218869037978052 -2.387222860394720 -80.638731846271611 139 136 119
60.092893574979271 -3.070175430050818 -82.718691275894855 144 141 124
57.890358334045615 -3.815094394383813 -84.872245803869873 148 145 126
56.069988713465762 -4.340177017052540 -86.656595515966671 146 143 124
56.084727271232268 -3.740825389818892 -86.669815818870148 145 142 123
56.252677526032954 -3.045571561719473 -86.535601472158731 144 141 122
55.503169764996755 -2.924036940534700 -87.286879394490938 142 139 120
55.901096382377389 -2.084051646941523 -86.931598090264515 143 140 121
55.075463277563486 -2.016886135428668 -87.756757145431237 141 138 119
53.331922326485213 -2.540872131916304 -89.467013832874670 142 139 120
53.501054146466416 -1.850254453764934 -89.333317020675139 140 137 118
52.828810443357227 -1.700855825093885 -90.010985736786864 139 136 117
52.156713400802431 -1.555910186021205 -90.688678777946166 139 136 117
51.867430939423485 -1.165776167457890 -90.997738425121241 144 141 122
50.353710307509076 -1.580623848386583 -92.486487126241570 141 140 120
48.763403723696200 -2.056647189785323 -94.048826543603582 142 141 121
212.432272924834876 -2.052395768807786 65.444811832907590 156 155 153
210.221793549653427 -1.637349695092607 63.283117648673539 180 179 175
204.648594604580239 -2.344407868812890 57.863896426452499 183 179 176
201.368114286960122 -2.328531621298259 54.666171492084885 181 178 173
193.731170608248647 -3.800233712619041 47.248919647626593 176 173 166
190.832721511460306 -3.716615951778318 44.422029413881774 176 171 165
189.310042415513095 -3.181374514449434 42.927786666669647 177 174 165
186.105879086944412 -3.240014220707212 39.805177861398931 176 173 164
184.430400272995257 -2.785861364362768 38.163150891183932 173 170 161
181.761292622281246 -2.695195943693014 35.559048605412187 172 169 160
178.939314519465881 -2.678095696386659 32.807118493374219 172 169 160
175.811575825983311 -2.791373507395436 29.759369707020454 172 169 160
173.066031032841011 -2.787514497442565 27.081869345254717 171 168 159
170.855592483579471 -2.606165494748355 24.922561191391793 167 164 155
167.651392203318608 -2.809770928445043 21.801462268740977 165 162 153
165.211642052848674 -2.749298042329926 19.420523582711240 164 161 152
162.924805043723268 -2.648199624772332 17.187731364842023 159 156 147
160.867343112981700 -2.475616484244743 15.177047722302916 160 160 150
159.115726330649522 -2.199600426929577 13.462419661823361 164 163 153
156.752521546024582 -2.174104132324290 11.156080851696629 162 159 150
154.771618869896400 -2.015128552376671 9.219770478551055 157 154 145
152.179083879146049 -2.112656351599385 6.691832146994813 151 147 138
149.127787970730878 -2.412049998402149 3.720288063003665 153 150 141
147.299879277042237 -2.239340981621426 1.932362297754992 150 150 140
146.695461100179386 -1.581452033604746 1.327870820993297 152 149 140
143.873602594069098 -1.838419693568920 -1.421295387049014 150 148 136
141.739959743057113 -1.830292746784216 -3.504700393159652 148 146 133
139.529872238727535 -1.869188281454885 -5.661909398050312 147 143 131
136.784485030618896 -2.149244990466405 -8.336562660833636 143 141 128
134.880331371839077 -2.091311330986157 -10.197690540638149 143 141 128
132.593819977576402 -2.210640423151804 -12.428369560450761 145 141 129
130.307322186274547 -2.346128805129172 -14.658888752185447 147 143 131
129.091620736216100 -2.031411015919737 -15.854283052585885 148 142 130
128.181953008269488 -1.590867616128123 -16.753942483185995 146 142 130
126.889942785643612 -1.325938121755839 -18.023177317344931 145 143 130
124.144652383477862 -1.718548315504782 -20.696718322199160 145 143 130
121.934804902546759 -1.889759716652802 -22.852680159777435 142 140 127
120.260457817112197 -1.833833890395463 -24.491149394161795 142 140 127
119.198172315821182 -1.510078216318983 -25.538312620234962 143 141 128
116.911916093482347 -1.757311706316750 -27.767797129200744 143 140 125
114.090109483004611 -2.269180056237447 -30.514364343082946 142 139 124
112.339405160766134 -2.300226965811569 -32.226268167970289 143 140 125
111.200851160516009 -2.055229180634210 -33.346992995973409 141 138 123
109.832838075947123 -1.927123975380499 -34.689318805272762 139 136 121
107.546654022085562 -2.247711577455134 -36.918082768665215 137 134 119
105.107413288372442 -2.658183193359005 -39.294417489583765 139 136 121
104.581324484479239 -2.157367862500798 -39.823905747314569 144 141 124
103.825790922215987 -1.772335204488582 -40.575013264657628 144 141 124
101.692768351126915 -2.070899008402323 -42.655558088592102 144 141 124
99.330128439575063 -2.498409150831547 -44.957504109233554 145 142 123
98.039043179092602 -2.407272767143948 -46.225392502316964 145 142 125
97.207305686845203 -2.094064354765190 -47.050163882639538 144 141 124
95.533645840221311 -2.213242839824491 -48.687159453074088 144 141 124
93.936573814300161 -2.305113216282877 -50.250216585571479 145 142 125
93.105117116632556 -2.014799659979657 -51.074886628803597 146 143 126
91.661289725839097 -2.047098479521805 -52.490150899588059 146 143 128
89.145596097010824 -2.647952129867881 -54.938810004542347 145 141 129
87.931528062643864 -2.583813850841779 -56.132406384632048 142 140 125
87.100410562053540 -2.325917980693839 -56.956905007054331 140 138 123
85.963099135463139 -2.236574447268409 -58.076622050629823 141 140 124
84.519539602731967 -2.319090726424681 -59.491497550254252 141 142 124
83.076028553744010 -2.411702861656068 -60.906292322616906 142 138 126
81.479378432150540 -2.597500518119672 -62.468584452020394 143 140 125
79.116775914190484 -3.212715023960696 -64.768616226320802 144 141 126
77.520125884583678 -3.423681446571480 -66.330649324976775 145 142 127
76.076711683267504 -3.561101801976101 -67.745029195413650 145 142 125
75.399464951103823 -3.282098437475224 -68.421638566228410 142 139 122
75.028831594661426 -2.835931657358275 -68.803215882336247 143 140 123
74.198641738985074 -2.651334315322242 -69.627403788333908 144 141 124
72.295768664555496 -3.081168796027608 -71.484123452801441 143 140 122
70.316227975452506 -3.568191214248485 -73.414435813954668 141 138 120
69.409599533802549 -3.452640771579977 -74.312203912931153 141 138 119
69.576119824175294 -2.722839882768915 -74.177661086389804 141 138 121
70.279472719287099 -1.679269015429263 -73.527154735417582 139 136 119
68.606798845835712 -2.021317783264381 -75.162327876257166 141 138 121
66.857450786996253 -2.420282260660458 -76.871093372554213 145 142 125
65.568095330042681 -2.558972825351042 -78.137443573481789 144 141 124
65.582279225011519 -1.929533813142264 -78.150708232172207 143 140 123
64.983263564798662 -1.667502471380865 -78.753709493178036 142 139 122
63.464139283372631 -1.964666126952940 -80.241084487686493 141 138 121
61.868321085334358 -2.319033331360272 -81.802039435428156 143 140 123
59.275355537370601 -3.293426269087099 -84.320745776519459 147 144 125
58.599926335707920 -3.108531169343451 -84.997255944050835 146 143 124
58.384939386135045 -2.643769732436144 -85.231767601996353 145 142 123
57.172776746962782 -2.799880145405576 -86.424008386185875 144 141 122
56.190850467765884 -2.820542120778322 -87.395211039853677 140 137 118
55.209010320348554 -2.847932368796109 -88.366385641179221 142 139 120
55.685423835166716 -1.960200552713974 -87.938284793677582 142 139 120
55.624938710468626 -1.410077405538158 -88.025870496180232 140 137 118
55.334442409177583 -1.007143986841219 -88.334481197157487 141 138 119
53.201715792572443 -1.790610022348520 -90.410176262438824 138 135 116
52.604376353075452 -1.596304536124409 -91.013282285435906 139 136 117
51.930415877199110 -1.455811459802191 -91.690038034016368 144 141 122
51.179810064272544 -1.369976062852416 -92.440423182039211 140 139 118
