ply
format ascii 1.0
element vertex 673
property double x
property double y
property double z
property uchar red
property uchar green
property uchar blue
end_header
-94.479108827197336 -131.907824069540681 -18.753390777139089 44 46 45
-94.476296060338584 -131.340854336048125 -18.760572499450916 46 48 47
-94.479618379042336 -130.761521636851910 -18.875805360996111 47 49 48
-94.482957438041694 -130.182735218043547 -18.991024590902725 46 48 47
-94.492434694488594 -129.592671061115880 -19.214282300534791 42 44 43
-94.489681370541490 -129.026798478596220 -19.221424292035351 36 39 38
-94.486938895299716 -128.460926884582534 -19.228561083377258 42 46 45
-94.508712303952919 -127.851022354294130 -19.667858352712472 39 41 40
-94.518249350847697 -127.264764339218672 -19.891048280269160 45 44 41
-94.491024680434649 -126.742382419479625 -19.466014069116511 57 48 45
-94.390231342196458 -126.340146308530223 -17.744631516267503 63 44 40
-94.313929308886173 -125.889528686638599 -16.455465961968940 74 46 39
-94.256000302454964 -125.403439101572630 -15.490452600086883 86 53 44
-94.277798263553095 -124.790538550417637 -15.929768963164435 96 60 48
-94.275067440872220 -124.216235407914738 -15.936986970125389 100 64 52
-94.303023525033922 -123.597754154143644 -16.484273638133601 102 65 54
-94.300303162826509 -123.024803091712343 -16.491472723200502 106 66 56
-94.322141457652776 -122.418681785011628 -16.930700008591998 104 65 50
-94.313286201894570 -121.854830177901988 -16.829881455519711 114 75 59
-94.310569599858553 -121.282682970972928 -16.837070467244985 124 85 68
-94.301708075328875 -120.718008342700372 -16.736263384901719 128 89 72
-94.305130929961180 -120.138376183693950 -16.851451232893510 137 99 80
-94.326991136742109 -119.538483165259066 -17.290603924781067 145 104 85
-94.342710764179699 -118.947420818354885 -17.621744465319608 153 112 92
-94.383027889038388 -118.332424401829812 -18.384799552489056 163 122 102
-94.398758907041525 -117.745700092311225 -18.715889990222081 162 121 101
-94.426794369747071 -117.148908326858461 -19.262915423007854 154 113 93
-94.436379391183593 -116.571553595993748 -19.485990753731215 144 103 83
-94.445962881145078 -115.995281213653513 -19.709055675949827 138 99 82
-94.443234209866716 -115.430154190405489 -19.716178199282012 150 111 93
-94.428184976134474 -114.874542423161614 -19.507379122309743 158 118 102
-94.400806754488059 -114.326815803022896 -19.082679255274144 151 112 97
-94.404204148772408 -113.755829597516765 -19.197790286266383 151 112 97
-94.407594883021957 -113.185382815181669 -19.312898950842765 156 115 97
-94.423301867637562 -112.608129673536141 -19.643903394577165 157 116 95
-94.420517685915982 -112.042706866591942 -19.651055518565300 157 117 96
-94.423887300571408 -111.474151006413166 -19.766154822471435 153 117 95
-94.458077175728704 -110.891846057901461 -20.420945770272056 151 116 95
-94.467603806543494 -110.323143039577019 -20.643959978445224 149 114 94
-94.452450651253272 -109.764781626511834 -20.435238920675829 145 113 93
-94.431110386255128 -109.207373378074294 -20.118609058660240 142 112 93
-94.415920872790736 -108.646561408018400 -19.909930619330851 138 110 94
-94.400713398850314 -108.084660365386398 -19.701271982602833 135 107 95
-94.391661592581883 -107.520442949534981 -19.600551224074053 132 107 95
-94.407295252930027 -106.951857087193829 -19.931501529226693 131 109 99
-94.416747448682457 -106.385584222597856 -20.154526332085453 127 109 100
-94.420013855485422 -105.820809476083014 -20.269636089372000 138 124 113
-94.441808141727861 -105.256155295087410 -20.708457586362982 155 146 136
-94.451238344491841 -104.693412191863317 -20.931456576985056 178 174 166
-94.522483966289229 -104.135783406485302 -22.233419487988954 188 185 178
-94.674139102678808 -103.593444336231585 -24.937922882080215 182 185 181
-93.416472789238099 -35.702293116016676 -9.166155582853492 142 141 138
-93.347979723019648 -34.152403381318834 -7.995428490469578 145 145 143
-93.405606969802093 -33.843807712373973 -8.968766307668403 144 144 142
-93.469680650215054 -33.572727404150108 -10.049492893581402 145 145 143
-93.527556810629434 -33.273905810200361 -11.022611021887911 147 149 147
-93.566595203651204 -32.879897372905560 -11.673144224779435 146 148 146
-93.586801849183956 -32.388235269394102 -12.001115014601879 127 129 126
-93.581863892585673 -31.762592581012548 -11.899058485679546 80 82 79
-93.501237305838956 -30.726617849819057 -10.507128272785337 54 56 53
-93.509234669179818 -30.165008578695652 -10.619942172852205 34 35 32
-93.511060514107896 -29.569059644199097 -10.625203096658907 24 24 23
-93.513036818493632 -28.972897720391295 -10.630394233582763 27 27 25
-93.496218846878534 -28.270829479658271 -10.313089979885461 23 23 20
-93.542710639762774 -27.921925605826839 -11.070452102821122 14 15 10
-93.608286434418233 -27.683968287699798 -12.150119130852659 14 15 11
-93.636124739457998 -27.234950605755671 -12.584858885392606 28 29 25
-93.626249014123118 -26.569924038861643 -12.374711081234437 41 42 36
-93.610234514529566 -25.866947833901197 -12.057031795408022 51 52 49
-93.613322355969316 -25.272699317303037 -12.061671481153667 61 61 61
-93.610275043568166 -24.641036885417115 -11.958772438771945 65 65 63
-93.626321377049763 -24.120838962273073 -12.178168356225427 68 68 66
-93.623627801879451 -23.488358166305950 -12.075108510997580 78 78 75
-93.627419996956831 -22.893023155484130 -12.079422420208175 96 96 93
-93.625095638543215 -22.259144975259304 -11.976200326927653 126 127 119
-93.667048257491857 -21.894128718728052 -12.625040943043871 143 144 136
-93.677685918744473 -21.338090438786473 -12.736534388629025 145 146 138
-93.682217538044640 -20.743212180533892 -12.740489858242285 144 145 138
-93.712111433065374 -20.305448700043158 -13.174130380432160 141 143 135
-93.773632801138405 -20.067742897659247 -14.144875558345007 142 144 136
-92.412029687746696 -0.895175997117177 10.947364388206381 116 118 107
-94.720554538421922 -0.598083460903707 -23.869582073146915 114 116 103
-93.884578715433562 -147.178308260039131 -15.998294171790519 198 203 206
-93.874633342617969 -146.623531427635413 -15.897903715767029 173 177 180
-93.871061792997693 -146.048814267411359 -15.905528185306423 89 93 96
-93.867539103261052 -145.474132805197570 -15.913128912987389 119 123 126
-93.845073567131038 -144.956156971636688 -15.596631479168735 102 103 107
-93.847970503821529 -144.362106810766591 -15.712219336237325 103 104 108
-93.844581484135986 -143.786977290413319 -15.719760728711549 104 105 109
-93.879243944804216 -143.103424608239237 -16.375367787008742 122 123 127
-93.907629704056077 -142.440963156176480 -16.922901610201393 126 127 131
-93.917056392023326 -141.833839139945184 -17.146359117322731 98 99 101
-93.920187426571843 -141.245085127197683 -17.261780466865360 69 71 70
-93.923357666762783 -140.656896070271017 -17.377177245188875 66 68 67
-93.926565601911051 -140.069270432877317 -17.492550190813773 61 63 62
-93.948841559636051 -139.432872503068978 -17.931879752266013 66 68 67
-93.939434028732776 -138.879530518530288 -17.831217224905373 60 62 61
-93.955441352716363 -138.262055536503993 -18.162492010924353 51 53 52
-93.939744883181248 -137.724373269160083 -17.953818011992155 51 53 52
-93.949469135203870 -137.124185664087605 -18.177061765524826 57 59 58
-93.959225314228092 -136.525096769252940 -18.400278935712862 45 47 46
-93.969012034404429 -135.927105401921750 -18.623470197716586 44 46 45
-93.972474051803985 -135.344753304654859 -18.738667308065629 46 48 47
-93.963250655884323 -134.791495570779091 -18.637915823925567 44 46 45
-93.947689008935939 -134.251701624581955 -18.429199062901233 47 49 48
-93.957573714151792 -133.655916209655658 -18.652320742221633 49 51 50
-93.961123164510752 -133.074679377285548 -18.767464544960745 50 52 51
-93.971053418793915 -132.480806184509447 -18.990544750300216 50 52 51
-93.974643308191858 -131.900936514676999 -19.105655134250952 47 49 48
-93.965524377495427 -131.346895798248738 -19.004861733938867 45 47 46
-93.969146063109775 -130.767575123609959 -19.119951255605343 46 48 47
-93.972783279300771 -130.188799518301181 -19.235027736824748 45 47 46
-94.001903834932889 -129.563263361898265 -19.781829945329832 38 40 39
-93.992836974734772 -129.009771709652512 -19.681005982876457 39 42 41
-93.977407406850574 -128.467019528543972 -19.472256486278610 46 50 49
-93.987465789101435 -127.879134961160602 -19.695213751707939 29 31 30
-93.991164612031483 -127.303075423225991 -19.810232802628576 41 40 37
-93.937509659800057 -126.821769060727931 -18.953984396675253 52 43 40
-93.826465442380822 -126.427880619896413 -17.126561017606917 61 42 39
-93.740887569535047 -125.985054635429535 -15.730893904988562 70 44 39
-93.706300522192208 -125.457938735893691 -15.198571674034696 87 56 50
-93.735491558921453 -124.834289837310806 -15.745320738131767 95 62 54
-93.739177315467828 -124.249792488204278 -15.860432894594766 101 67 57
-93.781154841182499 -123.612806718756246 -16.622919999142198 105 69 62
-93.765707330884084 -123.056716838790251 -16.414316377768444 104 66 59
-93.788557553385942 -122.449768098741714 -16.853068077615632 112 71 64
-93.760335742423095 -121.909171793396936 -16.428698384905260 125 85 76
-93.764033859516019 -121.327640926703225 -16.543774092631480 134 94 85
-93.748568808950921 -120.769087316428099 -16.335204222874921 138 98 89
-93.752262115269843 -120.187818208527332 -16.450279537644150 140 100 89
-93.755953855346817 -119.607087363437358 -16.565350061088679 148 107 94
-93.785209400017649 -119.000236520318069 -17.111895353984039 157 116 102
-93.852829072478585 -118.357740178687777 -18.305607606191614 160 118 104
-93.875712351660340 -117.764064050133356 -18.744206870178772 160 119 105
-93.892203879792262 -117.178405792310500 -19.074922509067335 149 107 93
-93.889505901359371 -116.611105953588265 -19.082052714928693 134 92 78
-93.893198045813506 -116.038494980289826 -19.197039463001119 131 89 73
-93.877686630091020 -115.481525598999269 -18.988475466912178 148 106 92
-93.862161086761205 -114.923464534445998 -18.779929466666317 157 115 103
-93.840219010965484 -114.368802867593402 -18.463559236929456 154 112 100
-93.843871869682530 -113.795629229284216 -18.578570570957481 154 111 101
-93.866730472323724 -113.211151823658469 -19.017086953040916 154 110 97
-93.902400477740770 -112.621492077230741 -19.671245518228346 153 111 96
-93.893225107175098 -112.058917735472704 -19.570566959448769 154 114 99
-93.884035466275066 -111.495796038176593 -19.469900861753757 152 115 100
-93.900470483335894 -110.920684357322102 -19.800534974130130 149 115 102
-93.916901237664121 -110.347199492255214 -20.131154380151003 144 112 101
-93.914089867962588 -109.782293502174653 -20.138314190919971 139 113 100
-93.885610008743967 -109.225566702125249 -19.714233986895920 134 110 98
-93.895597514106342 -108.656020422366979 -19.937036394378850 129 109 99
-93.879910495378894 -108.093566962044008 -19.728612856545965 134 120 111
-93.902712225819656 -107.522642141157831 -20.167016942532172 159 149 141
-93.919091669151982 -106.954847859526694 -20.497602319523622 180 175 169
-93.961148421128087 -106.385934621778802 -21.259350817733690 186 185 178
-93.913299988273565 -105.826636992157631 -20.511986281025941 182 184 176
-93.884688215970925 -105.263103754206085 -20.088039245853736 181 185 177
-82.858535003888392 -0.557978904338105 154.591863477692527 156 155 150
-93.260188291693140 -34.056379596113764 -15.687679090864407 144 146 141
-93.037927068661219 -32.331990551148564 -12.042556013517498 139 141 135
-93.071991425646928 -31.909083164202670 -12.584907364685051 141 143 137
-93.001111343308537 -30.942686354204678 -11.409316026835285 139 141 136
-93.015755375525188 -30.417281066040019 -11.629436402431338 140 141 135
-92.958316722441154 -29.511340436047817 -10.668510194909288 144 145 140
-92.920736155116700 -28.705104088935943 -10.029634295718267 141 142 137
-92.922702631070038 -28.106702642687694 -10.034853187060008 143 143 135
-93.010145061584623 -27.969552461096285 -11.435598287712992 144 144 136
-93.123966017876128 -27.982399104923857 -13.265615539058274 146 146 138
-93.139492163477726 -27.463642313311023 -13.485245478319712 144 145 136
-93.076455647574392 -26.509886344165160 -12.416630571568305 148 148 138
-93.190064037520557 -25.322874018825484 -14.148241380131111 140 139 134
-93.226057314832957 -24.920078443981673 -14.689462921440850 140 139 134
-93.190128538045599 -24.105101448465348 -14.049886783203675 138 137 132
-93.653370081355476 -0.595702741656156 -16.398304251070357 117 117 105
-93.306073643199497 -146.190246954184971 -15.398348547414599 196 200 203
-93.256608112921398 -145.747869271479630 -14.650554108822234 169 173 176
-93.213741604686660 -145.282825155723600 -14.010694922606405 79 80 84
-93.210362832068228 -144.702821242079409 -14.018281587497682 21 22 26
-93.187291399992432 -144.177894809232185 -13.702145558232758 40 41 45
-93.216893300916382 -143.506741438828300 -14.249187053699984 80 81 85
-93.246550483595172 -142.838330659469648 -14.796173871697789 138 139 143
-93.282844304949109 -142.155126244927686 -15.450996907741057 147 148 151
-93.286269535186605 -141.561517554456344 -15.566327486711060 154 155 157
-93.316077435862809 -140.900508627772524 -16.113166010747562 148 149 151
-93.365696394540237 -140.192077735644915 -16.983591785417445 123 124 126
-93.421959662710307 -139.471563692441549 -17.961822208065371 92 93 95
-93.432146124659795 -138.869186505449818 -18.184867380419973 66 67 69
-93.429183662954159 -138.299718527674855 -18.192146431916882 63 63 65
-93.419655695175180 -137.745895895461842 -18.091546468692684 70 70 72
-93.423340674607118 -137.160820091916065 -18.206664951246722 64 64 66
-93.427053503022407 -136.576298156694492 -18.321764409697636 66 66 68
-93.443987627164248 -135.962694142815110 -18.652555971877973 55 55 57
-93.454353605459417 -135.365274163692220 -18.875464237197292 48 48 50
-93.458146050585086 -134.783222160544710 -18.990500183035266 48 50 49
-93.448758234845201 -134.229724552969259 -18.889829825914120 53 55 54
-93.452591959187345 -133.648227438184989 -19.004840312171751 52 54 53
-93.456445813439601 -133.067278051512375 -19.119835530308791 53 55 54
-93.466923967577543 -132.473688094085588 -19.342650706752067 52 54 53
-93.477422466874373 -131.881187496670805 -19.565444936811161 49 51 50
-93.481332159984859 -131.302419617953888 -19.680390986472503 46 48 47
-93.485257285898641 -130.724196290199899 -19.795324047797124 48 50 49
-93.482586188179425 -130.158617656571408 -19.802423676788464 45 47 46
-93.493149404618521 -129.569380581618475 -20.025153353312390 42 44 43
-93.483888050346167 -129.015902001850179 -19.924422301595882 44 46 45
-93.481247097112316 -128.450592984404039 -19.931504734273972 53 57 56
-93.478613711523849 -127.885282176692343 -19.938583565044524 46 48 47
-93.456136229426889 -127.352196781689855 -19.622247376441777 44 45 41
-93.380711591709399 -126.901245987741603 -18.443524393526928 44 38 34
-93.252308691625203 -126.525909581030589 -16.402496613497021 52 36 31
-93.176827135605365 -126.060825803557151 -15.223946338002122 64 46 40
-93.154296187046256 -125.512514053948081 -14.907792460088643 80 56 50
-93.171498712076271 -124.906262388667685 -15.238379938786466 91 65 58
-93.182085415638184 -124.310748694978287 -15.461162987541059 98 72 65
-93.239057083388360 -123.654430232292853 -16.438393716898730 103 74 68
-93.236408321098011 -123.080120120435495 -16.445572538189225 107 75 72
-93.260270855191294 -122.472614341485496 -16.883845685522260 127 95 93
-93.211217385249029 -121.955561617124175 -16.136622786394923 131 99 96
-93.235080962280776 -121.349403151358928 -16.574881566218295 134 102 98
-93.225791085648552 -120.782825209696398 -16.474298997813520 138 106 102
-93.229760630142877 -120.201276340923684 -16.589245040905695 142 111 104
-93.207189611594970 -119.648021746952068 -16.273161211517589 145 111 105
-93.231055300218486 -119.046458591124392 -16.711371679329034 154 118 111
-93.294746631489758 -118.408688169881799 -17.796055705303473 154 118 110
-93.311988263248622 -117.819214566120436 -18.126451770460392 146 109 101
-93.309311120654215 -117.248922576283846 -18.133602808242586 138 101 93
-93.299984797388518 -116.684205542094134 -18.033018520526866 133 96 88
-93.297289105038701 -116.113630397125689 -18.040181347106454 139 99 91
-93.281297125399931 -115.553124291541110 -17.831883656427664 153 112 106
-93.298513463703074 -114.967697853715862 -18.162250162375045 152 111 107
-93.295789076385248 -114.397378031247868 -18.169424088366185 150 109 105
-93.319642896074498 -113.810164304745598 -18.607492528350548 151 110 107
-93.316901293287216 -113.240921177462596 -18.614663607198878 147 109 103
-93.327447660751986 -112.664315753344667 -18.837271320286760 146 111 102
-93.331335771183390 -112.092199650957340 -18.952159224952453 141 108 100
-93.335213854840788 -111.520622629709393 -19.067046377359532 137 110 102
-93.405620574949722 -110.920949069402880 -20.258984519125050 130 107 101
-93.416146190199910 -110.350576341968633 -20.481538003723273 137 117 111
-93.433320122368613 -109.778966796115554 -20.811782572409925 143 130 123
-93.370592963105992 -109.233565159929725 -19.849675159133682 177 167 161
-93.321145729050102 -108.679715997196283 -19.103019399633723 191 185 180
-92.601523936287137 -145.534088924696022 -12.859825868497865 196 201 204
-92.605029420534819 -144.931974747992683 -12.975205605467096 201 206 209
-92.560813059555088 -144.458897336871530 -12.336074874922275 162 166 169
-92.543920497189461 -143.910261829443954 -12.128085829902972 35 39 42
-92.533887832286666 -143.342754062887451 -12.027868180015446 0 1 4
-92.558031301978019 -142.687039120150871 -12.466503169862392 0 1 3
-92.561733096610965 -142.085314401629915 -12.581784983727459 14 15 17
-92.585965822931158 -141.433170688096737 -13.020340513052872 49 50 52
-92.664903913561503 -140.649441735225111 -14.320950735941665 108 109 111
-92.737073188797169 -139.888699395840689 -15.513703639233114 147 148 150
-92.795632096741386 -139.166305614875682 -16.490855184766957 159 160 162
-92.847407320655876 -138.464721846369542 -17.360178928655358 156 158 157
-92.878716672511672 -137.814402203577572 -17.906189133425187 138 139 139
-92.903225381760834 -137.182173128290543 -18.344407642087646 95 97 96
-92.900405268020037 -136.612494231949029 -18.351620765896854 69 71 71
-92.924976624953686 -135.983542175071506 -18.789775572125052 74 76 76
-92.942736354825144 -135.371318908464502 -19.120157954629036 66 67 68
-92.946834284319706 -134.789285395103690 -19.235047567467348 60 62 63
-92.937261262660400 -134.235810738345521 -19.134465575978936 57 58 60
-92.934550639032864 -133.668063100559806 -19.141606440678771 56 57 59
-92.952402602019248 -133.059932508443694 -19.471902571222103 58 59 59
-92.956577371118570 -132.479814834339493 -19.586735703561061 50 52 52
-92.988173900814189 -131.848567024424938 -20.132412207480002 51 53 52
-93.006090832222156 -131.245330587077035 -20.462626879359561 47 49 48
-93.003465552380121 -130.680850380012600 -20.469693282579101 49 51 50
-92.973430507415486 -130.164784719407578 -20.045938528550494 47 49 48
-92.977676716120257 -129.587383915090982 -20.160709518321482 46 48 47
-92.988791534616823 -128.998964078655121 -20.383166898065213 55 57 56
-92.999918818096262 -128.411628462675282 -20.605607154178131 44 46 45
-92.969897022806691 -127.891479757770142 -20.181888090376503 58 59 57
-92.919286802064903 -127.401391129838160 -19.435132380505451 54 54 50
-92.800038122941530 -127.012234490104291 -17.611585280988010 21 17 12
-92.667023392597713 -126.634241827773721 -15.572791126919725 28 18 13
-92.568289589290430 -126.196268660944853 -14.072508928929153 30 16 8
-92.538185710830547 -125.654094826613331 -13.649055849156525 44 29 20
-92.549277871512444 -125.053418821696610 -13.871650227220300 76 61 52
-92.601587394022317 -124.399130316125451 -14.740231530591586 104 88 81
-92.688265658551359 -123.704963031924621 -16.147075862491249 96 78 71
-92.713133466205548 -123.095003421667485 -16.584893348916864 134 116 111
-92.758625986174607 -122.462309285395406 -17.345654716325186 134 119 117
-92.701027324678549 -121.953845832144239 -16.491572508943875 156 141 139
-92.712153985777164 -121.363456867292172 -16.714044492455429 161 148 145
-92.737033126020719 -120.759177024835253 -17.151798092705917 158 145 140
-92.741284464908247 -120.178705640127703 -17.266598235241531 158 145 140
-92.704260140665056 -119.640424001873626 -16.735556923760385 157 139 134
-92.722255646008165 -119.046055045772931 -17.065642728699515 157 135 131
-92.774656892510265 -118.421315756274424 -17.933875986702020 146 122 118
-92.778893129450267 -117.843806605992640 -18.048652862190579 134 109 105
-92.748704689790955 -117.296111242918840 -17.625297072075028 122 97 93
-92.752921467358632 -116.718317477005243 -17.740086186552219 125 98 94
-92.791561909259002 -116.114500991387388 -18.392969427536087 129 100 96
-92.802657165104790 -115.534099853859729 -18.615353625488865 142 112 108
-92.813746530066410 -114.954779541516785 -18.837729516143781 144 112 110
-92.776599073859074 -114.408017994826068 -18.306834398529702 140 108 108
-92.794557570898164 -113.824732753195093 -18.636823817873648 141 111 111
-92.778048099805105 -113.262839264798771 -18.428787974361001 140 115 113
-92.789096363718528 -112.685126982413379 -18.651166975356375 145 123 118
-92.772555450607811 -112.122136294178617 -18.443157467626321 156 139 134
-92.797375112259417 -111.539224686386945 -18.880719568257405 174 162 157
-92.891170451351499 -110.929817676829259 -20.394145520915089 187 179 175
-90.892850582316328 -0.528549469790789 6.336759468238938 127 129 115
-92.480874599180865 -0.660411335011429 -15.628249373660623 114 118 104
-92.673191490856539 -1.331730041224375 -18.411666419137873 114 116 103
-92.795843998837285 -0.828699572028594 -19.910192213944356 119 119 107
-92.878180447261713 -0.732040596809572 -20.980386547837838 118 118 106
-91.941282260086211 -144.703357160440333 -11.188774434078113 193 198 201
-91.923958899715544 -144.151237034341960 -10.981027350278225 201 205 208
-91.913739632883008 -143.580240414154360 -10.880934882637376 209 213 216
-91.931847496997108 -142.938561140544948 -11.211453924390469 178 182 184
-91.907549959997525 -142.402139981752583 -10.896022780506939 96 99 100
-91.918658455916102 -141.779123333042435 -11.118839307319064 24 27 28
-91.965192477902590 -141.073585013930796 -11.879852245499933 0 1 2
-92.025934175901142 -140.338958136599189 -12.856085473160050 0 1 2
-92.086729321345402 -139.609234174319397 -13.832242663577716 0 0 2
-92.182984599944504 -138.804862595533280 -15.346498657860025 3 5 4
-92.293469274900872 -137.976831367296398 -17.075908668197656 39 41 40
-92.354430295439158 -137.265067517462228 -18.051801632079133 72 74 73
-92.351666869178288 -136.694054715862421 -18.059001367349168 132 134 133
-92.384359782111019 -136.048932512580478 -18.604296181386417 140 142 141
-92.417085854221213 -135.406532311505543 -19.149547113250662 97 100 99
-92.442754142586523 -134.781132991252463 -19.587140581139096 85 86 88
-92.440086969961726 -134.213943441940103 -19.594254914343139 74 75 79
-92.437436188477605 -133.646756566499448 -19.601361378558153 69 70 74
-92.448987329986494 -133.052641548625644 -19.823668646232022 70 69 74
-92.453462912479239 -132.472807443412563 -19.938354951557557 62 62 64
-92.493433192666444 -131.828908352110659 -20.591014592859381 64 66 65
-92.512138812907182 -131.226218647676347 -20.920846330908205 60 62 61
-92.509567427612808 -130.662292893125112 -20.927881243902647 54 56 55
-92.471507643604042 -130.158899244083045 -20.396976173224886 48 50 49
-92.454746441145687 -129.617281362594014 -20.188852050127025 48 50 49
-92.480599983988000 -129.005192982113982 -20.626219876718778 61 63 62
-92.485159937717896 -128.429149822332590 -20.740826797027978 38 40 37
-92.454205317411208 -127.908746992551983 -20.317556609352096 50 50 48
-92.345082653620665 -127.504400609359550 -18.711039384309572 36 34 30
-92.214606185896173 -127.123330526874639 -16.781921496456704 6 2 0
-92.091196618076296 -126.722270387288560 -14.960487480533146 13 5 2
-92.024622145972842 -126.232499563333405 -13.999647972635699 11 1 0
-91.986468772546942 -125.699185144737470 -13.469095664326233 9 0 0
-91.969638394134805 -125.134976988095801 -13.261237167818081 11 2 0
-92.009706021127656 -124.496726800247245 -13.913792091740788 8 1 0
-92.064014718449499 -123.844035976369298 -14.781400550994334 101 94 90
-92.161032676490734 -123.144233396394668 -16.294215300810066 199 194 188
-92.286547769664196 -122.418816309001230 -18.237096321532988 189 191 188
-92.390748877259853 -121.727268190848875 -19.857248594821897 186 188 185
-92.195979831703553 -121.369792523871595 -16.960915222371369 186 192 188
-92.340340744589597 -120.069542777352510 -19.233274163634746 185 191 187
-92.285303885276107 -118.978942591462499 -18.494817509620276 185 192 185
-92.311199391899180 -118.382765585713713 -18.932001477109850 186 191 185
-92.365601680990210 -117.764234781174366 -19.799213536142247 190 190 185
-92.220437158859468 -117.314077773825545 -17.656115739753886 191 190 186
-92.286438984606207 -116.115391490929738 -18.745468221834869 193 189 183
-92.326573370246152 -115.515070643434640 -19.397600782895267 195 188 183
-92.316781381786313 -114.951404230647242 -19.297228453238375 188 178 175
-92.249901725956860 -114.423186074261423 -18.336930701896335 187 181 178
-92.254339633339086 -113.847790328982754 -18.451589344597210 188 187 182
-92.158853507967962 -113.328320340519525 -17.061451241260102 183 188 182
-92.277458226329983 -112.691242363714707 -18.895869957842450 182 186 180
-92.004848667039866 -1.123272024377099 -16.848944054603948 114 118 104
-92.115805567996858 -0.509725912129692 -18.132484810912700 116 118 105
-91.389815562940925 -143.568480166545072 -11.242558300893222 191 195 198
-91.357506271711244 -143.049900982804473 -10.819917411438666 192 196 198
-91.332539341252442 -142.511894420748945 -10.504822822443828 196 200 201
-91.322238717686488 -141.938274719642834 -10.404796276274993 198 202 203
-91.348578706275191 -141.280487429408737 -10.842401790724296 205 209 210
-91.338339557957170 -140.707166280490611 -10.742342761859959 200 204 205
-91.364751507901545 -140.052391362384071 -11.179882842383790 204 208 209
-91.442485936995212 -139.288410732558219 -12.370006728495639 206 210 211
-91.556913141046564 -138.452209817096019 -14.097614741122840 201 205 206
-91.744696304382899 -137.471014856769926 -16.900210860018518 192 196 197
-91.785960678566255 -136.805907188710762 -17.552469721723213 189 193 194
-91.871250766325687 -136.055107547259325 -18.849702213013558 194 198 199
-91.890594063336806 -135.441821896140311 -19.179337958083408 191 195 196
-91.902628501711490 -134.844452101759288 -19.401447521242858 171 175 176
-91.907349033463049 -134.262182327582480 -19.516041715246843 143 147 150
-91.919424029822949 -133.666717588090421 -19.738112265918232 112 113 118
-91.946193903973040 -133.045403980896424 -20.175136682646155 87 88 92
-91.950969134015807 -132.465852193425320 -20.289676731572570 75 76 78
-91.963098948535446 -131.873917977015225 -20.511684715976600 74 74 76
-91.967902702922245 -131.295721669839850 -20.626197166314938 71 71 73
-91.965375626715783 -130.730447711660133 -20.633224759730808 64 64 66
-91.955512998080536 -130.177280576656813 -20.532778149751095 58 58 60
-91.953000567056804 -129.611728459802237 -20.539801600188724 56 56 58
-91.972533751660876 -129.011472709992915 -20.869212380365070 61 61 63
-91.970036629782840 -128.446726839772651 -20.876220207858239 44 46 43
-91.916102121360282 -127.959138500616376 -20.131029089090561 63 63 61
-91.773954027404216 -127.596760543910065 -18.096443574858654 19 16 13
-91.624411679826579 -127.234533894392285 -15.954535003812566 16 12 8
-91.548347073338761 -126.759352063949294 -14.887226486915552 13 7 4
-91.516380745919633 -126.219110713776374 -14.464644504310854 18 11 10
-91.484404508700734 -125.676689070493964 -14.042089705372632 6 0 1
-91.437705469342319 -125.150873416083456 -13.404689540885926 54 50 51
-91.435133083847205 -124.567060482798055 -13.411929641094133 197 196 196
-91.454632872087629 -123.956689946121500 -13.741460514558838 195 196 196
-91.628687409154395 -123.167797692178596 -16.326927123001809 186 188 187
-91.321603172373273 -0.874613758457488 -15.182905993160659 116 119 105
-92.477611124017798 -0.558822124104188 -29.599075817754056 120 122 108
-90.963671559132791 -141.553483798618885 -13.130048775285104 192 196 197
-91.293785225176194 -140.232741747842852 -17.863509526898213 192 196 197
-90.864366501011418 -139.993972773452924 -11.863302186068495 190 194 195
-90.732870090815638 -139.676711543709843 -10.044874303542258 190 194 195
-90.820956950615340 -138.896545702380564 -11.341071109722748 191 195 196
-90.780342571456060 -138.384235590960287 -10.811479930235066 191 195 196
-91.209388902780717 -136.932967935376695 -16.940120703477305 189 193 194
-91.320393436709608 -136.135492780403780 -18.558108601131806 189 193 194
-91.340522960334198 -135.520859122967806 -18.887382093790876 189 193 194
-91.353097818725502 -134.922142919556933 -19.109246981131321 187 192 195
-91.358113053002057 -134.338528382312290 -19.223714032779327 187 192 195
-91.401050907452500 -133.686744115677868 -19.875035162796507 192 195 200
-91.421269138436315 -133.078631571571293 -20.204199093063551 189 193 196
-91.426339247812422 -132.498545992554881 -20.318603567312181 158 162 163
-91.416252856784425 -131.944856894330030 -20.218269377323765 122 122 124
-91.421345658177700 -131.365309431619409 -20.332657456687713 91 91 93
-91.434036524217063 -130.773917215800481 -20.554391456883423 112 112 114
-91.454327929469272 -130.171494555123559 -20.883461812002849 75 75 77
-91.451864116053201 -129.606220600064916 -20.890459140684499 71 71 73
-91.464587096516169 -129.017802317526304 -21.112147165260808 63 63 65
-91.431767575947958 -128.498252415961332 -20.689760359859122 70 72 71
-91.353383352951994 -128.042680881242632 -19.623359680923357 65 65 65
-91.199035193804136 -127.689216131611019 -17.483660003022408 8 7 5
-91.082618638723488 -127.272463542261960 -15.880759853884030 11 7 6
-91.026940277485636 -126.765863409945965 -15.136598686263397 15 10 9
-91.024429596151080 -126.185874713249788 -15.143769902624371 6 4 4
-91.014318551389294 -125.615546019405741 -15.043618786614445 114 113 114
-90.973802248802471 -125.082251112292710 -14.514196694674638 197 198 197
-90.933271003295772 -124.546231068839063 -13.984809802573807 187 191 192
-90.916098224893389 -134.218722656665079 -20.434135596250059 187 192 196
-90.835357402144822 -133.789308992401487 -19.368593050457036 188 193 197
-90.903314592208972 -133.098454423691493 -20.340923841083622 189 192 197
-90.916507774800678 -132.504903100609141 -20.562439759538250 191 195 198
-90.890569386852249 -131.977088709575781 -20.247704999340044 195 196 198
-90.888123576439554 -131.409662986883347 -20.254715864671851 194 195 197
-90.885685222596550 -130.842232524710710 -20.261723211592113 157 158 160
-90.930249376398734 -130.202101369705332 -20.912146374241843 124 125 127
-90.943497408976171 -129.612601011032694 -21.133594354039587 140 141 143
-90.948919361883497 -129.035753491543602 -21.247797176575517 80 81 83
-90.907329912149294 -128.527248391573352 -20.718633300614300 102 104 103
-90.810869921971204 -128.093225074356809 -19.438940430271316 93 93 93
-90.675191111509434 -127.706463129827029 -17.623228799467711 5 3 4
-90.586511187145689 -127.247540795983795 -16.450929155313815 15 13 14
-90.537009223544587 -126.731561728721630 -15.814768647244108 10 7 8
-90.534543580833613 -126.152657654048554 -15.821907152722588 118 118 118
-90.492860003683219 -125.622099970064042 -15.293015305320182 194 194 195
-90.466850076411461 -125.070017622419101 -14.978564571557627 184 188 189
-90.534714517544202 -0.727644562763871 -19.219206858540247 117 118 104
-90.705468194121323 -132.022712468403483 -24.770142544018711 187 192 195
-90.501271882887067 -131.789511053704530 -22.098757695686771 188 192 195
-90.426220126318128 -131.340127549942849 -21.141557964644278 190 194 197
-90.383457370343422 -130.836286479757888 -20.612907385165187 192 196 199
-90.405304111906588 -130.232770806448229 -20.941244923652789 191 195 198
-90.427162007017685 -129.630877933123628 -21.269560422025819 180 184 187
-90.416713120335316 -129.076910288321329 -21.169402515935786 146 150 152
-90.365862431974492 -128.578911888185161 -20.533702149128715 147 149 148
-90.282673411625993 -128.121775249822917 -19.469616179174949 143 143 143
-90.175214097039969 -127.691479388553404 -18.084288094429184 4 2 3
-90.100059696250270 -127.212155014630866 -17.127445664447663 2 1 3
-90.049137990445473 -126.697279011800717 -16.491953001785447 193 191 194
-90.014372232682803 -126.159241762591833 -16.070687569142962 194 197 198
-89.916342770995996 -0.906488310697827 -18.515462889662814 116 117 103
-89.968691612472384 -0.552869909558625 -19.048353779785231 118 119 105
-90.106465111516940 -130.495754349012742 -23.852973578401475 187 192 195
-90.120800438939824 -129.911961279976310 -24.073842652072784 185 189 192
-89.885475327082659 -129.684760683218002 -21.084711291063201 188 192 195
-89.858174667872518 -129.152869359925376 -20.770670202678986 189 193 196
-89.822544098291104 -128.630646425427130 -20.349655708360530 190 194 195
-89.753602421456634 -128.150383189414555 -19.500709681633850 190 194 195
-89.676315491028845 -127.676527778351655 -18.544831151739430 59 60 62
-89.623990422520237 -127.166295808178674 -17.909962049623289 145 146 148
-89.596636325308040 -126.622131788136855 -17.596072854828975 201 202 204
-89.510961379281966 -126.145969686245351 -16.533371981852071 184 189 192
-89.165978207545677 -128.829485642804599 -18.777106784372847 187 192 195
-89.146524492340092 -128.278396309260074 -18.570368244558153 190 194 197
-89.169918768662313 -127.672374335773995 -18.897991246328303 189 193 196
-89.124741877598765 -127.151934215483124 -18.370666443162150 187 191 194
-87.340404118919395 -0.793710145154564 -2.011522406274452 122 124 110
-88.055890612708836 -0.558119740210263 -10.096936424472631 113 113 95
-88.178629365289765 -0.557630754125886 -11.479389163296730 112 113 97
-89.900873418685734 -0.526363184449412 -30.499535765077695 122 124 111
-90.008974871439861 -0.524409984500939 -31.667288240014358 121 123 110
-87.537964892015793 -0.767804343758898 -10.785987464672473 117 116 98
-89.408902193932732 -0.653768703069334 -30.955299433498055 123 125 112
-88.701843920035259 -0.849501132119626 -29.185220102428929 123 125 112
-87.151029735475461 -0.523536548011219 -18.733732232823087 119 120 106
-88.001684725703711 -0.722279364188086 -32.847249966234585 119 121 107
-85.960849320314423 -0.674465303057766 -23.514194505321342 126 124 111
-85.445467940666518 -0.744628284367338 -23.870887852872357 126 124 111
-84.602797223718269 -0.565584150583797 -21.171812848866750 122 123 109
-84.909577805758602 -0.714871963459749 -24.016703268373618 121 121 109
-85.175199213803126 -1.325972540156784 -26.543953770103968 123 121 108
-85.142318807652941 -0.539538593335778 -26.124343263704844 124 125 111
-84.502978485734118 -0.644691282281110 -25.320530243579327 124 122 109
-84.621702965415096 -0.559747678342126 -26.373196075845527 124 125 111
-83.958081999610528 -0.564266202088836 -25.360316940703598 126 124 111
-80.958011129927840 -0.721234294358511 -18.922943980596102 122 120 105
-81.062693430753455 -0.506194922951993 -19.761948914342213 119 120 104
-80.532440926840977 -0.963178890333249 -28.879626722753130 125 126 112
-80.604933732350958 -0.633432896491215 -29.402635078848846 126 127 113
-80.742186681790301 -0.560165156273679 -30.446316769162166 126 127 113
-78.565379748499254 -0.625781075803840 -22.396589763477664 126 127 111
-77.661267080099350 -0.601650646098970 -24.048810285761590 127 128 112
-78.850720285982504 -0.615260613861592 -32.570068418415104 119 120 104
-78.425852640158396 -0.939264863058226 -33.435141814873077 122 123 107
-76.933193222529070 -0.537527985982622 -26.836673838598387 125 126 110
-74.050183991090535 -0.522198983580142 -22.673109115888650 128 129 111
-74.371137847866635 -0.924717604349670 -38.700819762962368 132 129 114
-74.021735354614052 -1.407141612356376 -39.860736849703756 132 130 115
-73.114041413843694 -0.746400635683114 -37.641162620363161 138 136 121
-73.406842403422885 -1.059639113853458 -39.382464353220996 132 130 115
-67.048515662176598 -0.692422260167421 -28.681544289123309 125 126 110
-63.959814874518045 -0.580053064070829 -38.696458970220334 132 131 114
-63.173037212192384 -0.505186920127392 -37.632455837891797 130 129 111
-63.474458197187161 -0.642953477559174 -39.038863360357965 128 128 111
-62.771370387423225 -0.769963292841659 -38.376180818448489 129 130 114
-62.924923516074863 -0.553047494651578 -39.080966545760845 128 129 115
-62.306751514799210 -0.882744699849324 -38.819009748693730 128 129 113
-62.440059633804481 -0.615652239953108 -39.423138227891855 130 131 115
-61.666486857508765 -0.590617986025526 -38.463163863592314 130 131 115
-14.451363443406137 -0.649620028151713 168.206064288199627 197 196 192
-14.440544666639326 -1.767259191091143 163.334602107334945 193 192 188
-54.720180800872662 -0.689858682028386 -15.511675610651963 121 122 108
-10.363845664544570 -0.652583918152412 176.338798830202478 206 205 201
-11.845008030565850 -1.132417748174540 169.846493479936697 197 196 192
-12.683859416078079 -0.940603203506516 166.144043921898714 193 192 188
-13.316325576063903 -0.539250048183130 163.338433457499832 189 188 183
-14.522875134559257 -0.797908223713552 158.042784228332522 185 184 179
-9.563410939066131 -0.906347695463309 174.849896870029198 205 204 201
-10.642991424522563 -0.939235158563045 170.156335409695998 199 198 194
-11.282091828354098 -0.517992090937228 167.353694007953550 195 194 190
-12.292533999263242 -0.520297104821903 162.959318869175490 189 188 183
-13.720841870131068 -1.010721513715330 156.774413778508432 183 182 177
-12.359934416065315 -0.604609132920872 157.892922157262433 186 185 180
-10.361659859740229 -0.609944455307746 161.703941429762438 191 190 185
-9.289490206709246 -0.539942521128228 161.522875232529373 189 188 183
-55.152921815647687 -0.700802201894052 -35.148281546113054 135 136 120
-3.160827883941707 -0.545522249961589 163.579651440986851 182 181 177
-0.543621028592781 -1.213438097657852 169.429432480685023 199 200 195
-1.675924884619064 -1.198563011642213 164.982319826040936 191 192 187
-3.204622522575207 -0.502693815602808 158.944088624743756 181 181 179
-4.617000981565042 -0.836948415137099 153.415108733257853 178 179 174
2.243234487531197 -0.673541697245021 175.739915988955119 204 205 199
0.407974149726954 -1.294210701446719 168.642447387398136 199 200 195
-2.227735036883388 -0.534767167916044 158.366220262285935 183 183 181
-3.448648151204694 -0.663038075071444 153.630394791939722 177 178 174
-4.592864517611503 -0.739280665938684 149.189918961450729 174 175 169
-54.506117748271585 -0.523502303463636 -43.884810685765387 134 135 119
-54.867928167753924 -0.674995622523890 -45.262186813317186 134 135 117
-55.126701588431388 -0.627257424953961 -46.247470738320118 135 136 118
-1.380683023994123 -0.694350928054478 157.297482849059321 183 183 181
-2.354444705938477 -0.566474917274441 153.549373180929393 176 177 172
-54.445932809587475 -0.838864451936952 -45.794957816764679 136 135 117
-54.785176621777275 -0.946922282836728 -47.072717950272619 138 137 119
0.942946302196432 -0.521596491443678 161.837891426888206 182 183 178
-1.545692171298285 -0.753401531983168 152.388380675635034 178 178 174
-53.815237679743376 -0.591883784420820 -45.544928076520932 136 135 117
-54.131308720308411 -0.647018360975936 -46.723459865267415 137 136 118
2.843050608417386 -0.800987069172289 164.700966034671097 191 192 187
-0.977703975853814 -1.172231226185515 150.347226135551807 176 177 172
-2.128667835784967 -1.227410963998932 146.020620357229234 173 174 168
1.143486751098308 -1.173083208565527 154.099396584074100 174 174 170
0.301488006710841 -0.895341989792793 150.951862649913750 173 174 168
-0.806978972825448 -0.895413697992440 146.826077024885706 171 172 166
-4.630374885723981 -0.500405714068690 132.576572195029769 158 159 153
1.424940606680551 -0.773095709226361 150.967442859186775 173 174 168
3.679780940029246 -0.676495325455557 155.098108207642809 175 174 169
8.371497283461835 -0.650665149473811 167.930149657009451 188 187 182
-51.589078961427390 -0.591410717993218 -47.718508495444951 134 133 115
-49.204503816716354 -0.562525540981828 -41.321174226080586 135 136 118
-49.703748347519365 -0.889064265750555 -43.074436055247020 135 136 118
-50.785845722467712 -0.596885985537853 -46.883268429905542 133 132 114
-48.858608628168916 -0.870748848386588 -42.148629910833876 135 136 118
-49.194182021834330 -0.897784301242199 -43.318121079101644 135 136 118
5.179722875554177 -0.830801818670377 144.404829838467208 165 162 157
-47.556661671134833 -0.646178119211046 -39.669739713935058 139 138 118
-47.810140503159879 -0.510874437608296 -40.547599022596728 136 135 115
13.892358661562554 -0.627932192958529 170.720839857016813 193 192 187
6.178742535772386 -1.894834645835882 144.048713766706243 171 169 164
6.046745916707209 -0.941590850242791 143.547753854961513 165 162 157
-46.696591105064563 -0.647030406882344 -38.750879132597078 139 138 118
-47.066079096303355 -0.703906779264956 -40.014697390980274 138 137 117
-47.293205939623761 -0.519317920614389 -40.794811832876803 138 137 117
12.217584153420518 -0.712998499022766 160.880468918921792 178 177 172
8.245831822909707 -0.922936654169984 147.262458729839040 161 160 155
7.369346214425448 -0.636021994296144 144.242187651334348 163 162 157
13.328679942921568 -0.645210466630606 160.680803380232334 176 175 170
-44.344340961210946 -0.529064887482378 -36.884211924077107 135 134 114
15.173832423488676 -0.592396398967083 155.141471949792532 170 171 165
16.278745576672776 -0.523926280721937 154.944757142072490 170 171 165
-45.906267506023994 -0.888594545151737 -49.658074759793919 136 134 119
-46.026539152346501 -0.533348090106760 -50.047629486354140 134 132 117
20.988110496559187 -0.588355755469329 162.558917069623078 177 178 172
15.512898279130454 -0.688335240004152 145.002951910517680 162 163 157
-42.795165794572824 -0.570844327673860 -41.615821814039748 137 136 118
-43.250723873298128 -0.733041581689474 -43.059098086690625 136 136 117
-45.255166209645338 -0.640469915291670 -49.417819035052929 134 132 117
20.570566052587012 -0.645836474518060 157.438034102131127 169 170 164
16.506564324340516 -0.695470671426594 144.527658929071464 160 161 155
-42.337131085723072 -0.677257626940214 -42.055566453036050 137 136 118
-42.734907143659470 -0.740834055837337 -43.305782830226946 136 136 117
-39.169387332646352 -0.665605684686145 -34.037260042525361 139 140 124
-36.986165212376918 -0.623232520837211 -29.206621288879973 142 141 123
28.767571832204410 -0.586063860490082 164.269311201888996 172 171 166
-36.342667890815065 -0.511992773795263 -34.947698609492534 138 139 121
-41.659615953145575 -0.542280468699832 -50.806352011786117 139 136 121
21.828668099662607 -0.976250487757143 136.330669802359267 157 158 152
20.998669982724664 -0.576645370186181 133.841293712355110 155 156 150
15.643792514052180 -0.843403381837693 117.892360830886673 151 152 146
-36.640417999382407 -0.559574017455376 -37.687097208444470 140 141 125
-37.027280405375976 -0.541762488222982 -38.832513521534310 142 141 123
36.636951941395438 -0.651320004542280 176.690695644291338 177 176 171
21.486420050986780 -0.978081301737168 131.949204659466261 155 156 150
16.382940359930743 -1.014658938403189 116.875364544957478 150 151 145
15.513198245104135 -0.732330975753745 114.295350155062295 153 152 147
-36.528643956344851 -0.597111440793706 -39.181348639914830 141 140 122
31.247286535790280 -0.763987240778157 157.209334741393377 156 155 150
24.087464527107571 -0.757354861865501 136.245546095619034 157 158 152
22.982517864408038 -0.565337860082983 133.002970176857758 155 156 150
16.603299713714023 -0.601419952951996 114.326796240715055 153 152 147
-36.030518847832596 -0.652409489628213 -39.529939658721588 142 141 123
-36.390373153905941 -0.592955994297296 -40.577846310992953 140 139 121
36.117270052915202 -1.421747548170314 167.856811512677126 170 169 164
35.764038520924828 -0.509174768017599 166.796954962616411 168 167 162
33.332278689953171 -1.137858100462136 159.763214399627316 151 150 145
31.329114221953759 -1.486528337434954 153.962718472602205 157 156 151
30.876502556908690 -0.697721856640302 152.619102371481006 154 153 148
-20.397829228085953 -0.641529029399878 3.875551392021634 62 70 66
-35.632367115278967 -0.852258518476841 -40.161792476057741 141 140 122
-35.895419041624152 -0.648517724740643 -40.924917621865035 140 139 121
39.999995294729572 -0.606015571756044 175.413937545079847 173 172 167
37.052029374483809 -1.525396999733062 166.967257233517557 169 168 163
36.596317178842767 -0.686162542481877 165.624605335111227 167 166 161
32.526950538814546 -1.371412283794748 153.942787161688159 156 155 150
32.070849805446741 -0.581222540221902 152.600825980274379 155 154 149
-29.658829791368149 -0.564293251622841 -24.841619300439731 134 136 115
-35.002399173412215 -0.714661022657197 -40.132006685483503 142 141 123
-35.300773431910642 -0.558617007606681 -40.988601666680211 141 140 122
-35.699434492236946 -0.553371417178715 -42.128244196459008 141 140 122
-36.164988624028325 -0.652367373888266 -43.456530069368910 140 139 121
34.631451329945619 -0.591273104297301 156.475455149808369 157 158 152
-20.053068017399042 -1.767715653688937 0.618162437469664 60 66 59
-28.322258247104045 -0.814214138535508 -22.928703631422451 141 142 124
-28.587982990035812 -0.533309331894633 -23.691344398885093 139 140 122
-29.089195535558119 -0.570935883706345 -25.114061999927429 135 137 116
-35.443199394885482 -0.950341601969570 -43.133611054562550 141 140 122
-35.878508365838172 -1.002541878555912 -44.365988915269156 141 140 122
36.506381043107510 -1.138262125048580 158.355597757539130 155 156 150
-19.315588624676636 -1.654708723945423 0.596768241522796 64 67 60
-19.074128966029477 -0.671678689277716 1.247148140945058 61 64 55
-33.907552337683597 -0.680355718137210 -40.545271895687677 143 142 124
-34.750309074035158 -0.713619663592882 -42.913229682256315 141 140 122
-35.154870331682147 -0.715465399893505 -44.049976583272667 141 140 122
-35.491728302663333 -0.624938832042239 -44.998345569252052 139 138 120
39.277006186063929 -1.072874337853317 162.683270247659379 150 149 144
32.255136817976506 -0.524152857738104 142.978212155091228 149 150 144
-18.372082376072740 -1.303147782992066 1.139509257169465 61 64 57
-18.742557275638092 -1.038346387653539 0.094569711327608 57 60 50
-32.901371290596288 -0.608440165505950 -39.475341333738157 140 139 121
-33.684071696765372 -1.120929524246462 -41.645379185048142 142 141 123
-33.954833832356186 -0.918736954065204 -42.404799856537920 141 140 122
-34.191533955926559 -0.671828480348360 -43.070117076161438 140 139 121
-34.667277216312016 -0.771448359257747 -44.393522082532769 139 138 120
-34.904131819305462 -0.533383137527879 -45.058674371694565 137 136 118
-35.380043678084036 -0.645675322925181 -46.381868278755860 136 135 117
-36.161417586167346 -0.641595981706806 -48.557858023333779 132 131 113
36.189333805496588 -0.614106746818073 150.630895845290269 151 152 146
34.281636159945947 -0.888680914310771 145.338260634175072 150 151 145
33.297876093528458 -0.506870054863366 142.590050244226603 149 150 144
-17.115131341797991 -0.593796695958196 2.526346412322255 59 64 57
-32.539184219202170 -0.854822240734946 -40.200368677350014 138 137 119
-33.086834420088593 -1.031382828180702 -41.710299430338324 139 138 120
-35.205495360894645 -0.572961514892085 -47.574708924356798 135 134 116
-35.753745803119259 -0.798965316195214 -49.083843580107981 132 131 113
-35.958199616834065 -0.529567693901199 -49.653959931018733 129 128 110
38.657934044096322 -0.723328129777273 154.107123390020405 152 153 147
36.977909412037278 -0.796789157123664 149.479512225509893 151 152 146
35.263204025457540 -0.922139761312958 144.758167455647424 149 150 144
