ply
format ascii 1.0
element vertex 692
property double x
property double y
property double z
property uchar red
property uchar green
property uchar blue
end_header
-122.101735713862311 -2.250475755411683 5.210169478876111 1 6 0
-122.072364059128120 -2.033794745288631 4.196157809156176 0 5 0
-122.151980525342580 -1.063762290745516 5.000273216777032 0 4 0
-121.908970415263283 -0.776226288874168 -1.770474834657392 35 39 25
-121.778299219493874 -1.326414356924988 -4.487937362726285 46 50 36
-121.813117102973763 -0.703870187740014 -4.477688766488001 55 60 46
-121.541789790905156 -0.884031119741774 -11.811463855402053 77 81 64
-121.438896012675926 -1.298468230660101 -14.073599575248039 81 85 68
-121.242332789490249 -178.562100624949920 0.738377290995430 29 30 14
-120.369407167288458 -172.602332227014017 -13.487075954716630 28 27 11
-120.302608568488878 -170.872100335194034 -13.647701206392753 20 21 5
-120.367749404387112 -169.309006459918635 -11.193732296021864 77 78 65
-120.464766721314405 -169.302231419818867 -9.151929354474106 19 13 5
-120.491175840292627 -168.944946643878552 -8.366960839717706 41 20 15
-120.466488375338344 -168.338468508741101 -8.495872907364145 121 87 80
-120.512449485820397 -168.067569522375607 -7.368084919800964 108 71 65
-120.507397735092198 -167.550255300212712 -7.154108865357472 70 31 27
-120.515332562571203 -167.091892568530312 -6.711595489266813 100 56 55
-120.472488237995094 -166.394899919437961 -7.182702102444011 136 91 90
-120.461779487401373 -165.847009640042415 -7.082605956983315 83 38 38
-120.444950031887473 -165.269836807429982 -7.096598240727445 125 85 86
-120.491837126132495 -164.980535725442735 -5.968556687720621 128 96 96
-120.627557590073522 -165.084689778170230 -3.241943134903465 143 129 128
-120.995119795834555 -151.287043218497701 10.205796332431021 106 117 113
-120.823660855151701 -150.141756658078464 7.229650945079101 77 86 81
-120.720281224577377 -149.233158744534478 5.507958555596446 64 69 65
-120.617213761917739 -148.332951262246922 3.786501873098075 59 61 58
-120.459191991363952 -147.264224078887480 1.039290615846284 57 59 56
-120.430398237149817 -146.615825164310706 0.686264832010153 57 59 56
-120.334349458677849 -145.759033167232815 -0.920528353711063 59 61 58
-120.287587803850940 -145.060723155742920 -1.615240334366689 64 66 63
-120.234906553824118 -144.347278356862603 -2.423798903965405 61 66 62
-120.219132417089597 -143.747512556707562 -2.548377772507905 58 63 59
-120.154610903841032 -143.004333182086839 -3.584624526213275 58 63 59
-120.133061798055280 -142.390369980185909 -3.822971146063793 54 59 55
-120.105562743078167 -141.760159973712490 -4.175190322654316 52 57 53
-120.163610526977322 -141.372365918534200 -2.931964486703890 52 57 51
-120.136368810573458 -140.741841874587948 -3.284063785948490 52 57 51
-120.145826544526685 -140.212925981324901 -2.952406980676159 64 69 62
-120.112781650081359 -139.567897805932375 -3.418290683635973 43 48 41
-120.061647875239117 -138.876880276690997 -4.225878091257727 59 65 55
-119.955987191526276 -138.047402974271932 -6.058706185466463 50 56 46
-119.929544286906818 -137.428902168987094 -6.410299574656079 43 46 39
-119.885031561112882 -136.766316000593008 -7.103567951907905 66 69 62
-119.895284223257192 -136.242115996933592 -6.771482312692939 66 71 64
-119.875313595089636 -135.642729034074733 -7.008923753710519 40 47 39
-119.928184864712023 -135.217979297147764 -5.879413632764113 34 41 33
-119.920536747778499 -134.646039219865997 -5.888959732223043 54 59 53
-119.876686016338951 -133.990736438795579 -6.581836442080231 48 53 47
-119.820889529671817 -133.311525284789525 -7.502391831025818 79 84 78
-119.807572147177495 -132.730296923780941 -7.625604581587339 35 40 34
-119.806450133108669 -132.175870033065053 -7.520989458857713 25 30 24
-119.799386472267031 -131.608157342798165 -7.530212441907423 39 44 38
-119.786389842808447 -131.027975928569589 -7.653260968566997 36 43 35
-119.791595311036261 -130.485220640236776 -7.434639773408350 43 50 43
-119.790858363184299 -129.929446546360225 -7.329854303759419 39 44 38
-119.790212676211908 -129.373194216281092 -7.225030097943971 34 36 31
-119.765568809186107 -128.770659037695424 -7.575598491499278 34 36 33
-119.789190073522207 -128.259247354774914 -7.015267952368930 33 35 32
-119.782794855789319 -127.690644193404381 -7.024180320593047 34 36 33
-119.800543423748550 -127.164629718727255 -6.577668458071287 34 36 33
-119.758260714719682 -126.532897497065079 -7.269552407773148 35 37 34
-119.740131002219016 -125.944841364502068 -7.505996527117475 35 37 34
-119.716097425245636 -125.348116899826820 -7.856213147406294 36 38 35
-119.692168267515001 -124.753081513927043 -8.206362427350939 37 39 36
-119.662343629524898 -124.150464799812312 -8.670269008184022 34 36 33
-119.674595041964409 -123.613049512731038 -8.337363205230048 37 39 36
-119.686913558997176 -123.074046029493161 -8.004441647769539 35 37 34
-119.681327956706397 -122.508101204033139 -8.012939335154329 38 40 37
-119.657861402799583 -121.917666985433641 -8.362819944888912 38 42 39
-119.628506200148351 -121.321005810802163 -8.826440646105254 38 43 39
-119.629162723315133 -120.764730857643059 -8.720993700293604 37 42 38
-119.623912740986512 -120.200590402826776 -8.729312254945427 41 46 42
-119.636672116202973 -119.657751884673061 -8.396219268381941 41 46 42
-119.637543615683299 -119.099684761714229 -8.290687926342770 41 46 42
-119.632513654115058 -118.534565499123431 -8.298911299177149 40 45 39
-119.597708577694490 -117.938128578927376 -8.875995777881087 39 44 38
-119.580904202091148 -117.362442880686359 -9.111678525501731 41 46 40
-119.564182295923928 -116.787878413684709 -9.347310278630431 40 45 39
-119.553504953368019 -116.219886869609297 -9.469123789928403 41 46 40
-119.519060399566229 -115.631746172894836 -10.045950398651286 42 47 42
-119.508543225854481 -115.065990139966175 -10.167664274484025 40 45 41
-119.510013239139752 -114.510076946123490 -10.061824434017666 40 45 41
-119.481776871579967 -113.931826146146278 -10.524720381126400 40 45 41
-119.447673957963147 -113.351686706449343 -11.101301189397930 39 44 40
-119.443410259131582 -112.793387575976709 -11.109087781719552 40 45 41
-119.463005978387741 -112.249295906278633 -10.661878325998401 42 47 43
-119.441030154352561 -111.680126198328679 -11.010826889381633 44 49 45
-119.419132583556802 -111.112609348497770 -11.359721002984486 43 48 44
-119.391370408944837 -110.544014523476378 -11.822290704011408 44 49 45
-119.393389685777720 -109.989901300937760 -11.716169569737787 44 49 45
-119.389531598062234 -109.433073991380397 -11.723746968899746 44 49 45
-119.427292861179112 -108.889650342704670 -10.935263648224492 47 52 48
-119.411681095631351 -108.327663911718915 -11.170234841842728 45 50 46
-119.390207536725811 -107.765410625358811 -11.518871929107661 43 48 44
-119.345083815666982 -107.200418321009096 -12.322286906650788 43 48 44
-119.347482003650086 -106.645837226702625 -12.215989318620814 42 47 43
-119.326228938634173 -106.088514895596234 -12.564470165565183 40 45 41
-119.322826184372033 -105.533671577646203 -12.571809312541575 40 45 41
-119.301712639697826 -104.978814339444867 -12.920198038993078 40 45 41
-119.322129650837795 -104.423739304113127 -12.472708737349933 40 45 41
-119.330753525735645 -103.867566245434531 -12.252590304008379 43 48 44
-119.351272109920885 -103.308688460328781 -11.805091553782262 47 52 47
-119.348168032354394 -102.751963607435727 -11.812307182435575 48 53 47
-119.356958876928431 -102.192531975494973 -11.592142413504746 48 53 49
-119.353975407885557 -101.635265074768995 -11.599305923024417 42 47 43
-119.345140050821584 -101.079896561082663 -11.720108299583785 35 40 36
-119.348193887914547 -100.520729221259288 -11.613544259796072 33 37 36
-119.339484984070978 -99.965901396925048 -11.734280575981103 37 42 38
-119.342659871644003 -99.406183721330606 -11.627664290941198 37 42 38
-119.316352765103176 -98.860855482372386 -12.089298397732023 37 42 38
-119.296025050849963 -98.314439735236206 -12.437224293095596 39 44 40
-119.293484303463501 -97.759054376690273 -12.444156638433498 36 41 37
-119.308719499914758 -97.192248123822679 -12.110125939411432 39 44 40
-119.335816835564216 -96.615646298798964 -11.548803494561128 38 43 39
-119.309845640723992 -96.075452592008276 -12.010224050026778 34 39 35
-119.301649958878102 -95.523562534228731 -12.130684602660352 32 37 33
-119.275819939035884 -94.986885542001204 -12.592001421181237 32 37 33
-119.273657875106039 -94.431710743651578 -12.598750438249624 41 46 42
-119.265661881174225 -93.881959913303632 -12.719093440726994 43 49 45
-119.263629137503017 -93.327028149618982 -12.725778089749014 38 44 40
-119.326516451561147 -92.706271106824218 -11.482635044221126 4 8 5
-119.365868357529052 -92.104525615076525 -10.693991101487342 0 3 0
-119.375803091416117 -91.531585306073495 -10.473418151429314 0 3 0
-119.356334860180539 -90.991533726582020 -10.820867363488617 0 3 0
-119.342831317800929 -90.446023136866614 -11.054660396258669 1 6 2
-119.352965091169239 -89.872202560121906 -10.834001287433097 0 5 1
-119.380836487806036 -89.274419164534748 -10.272526567006224 3 9 7
-119.414659503271764 -88.665998314930619 -9.597455224269567 3 9 7
-119.407318080361307 -88.111412565269546 -9.717534850467302 1 10 7
-119.394159837458815 -87.565778018643869 -9.951163969101771 4 10 8
-119.392851511179543 -87.003792049218589 -9.957574671809994 2 8 6
-119.373952595112996 -86.468712022539933 -10.304700350753365 3 9 7
-119.337468910237803 -85.962988581828554 -10.992512995493797 6 12 9
-119.318724009887717 -85.431931458319724 -11.339523584082997 8 14 11
-119.335371305712613 -84.843699299479695 -11.005037889174531 3 9 6
-119.305006894919174 -84.334344946862430 -11.579101584049141 4 10 6
-119.286492250388363 -83.806997007963218 -11.925963838543112 9 15 11
-119.291594679558500 -83.238792092755901 -11.818512787631192 11 17 13
-119.355616384659797 -82.561141883423261 -10.575412683260481 10 16 12
-119.331449494098763 -82.044833942014407 -11.035724197561393 13 19 15
-119.266178066825319 -81.610682653110587 -12.290866496078024 12 18 16
-119.265710287865872 -81.053742373589870 -12.296823146008677 16 22 21
-119.312389712798279 -80.400944846500082 -11.394340362644556 17 23 23
-119.365031726574813 -79.731488658747182 -10.378317688257795 17 23 23
-119.441287178122792 -79.006988162588257 -8.908129485217671 24 30 31
-119.511742583610769 -78.288141134148020 -7.551516695268901 26 31 34
-119.541103076914240 -77.654166478667520 -6.989702130919881 10 18 17
-119.547019907619728 -77.070769377415061 -6.882017853907797 4 11 10
-119.564792368923648 -76.459544379601553 -6.547230560533080 4 12 9
-119.588539313787365 -75.832738295588399 -6.098886593729191 1 9 5
-119.630029392304436 -75.161213641500979 -5.309938028548913 0 8 4
-119.630431500086900 -74.586825233519292 -5.315658129995398 4 10 4
-119.666231077288600 -73.924146910597244 -4.640199706328758 3 9 4
-119.678594724431534 -73.318035123979200 -4.418806223177768 0 6 1
-119.679289350781517 -72.741262654313175 -4.424410925088807 2 9 3
-119.680083785149193 -72.164419047239704 -4.429968611439364 2 9 4
-119.669209256819741 -71.619094412347991 -4.662502018772841 4 10 6
-119.676092340351019 -71.026579091451765 -4.554449348136387 6 12 8
-119.688966735950117 -70.417097734185248 -4.332846209358053 5 11 7
-119.707835851264122 -69.789828557490026 -3.997699431257047 2 9 3
-119.715041526333081 -69.194615324444200 -3.889520204899753 1 8 1
-119.763573566917572 -68.478638192674154 -2.986801475967582 1 8 1
-119.759229782253627 -67.915117630777004 -3.105539012814091 1 8 1
-119.778555331631949 -67.281220249411760 -2.770242105661566 3 10 3
-119.756768281815170 -66.771462712100231 -3.229347685707808 5 12 5
-119.817567499435413 -66.008225427518127 -2.099529083983526 6 13 6
-119.801905714762270 -65.480293503131918 -2.445032551356377 7 14 7
-119.804037782680268 -64.897495834712359 -2.450011606545985 4 11 5
-119.812186124661864 -64.295519543525643 -2.341451027123810 5 11 9
-119.832251271026010 -63.654191950355838 -2.005876782211146 6 12 10
-119.811173856648608 -63.148473616991474 -2.464601297540270 4 10 8
-119.831498671521445 -62.505557628378916 -2.128919178255387 4 10 8
-119.840162894123026 -61.901225330571293 -2.020136054872580 5 11 9
-119.884364009483164 -61.173563740625987 -1.230468384640830 7 11 13
-119.893308109837591 -60.566254984893376 -1.121582006877077 16 21 24
-120.014554137039383 -59.559430178255610 1.143235621829064 18 23 26
-120.041523273183856 -58.881771599071641 1.592597623618076 15 23 26
-120.056834443012391 -58.244868652502134 1.815084242641035 13 23 25
-120.036847996520180 -57.737617393135508 1.356865863431267 14 24 26
-120.052453674612735 -57.099892311252418 1.579484911546530 14 23 27
-120.003186699809277 -56.706913318969008 0.554140665206035 12 21 25
-120.030913598943144 -56.024450653486696 1.003815727338093 10 19 23
-120.017400213995273 -55.500020958173444 0.659376097232951 10 19 24
-120.057288327803974 -54.768417236431112 1.336080979042805 14 23 28
-120.008564142876537 -54.385261219546990 0.311097514338940 16 26 28
-120.019179825961686 -53.769543150709168 0.420697010267077 18 28 30
-120.077355142720251 -52.961039849706822 1.437935516045940 20 30 32
-120.106104998124266 -52.268843105938480 1.887999759193463 17 27 29
-120.158757485378928 -51.476041442168665 2.791898902187739 13 23 25
-120.193826619165037 -50.753165627905830 3.355529356288599 13 20 22
-120.258764969062341 -49.901816513077002 4.486421125374193 13 18 21
-120.270504522544229 -49.273232094416258 4.596425837245590 13 18 21
-120.264612364803753 -48.720882305901050 4.366203665488371 16 22 23
-120.276718643049378 -48.091636127957315 4.476377005408978 17 23 23
-120.289016750683047 -47.461639366088910 4.586634389713907 15 21 21
-120.337197504853663 -46.671979267155827 5.377567723713156 12 18 14
-120.343955869089442 -46.065573733686428 5.374558865209821 10 16 12
-120.339001186202552 -45.513024932485109 5.144783129671538 10 16 12
-120.334231759683419 -44.961359306796410 4.915105111113860 9 15 11
-120.276002973999297 -44.658858202252887 3.664687129676366 8 14 10
-120.229830916282438 -44.306471630444889 2.641241319237480 4 15 9
-120.219607644767507 -43.789984903233439 2.298457429081907 8 19 13
-122.253837386484150 -1.584861163157309 23.124363364519724 120 122 109
-122.294574905588917 -0.818654091492686 23.357682869565792 126 128 118
-121.534692881159344 -4.720118031993049 8.400944832500414 56 60 59
-121.428064097615305 -5.027857288995757 6.025065119383157 21 27 25
-121.379371262002280 -4.936617004762276 4.670524832604457 10 15 13
-121.427694226877009 -4.163294448267520 5.018258830566793 8 14 10
-121.476607430817296 -3.387405563842652 5.366248780372331 10 17 10
-121.480744431894180 -2.934165650343560 4.920126941707338 8 15 8
-121.446318782498267 -2.762911459019346 3.793306174410816 3 10 3
-121.457714160954993 -2.267301102233769 3.461079463267311 1 8 0
-121.547856380364095 -1.204526119409227 4.490993479544755 0 5 0
-121.160032686829240 -1.718148449489051 -5.555693831350936 45 49 35
-121.114535547908417 -1.690997894313722 -6.908045600008904 54 58 44
-121.188904489202045 -0.775622063200285 -6.216736867161586 57 61 47
-120.869592534116890 -1.799365932234713 -14.008219761548560 78 80 66
-120.076412946198644 -175.687644846521607 -10.934871474973903 26 26 10
-120.217892078051179 -176.006059544082262 -7.981579732873399 34 32 14
-119.587803968439886 -171.669289090060147 -18.748387464164409 32 30 15
-119.399429307293090 -170.210965291071233 -21.846706408677505 28 25 10
-119.647920986425916 -171.093126768989151 -16.951816258306081 29 26 11
-119.821221476514097 -171.556374705022250 -13.427516021616185 23 21 6
-119.820337803668224 -171.088344751712697 -13.100179780342728 19 17 2
-119.435423475686534 -168.158525308503812 -19.522577134363672 12 15 4
-119.522331321598102 -168.149306868736829 -17.596494565158196 32 34 21
-119.695610886423353 -168.572443844418814 -14.072617221307269 70 72 58
-119.831618568310034 -168.791083281241441 -11.233828923917855 8 4 0
-119.868975065693533 -168.500473816417099 -10.221219128543794 20 7 0
-119.863417808508942 -167.990291314004565 -10.007411496282288 74 54 42
-119.931737100928601 -167.844376538178324 -8.424205366169872 133 110 99
-119.944917877640478 -167.419712578266456 -7.867976582640722 108 80 71
-119.982754534822320 -167.112045283496485 -6.855312665277722 115 83 76
-119.916785956282013 -166.296725146803595 -7.782135386242487 119 81 77
-119.893928081815062 -165.691320171642275 -7.910161137496374 125 85 81
-119.859139839980656 -165.028713405722101 -8.266200912213947 126 88 82
-119.885526776659631 -164.655598027555357 -7.481405961734765 126 91 88
-119.954610041448404 -164.478216300726785 -5.898158254994001 122 104 99
-120.095036645466678 -150.122306866914869 3.555112866595152 90 101 97
-120.048695940533136 -149.402163453703821 2.860377524753574 61 70 65
-119.984889943511888 -148.624858664270590 1.824121801520960 57 62 58
-119.956670142723254 -147.972220708553039 1.471326960456253 58 62 58
-119.810926904603065 -146.928275251744026 -1.158896313285396 59 63 59
-119.818449004400975 -146.400990463875161 -0.828148718970965 59 63 59
-119.743828044518665 -145.604706241279729 -2.091491418046616 60 63 60
-119.698810792207354 -144.908751404364040 -2.785344639523061 61 64 61
-119.665724402894853 -144.253334451849184 -3.251355130386855 57 62 58
-119.667987948288811 -143.709946089728447 -3.034147857574368 52 57 53
-119.617650512076807 -143.003490418733605 -3.841513212073664 53 58 54
-119.561656127487907 -142.283253922637527 -4.762585569162155 51 56 52
-119.564356479049081 -141.742148696002744 -4.545145828316066 52 57 53
-119.567170760501611 -141.200064143687712 -4.327661664491615 53 58 53
-119.552574539828086 -140.606250316279784 -4.451615755382619 46 51 45
-119.532276707063716 -139.996451568048315 -4.689320903695062 47 52 45
-119.512120035508374 -139.387854240705821 -4.926946154140126 51 56 49
-119.480444600084112 -138.748265121693464 -5.392118725658690 21 27 17
-119.419796947047871 -138.031857210144182 -6.426236665798797 24 30 18
-119.365158747961559 -137.336017772728070 -7.346409097210454 32 37 30
-119.322332502732735 -136.675197666472656 -8.038852488975834 41 46 39
-119.308733084951157 -136.092757736191146 -8.162212635543199 50 55 48
-119.341731718142043 -135.628779963891986 -7.375189964383935 31 36 29
-119.368983722041847 -135.146609402542367 -6.701962613417123 28 33 26
-119.361486479207073 -134.576155486748746 -6.711421237417596 44 49 43
-119.365695151719621 -134.033602161269300 -6.493274827007326 36 41 35
-119.294654152910638 -133.312776725837040 -7.754128149773067 38 43 37
-119.287506596825537 -132.745024146857304 -7.763391678614283 32 37 31
-119.274672954693600 -132.164258658979492 -7.886368244858915 20 25 19
-119.267732448959364 -131.596929736899369 -7.895528360608665 21 26 20
-119.255109401309937 -131.017129621360766 -8.018394242112208 71 78 70
-119.259927397520030 -130.474756513765470 -7.799954478260389 49 56 49
-119.235951000843784 -129.871372544697806 -8.150212293315207 43 48 42
-119.223633722962134 -129.293141066347886 -8.272915748839381 30 32 27
-119.217185751177993 -128.726971037652618 -8.281828308963867 29 31 28
-119.256960576694141 -128.250294147549653 -7.380835764101562 33 35 32
-119.267961629149056 -127.714782373492881 -7.048508535262584 33 35 32
-119.261753915468972 -127.145792688517432 -7.057335180872201 32 34 31
-119.238362943447527 -126.545778185592724 -7.407278247171121 32 34 31
-119.226585939305735 -125.967630845918407 -7.529722371508427 33 35 32
-119.191894367235406 -125.350821497406955 -8.106962253759093 33 35 32
-119.180311277799788 -124.774960465106673 -8.229290075855261 33 35 32
-119.145833177949712 -124.162615016004679 -8.806381884568424 34 36 33
-119.168898245609526 -123.643016566360600 -8.246401698524096 34 36 33
-119.151833146242126 -123.059665940573055 -8.482288074449571 37 39 36
-119.146335004436182 -122.494354819949336 -8.490737397996014 36 38 35
-119.123709968420869 -121.904548466360779 -8.840208965525733 36 40 37
-119.124109840358656 -121.348047313970895 -8.734887129164605 37 42 38
-119.136042311049508 -120.806310554832322 -8.402178389932743 38 43 39
-119.119397161964386 -120.226167670119494 -8.637830844192337 40 45 41
-119.114287878295670 -119.661331351937747 -8.646089251958756 39 44 40
-119.103530151578099 -119.089714066849851 -8.767978540337765 38 43 39
-119.104291730756700 -118.531765724195566 -8.662498561128871 38 43 37
-119.070812543311092 -117.935672500242603 -9.238945201253841 37 42 36
-119.066007484091671 -117.372334546100745 -9.247042645672707 39 44 38
-119.055559858664665 -116.803299826709932 -9.368756999011168 38 43 37
-119.045186929849976 -116.234839245659430 -9.490429707852030 39 44 38
-119.006342707346718 -115.641038027410701 -10.180278254513098 40 45 41
-118.996127654439832 -115.075083575317592 -10.301849639216471 39 44 40
-118.991689420684907 -114.514337339899924 -10.309744917727699 39 44 40
-118.975913201270714 -113.944884070153861 -10.544871645434313 37 42 38
-118.954511400050094 -113.372449831889099 -10.893579201721195 40 45 41
-118.938886246059027 -112.805492411488942 -11.128607969216034 40 45 41
-118.951816371592599 -112.257388709403784 -10.795487493469324 42 47 43
-118.919244007230745 -111.681459094672718 -11.371292758380349 45 50 46
-118.920910087882092 -111.126295909672152 -11.265351399740325 48 53 49
-118.877111923663136 -110.548750095642134 -12.068261455016398 47 52 48
-118.895978110937151 -110.002088505971798 -11.621427458372153 43 48 44
-118.886458257960868 -109.442326919149849 -11.742602515538380 43 48 44
-118.894059011613422 -108.888869381515150 -11.522945587671330 44 49 45
-118.867615983340656 -108.324478295070989 -11.984840942418316 46 51 47
-118.852611392723048 -107.765018405580733 -12.219495658670326 42 47 43
-118.843354527785309 -107.207756763248383 -12.340519170075851 41 46 42
-118.845517583478866 -106.652701870924162 -12.234338945568282 40 45 41
-118.825033313637590 -106.094895234223159 -12.582456988737107 37 42 38
-118.810293845604946 -105.539011462308864 -12.816948060478552 36 41 37
-118.806966650223288 -104.984242463176045 -12.824250295344569 34 39 35
-118.820712990080935 -104.428691333644707 -12.490816005574942 38 43 39
-118.811830978380911 -103.873650960540331 -12.611637323836419 40 45 41
-118.831352284438665 -103.315123565270795 -12.164612061309526 39 44 39
-118.828254654463194 -102.758738171343353 -12.171821111235715 45 50 44
-118.847877075030681 -102.196948738820495 -11.724781053662099 45 50 46
-118.839229171965556 -101.641100580503235 -11.845498690094075 49 54 50
-118.830643821739784 -101.085796528064790 -11.966180800706979 46 51 47
-118.810799310813408 -100.535371670206700 -12.313916801045934 36 40 39
-118.791022726370656 -99.986577731557773 -12.661603517717253 39 44 40
-118.799604449397492 -99.425851430713379 -12.441552118495224 40 45 41
-118.791270232856832 -98.872985977184712 -12.562088985890398 39 44 40
-118.794309522571496 -98.314145857355669 -12.455528537278781 38 43 39
-118.769134996571097 -97.772400420641290 -12.916583941837871 36 41 37
-118.783601814971092 -97.206216184762582 -12.582914429508463 38 43 39
-118.798121811963711 -96.638390230649520 -12.249236375753100 38 43 39
-118.807044806060489 -96.073267242331625 -12.029066970933854 35 40 36
-118.804725179545571 -95.516280817710452 -12.035910013382136 32 37 33
-118.774224677004966 -94.983733980700649 -12.610277545974924 31 36 32
-118.749443988044447 -94.448734492843599 -13.071075100803625 37 42 38
-118.741672545691131 -93.899595186656128 -13.191304383850110 42 48 44
-118.750901245258859 -93.333864750352674 -12.970994983348703 41 47 43
-118.805343255117592 -92.719195503399931 -11.842688362581356 9 14 10
-118.854185870721295 -92.105315398037007 -10.827911234722166 0 3 0
-118.863578434781857 -91.532182710329749 -10.607599637101345 0 5 1
-118.816616203216341 -91.025902462316111 -11.522148683999177 4 9 5
-118.809217875490546 -90.474479778687410 -11.642222974237939 10 15 11
-118.847005802256589 -89.864854475069194 -10.854408344655496 7 13 9
-118.884848590547435 -89.251393888217322 -10.066606948004647 8 14 10
-118.888917453754516 -88.681408772161163 -9.959668676008334 6 12 10
-118.870502037672665 -88.143484476577314 -10.306592327704948 3 12 9
-118.874706809561943 -87.573447453925866 -10.199589571761550 4 10 8
-118.867706653912748 -87.020242764539518 -10.319491720924105 6 12 10
-118.866413048324262 -86.458578907214175 -10.325892065642677 4 10 8
-118.814474446082031 -85.980109799293842 -11.353394402099070 5 11 9
-118.773885997885174 -85.487473187055073 -12.153894927163321 7 13 11
-118.772814202203520 -84.930073103425642 -12.160145269618170 7 13 11
-118.783081530403280 -84.352509777104515 -11.939460794620658 7 13 11
-118.787787059272048 -83.784158046524780 -11.832201130696859 11 17 15
-118.809463524934117 -83.183395875717792 -11.384579590964051 7 13 11
-118.819947417289185 -82.602179234027616 -11.163829117827277 4 10 8
-118.796714661808878 -82.086759674956213 -11.623684600541793 9 15 13
-118.762298224868260 -81.596333115116593 -12.310350822476948 5 14 13
-118.761750664943705 -81.038936603250960 -12.316350335576601 8 17 16
-118.761281732780290 -80.481495749642519 -12.322312689856631 13 21 23
-118.817201295218155 -79.801560670179384 -11.193971027000771 14 22 24
-118.895721496055913 -79.066055568756369 -9.611953766673082 32 40 42
-118.957428946786976 -78.361237064633556 -8.370240450566911 17 26 27
-118.996696556901213 -77.702619386584388 -7.582222248664294 15 24 23
-119.013527193737403 -77.093472465604009 -7.247864130197826 7 16 15
-119.041705983583995 -76.455417330553786 -6.686656891158094 3 12 11
-119.053081917020819 -75.856220402716957 -6.465664748743336 0 9 6
-119.087070823187730 -75.199257963784220 -5.791013707427965 1 7 5
-119.109890978227995 -74.567813826757614 -5.343160855508472 4 10 6
-119.138436423271642 -73.919424242650749 -4.781884587554998 2 8 4
-119.150184764128426 -73.313157615534863 -4.560787058673213 0 4 0
-119.150767104685173 -72.736222418922353 -4.566447152753057 1 7 3
-119.140183207494786 -72.190254079914340 -4.798848149115656 1 8 1
-119.129696725634304 -71.645306029247678 -5.031192039977952 1 8 1
-119.141839347113788 -71.037119587392425 -4.809925650215291 2 9 2
-119.165351676879098 -70.395090691189054 -4.361850618523420 3 10 3
-119.172070609863539 -69.800630022456730 -4.253896501388425 3 10 3
-119.161993240417800 -69.256192987875366 -4.486039414128498 0 7 0
-119.202733120059392 -68.558356275485593 -3.697720584752972 0 6 0
-119.232319646575931 -67.891469265784124 -3.136136670285310 1 8 1
-119.250751267033905 -67.257168163991423 -2.801271571361383 2 9 2
-119.252388921520733 -66.675065954796025 -2.806479993530616 3 10 3
-119.287967148155772 -65.983372595925076 -2.131426129557241 4 11 4
-119.295478606374928 -65.380918380075613 -2.023175152662617 3 10 3
-119.286191209200965 -64.834208242339457 -2.254963543568351 4 11 4
-119.322144050898629 -64.135931169440099 -1.579798234509013 4 11 4
-119.324381457287103 -63.550328821257061 -1.584755766113148 5 12 5
-119.315457271286320 -63.003853614109183 -1.816367979780068 6 12 6
-119.306654149813738 -62.458363121319898 -2.047912140432089 5 12 6
-119.309263834790897 -61.873526116451046 -2.052683697172313 4 11 5
-119.300710199592430 -61.329449829171168 -2.284093947318212 6 10 10
-119.303577994919735 -60.744926617127916 -2.288738794924370 9 14 14
-119.385666597051127 -59.866482682112498 -0.706485764869768 13 19 18
-119.439678836706520 -59.086543042470822 0.309055159208299 17 24 25
-119.499509170056569 -58.280010215570940 1.437964587251940 16 25 25
-119.486014391441984 -57.751362817713790 1.093490443421729 13 23 23
-119.506585825850976 -57.091733954432243 1.429118510632605 13 22 23
-119.476399693501889 -56.631522686211767 0.744787073089270 10 20 20
-119.491611659056815 -55.993419025948910 0.967213873578629 7 17 18
-119.495659883239867 -55.399880524811778 0.963040940191291 8 18 19
-119.471547304981911 -54.922085065572134 0.392292952115525 12 22 23
-119.475893407663392 -54.329615038695358 0.388273521123125 12 22 24
-119.463396231867407 -53.808170534233795 0.044350770061982 12 22 24
-119.502066491254453 -53.072193892502924 0.720428021828752 14 24 26
-119.540925388144260 -52.332757086353709 1.396559899919708 11 21 23
-119.602670870831020 -51.491649005850917 2.526029628386937 9 19 21
-119.641928220385623 -50.744176527386188 3.202269409655031 12 18 21
-119.687064649940311 -49.968126053408355 3.991886439899588 13 18 21
-119.715368144958376 -49.264171340022820 4.441616115080507 13 18 21
-119.721135858392955 -48.660432905434895 4.438160786418194 12 18 18
-119.732770272853330 -48.030575581668771 4.548102097490442 12 18 18
-119.721837226368805 -47.504776766658658 4.204882799424638 11 17 17
-119.722456819977651 -46.927474497700139 4.088377863696678 10 16 12
-119.751733573981397 -46.216755756484041 4.538503517103891 9 15 11
-119.775528145437562 -45.530650001953134 4.875400982087626 10 16 12
-119.782432882265397 -44.924584825325546 4.872465651194574 9 15 11
-119.726787894718171 -44.621668444023626 3.623279475276973 8 14 10
-119.676978242652410 -44.296739016305089 2.487517197427110 5 15 11
-119.638725171917045 -43.920836379469179 1.578476625465868 10 20 15
-119.709197503464310 -43.009386304894761 2.822256067953560 7 17 10
-122.172581459288551 -0.788172278520096 35.936920739334653 125 132 120
-121.412862342100851 -2.225302085721082 17.850845229552874 57 62 58
-120.903443486280096 -5.031486226772074 7.437009045456023 30 35 34
-120.814138153559639 -5.250556392264593 5.290221866171407 32 38 38
-120.842161520490023 -4.613936250162899 5.297075097921692 30 36 34
-120.895432938851940 -3.793062187228070 5.757545832447249 13 19 15
-120.930712569432956 -3.107504290674266 5.878225579885282 11 18 11
-120.891962400692236 -2.977833877444164 4.638905135154829 1 7 1
-120.853432279952571 -2.853703930608979 3.399746991437638 6 13 6
-120.840088298222199 -2.547016883215463 2.614194198028656 4 11 3
-120.958448000478526 -1.249915927936940 4.209489751031413 1 5 0
-120.643690938284010 -0.998095086992836 -5.477545170206128 51 55 41
-120.531110897250514 -1.519274829724038 -8.075792664205210 54 58 44
-120.437535882182132 -1.903176610225558 -10.333784635192700 58 62 48
-120.549031228173220 -0.689817358204531 -8.962628741119318 65 68 51
-119.343927030699348 -174.531088447743002 -14.955538444589507 34 32 14
-119.263003021936072 -173.623085865252307 -16.112187588925252 37 32 13
-119.254569164465664 -173.129697334775216 -15.899583243590570 40 34 18
-119.174533869768510 -172.230379242899687 -17.055717836338744 37 33 16
-119.071078347153360 -171.203117681928603 -18.667809111927596 32 30 14
-118.956248676776823 -170.117675550715603 -20.507658392496040 27 25 10
-119.049628611476365 -169.737766855966299 -18.028000874609745 14 15 0
-119.060780736425997 -169.344924516996656 -17.472415035199788 10 11 0
-119.000941370367570 -168.564582286909371 -18.285086631837885 11 9 0
-118.746075436328113 -166.738787591307357 -22.860162839896333 46 48 35
-119.355481796950485 -169.539111073853206 -10.788757987906934 29 29 15
-119.172119433014814 -168.092928908322051 -13.995412971602832 19 11 0
-119.184059234430322 -167.684801877574415 -13.439607643482390 23 10 0
-119.249153880190363 -167.550469007956053 -11.857824954899911 25 10 0
-119.337781577271500 -167.530329821624974 -9.820173142600083 23 5 0
-119.391142419601309 -167.319668235832637 -8.466507325019307 31 12 0
-119.385938649466837 -166.804052726593056 -8.252586510433218 42 17 6
-119.345828573864310 -166.110146919363245 -8.722353293859726 62 32 24
-119.323566239535339 -165.506680957078345 -8.850074181519346 88 56 48
-119.336590776408613 -165.078227144115033 -8.293959153454722 98 67 56
-119.338115862763900 -164.589793326227436 -7.965680597264111 88 58 48
-119.386413989555749 -164.327754567169961 -6.725824501417719 99 78 70
-119.522010821272914 -164.482812915737242 -3.777028340502483 136 127 118
-119.619365751649127 -150.969564979898536 4.666581413884785 89 101 97
-119.416296349791324 -149.663461287149175 0.786787239363861 67 77 73
-119.354855351513621 -148.888103586760963 -0.248317034210686 51 57 53
-119.299298176081081 -148.138039175957857 -1.169487265647746 53 58 54
-119.277784213108887 -147.512082367772081 -1.407940529511222 57 62 58
-119.228284542346856 -146.789094888240982 -2.215075270100982 58 63 59
-119.218381150927584 -146.205747163756570 -2.225817709786838 58 63 59
-119.101810943833158 -145.259519665688742 -4.397643305762102 59 64 60
-119.086663361520181 -144.662815954022193 -4.521890913201929 56 61 57
-119.060438273557878 -144.029672700400795 -4.873530821725836 55 60 56
-119.096067512324439 -143.599425800363974 -3.974043584142464 50 55 51
-119.064514308156589 -142.948794366925569 -4.439271344736483 48 53 49
-119.038727732782235 -142.318209602792848 -4.790675134523838 47 52 48
-119.018692376564829 -141.706846703315108 -5.028270815550400 42 47 43
-119.021167360339660 -141.165449300598709 -4.810941897395992 36 41 37
-119.018164911279470 -140.606152237837705 -4.707276499448056 35 40 34
-118.998528928223038 -139.996489290738481 -4.944663623259572 44 49 42
-118.945555364551211 -139.289813333500405 -5.864151244537140 44 50 40
-118.942943374680809 -138.732471933674162 -5.760278921630231 20 26 14
-118.923727111447164 -138.127217465866210 -5.997419874225187 20 26 13
-118.871235734280432 -137.429862364732969 -6.916580874877241 24 29 22
-118.802226481917870 -136.691148934347552 -8.176646347225528 42 47 40
-118.800134631545774 -136.138561036100725 -8.072476261185784 37 42 35
-118.803702113792980 -135.600243550617279 -7.854592992371636 24 29 22
-118.829576052526136 -135.118740976202986 -7.182018027131875 28 33 26
-118.827766286121175 -134.563132795946103 -7.077744082369094 46 49 44
-118.831601020060447 -134.020969170141910 -6.859772551516045 40 42 37
-118.791184186864172 -133.368703767014665 -7.550975230967026 63 65 60
-118.773067457565304 -132.773244329815981 -7.787489345125863 35 37 32
-118.749528474444077 -132.165861683076173 -8.137579063433350 20 22 17
-118.748238820329419 -131.611457935667516 -8.033043900901333 66 69 64
-118.752569322717875 -131.069123006244325 -7.814836959435695 82 89 81
-118.762509083141552 -130.538036270686433 -7.482971899922404 51 58 51
-118.722816127028381 -129.897393197763080 -8.173708644574788 56 61 55
-118.694293563405054 -129.283540021734382 -8.637107980041122 29 31 26
-118.693471822053468 -128.729195777258752 -8.532348357153552 33 35 32
-118.731331774729227 -128.252626604952582 -7.632270772101066 30 30 28
-118.741677883662575 -127.717216051713081 -7.300255824081120 31 31 29
-118.724553789708224 -127.127053774949331 -7.536240538560122 32 32 30
-118.718538179783096 -126.558761511463089 -7.544968103482120 32 32 30
-118.729114831677180 -126.020790538052225 -7.212869220191010 34 34 32
-118.712261029728111 -125.432153140398526 -7.448708931554506 33 33 31
-118.679010966618563 -124.816024961259970 -8.025252189240888 33 35 32
-118.634881829561763 -124.184128890541999 -8.828880035283419 35 37 34
-118.640292916621689 -123.637084605068296 -8.610204621582454 36 38 35
-118.623817656163467 -123.054090695042461 -8.845805148741050 41 43 40
-118.618403100538828 -122.489138091830668 -8.854210794545025 38 40 37
-118.607581994260272 -121.916046643201057 -8.976145577794654 38 41 38
-118.618765835574649 -121.375175676778611 -8.643786068251046 39 41 38
-118.630009609926674 -120.832709253879713 -8.311414309782720 39 41 38
-118.619408650409341 -120.259191129794843 -8.433248167561203 39 41 38
-118.586991523874886 -119.657889270404738 -9.009240336487863 39 41 38
-118.565613078915632 -119.072984624284501 -9.358065083392006 38 41 38
-118.538851298922623 -118.483201705913814 -9.820374298751119 35 40 34
-118.523111502412860 -117.908178533105485 -10.055540935675396 36 41 35
-118.529307110396729 -117.358282884579623 -9.836519560365872 39 44 38
-118.524638386057944 -116.795868824140967 -9.844542272543151 38 43 37
-118.514577854159910 -116.228026272819349 -9.966059170079376 37 42 36
-118.488216348703105 -115.645201551317200 -10.428105271256555 39 43 39
-118.483760005353972 -115.084231037965210 -10.436011521941055 39 43 39
-118.479369317980400 -114.523285366597534 -10.443886107320850 39 43 39
-118.458690288008370 -113.949259952206390 -10.792264271095036 41 45 41
-118.448986178549404 -113.385081773533031 -10.913572938129647 43 47 43
-118.417561818992837 -112.806176465364970 -11.488859631784209 43 48 44
-118.424335720903755 -112.254870887569268 -11.269576115752471 42 47 43
-118.393062968395824 -111.679544176428095 -11.844753444817712 42 47 43
-118.399959294727950 -111.128003315983733 -11.625413783245023 41 46 42
-118.363396017058733 -110.553516275353488 -12.313972323183094 43 48 44
-118.392163778017661 -110.011856131996979 -11.640632195387383 40 45 41
-118.377486287276909 -109.449425532869625 -11.875161007186165 43 48 44
-118.395477907125212 -108.899603060929877 -11.428777937149704 44 49 45
-118.364628748666831 -108.332807035878915 -12.003664809636234 43 48 44
-118.350146952357036 -107.772864224637260 -12.238074393839582 44 49 45
-118.346587825392106 -107.216222769289175 -12.245506858112492 45 50 46
-118.332234336700438 -106.657933272848553 -12.479838041991286 37 42 38
-118.312521227808119 -106.100184473711479 -12.827586569054375 34 39 35
-118.298299547221447 -105.544360768355190 -13.061829314761241 34 39 35
-118.300407192242957 -104.989669099025235 -12.955671859692444 31 36 32
-118.313409428072603 -104.433918793617394 -12.622595596956614 35 40 36
-118.304786101227648 -103.878668443474552 -12.743295322669297 38 43 39
-118.307057278583628 -103.322357516542496 -12.637076302124143 35 40 35
-118.303967532776724 -102.766581346464989 -12.644275309243994 38 43 37
-118.317176972134845 -102.206760996762981 -12.311141816060939 36 41 37
-118.314197749199778 -101.650170704648318 -12.318296329584854 39 44 40
-118.316687056665387 -101.091687187503979 -12.211995319905412 48 53 49
-118.292182986963979 -100.543483766758968 -12.672796455743025 43 47 46
-118.273155752063090 -99.995018210858049 -13.020121305953467 41 46 42
-118.265007961278485 -99.442763553784189 -13.140562700671154 40 45 41
-118.262325978747072 -98.888067434522810 -13.147555517732087 39 44 40
-118.270510287148724 -98.326858502997240 -12.927699208264613 37 42 38
-118.257135238079329 -97.778658807460602 -13.161458450592562 37 42 38
-118.270832252927562 -97.212549703816080 -12.828156436269808 38 43 39
-118.273779078243919 -96.652940148910062 -12.721648142491176 38 43 39
-118.287580991519107 -96.084091901735619 -12.388324140500941 35 40 36
-118.279841735119987 -95.532059479410449 -12.508567806195060 31 36 32
-118.255972426224460 -94.995221272625272 -12.968948286782222 29 34 30
-118.237567429014462 -94.455389343139146 -13.315886590360350 38 43 39
-118.246203689446801 -93.890020388902784 -13.095856889794106 38 44 40
-118.244107879851853 -93.334955585309061 -13.102573078784474 40 46 42
-118.274430603480482 -92.744020196974390 -12.428996277027920 17 23 19
-118.315586714344391 -92.137305307869553 -11.528681476439118 1 7 3
-118.346007188565196 -91.539257651061092 -10.855131121286547 3 9 5
-118.322577164404407 -91.005850430336864 -11.315266132699264 5 11 7
-118.326163715758000 -90.439277016420021 -11.208523478676398 11 16 12
-118.356754318133255 -89.835452235699194 -10.534951201636545 11 17 13
-118.382011496957105 -89.235947311586827 -9.974744834608487 7 13 11
-118.348070091731671 -88.720395305102926 -10.661442431843625 7 13 11
-118.357292212255942 -88.142853880615334 -10.441257755168778 5 14 11
-118.361192097631246 -87.572623779952124 -10.334402843337585 7 13 11
-118.397465636829040 -86.949629628983516 -9.547450303838644 7 13 11
-118.374572954050905 -86.421476117612713 -10.007274173906126 7 13 11
-118.308686294083643 -85.969419390401825 -11.373753992226568 8 14 12
-118.253648565351298 -85.504837240197219 -12.513454879661424 10 16 14
-118.241749738610622 -84.967365245600135 -12.746397476672485 11 17 15
-118.256831810556221 -84.380646566078468 -12.412645000499765 10 16 15
-118.261219155898630 -83.812924916832060 -12.305531068740606 8 14 12
-118.276438980847146 -83.223411437068847 -11.971741460286381 5 11 10
-118.259446471614751 -82.697493614464989 -12.317860809565587 5 11 9
-118.242529915567275 -82.173171855428478 -12.663927394017406 5 11 10
-118.204171162707595 -81.696136689788005 -13.463200646947882 5 14 15
-118.241203494731863 -81.059138545970725 -12.676029253695049 11 20 22
-118.278308188475307 -80.418281772003269 -11.888862961662340 15 24 26
-118.331623727499789 -79.736842621282676 -10.761782536842674 16 25 27
-118.379635462490114 -79.062418452017710 -9.748026109885330 22 31 34
-118.416967567624667 -78.408610584049455 -8.960884337139277 19 29 31
-118.459758196363339 -77.737877271785763 -8.060446562591466 14 24 25
-118.481117352487203 -77.116053748598702 -7.613193617734481 10 20 21
-118.481047596551946 -76.546409922250632 -7.619090618803909 1 9 10
-118.481063859934835 -75.976710335322167 -7.624947042498036 2 11 10
-118.518816035073968 -75.307908594409540 -6.837758649168137 3 9 9
-118.551279573519636 -74.649650675253881 -6.163850673570835 3 9 8
-118.594592092947920 -73.958668096215533 -5.263371664181335 1 6 4
-118.621862873541872 -73.308159551692611 -4.702727002855397 0 5 2
-118.638471349465874 -72.685337591784119 -4.368615929453284 1 7 3
-118.628280171213262 -72.138377224266804 -4.600839261869993 3 10 3
-118.612804833899162 -71.608224762235864 -4.946276390574866 0 7 0
-118.608185290276609 -71.047519393179712 -5.065116871367763 1 8 1
-118.625185762999237 -70.421956800211944 -4.730846478753676 1 8 1
-118.599243380731750 -69.927522050554032 -5.302641115370704 1 8 1
-118.621830361154380 -69.283834089651435 -4.855025845218933 1 8 1
-118.671435006055049 -68.552123211239831 -3.841097056496153 1 8 1
-118.726538692774753 -67.797987897747433 -2.713909486071145 2 9 2
-118.744081431050233 -67.162187541031244 -2.379485057920562 2 9 2
-118.713283994167497 -66.686398323261187 -3.064269293117832 2 9 2
-118.741819770485151 -66.013109699331608 -2.503253948974788 3 10 3
-118.759706188081623 -65.374029527603341 -2.168698866598675 4 11 4
-118.772326900627107 -64.752003740372231 -1.947346215043012 4 11 4
-118.790455804075350 -64.109720743523255 -1.612708096554456 3 10 3
-118.792545391512093 -63.523708540851061 -1.617740563076609 3 10 3
-118.789367125800879 -62.957202797124573 -1.735951247627384 4 11 4
-118.775529372028743 -62.430906260438789 -2.080565271002314 6 13 6
-118.761809845403164 -61.906140862573693 -2.425106974134565 5 12 5
-118.764387858885797 -61.321607702523096 -2.429890554781792 4 9 5
-118.761700691929121 -60.757664359809681 -2.547839923290837 7 12 9
-118.813093830410949 -59.984353136494107 -1.533483738617605 7 13 11
-118.826868433794104 -59.354765187501563 -1.311656910770381 12 18 16
-118.873172632416427 -58.594791884699291 -0.410456848486746 17 23 23
-118.903439993437658 -57.895710251794689 0.151121379444447 15 21 22
-118.944665829673397 -57.149605116844128 0.939175837667506 13 18 21
-118.937432240408057 -56.600670746660327 0.708347086283453 10 15 18
-118.935741862857796 -56.030069009128944 0.590806040206957 8 13 16
-118.912570327166989 -55.551462679783270 0.020499896976304 9 14 17
-118.889530170932474 -55.075451761682906 -0.549716678900921 11 16 19
-118.899083251449383 -54.461355860808276 -0.440608830609392 11 19 21
-118.914206326429706 -53.822836545641351 -0.218228833610993 10 18 20
-118.945736531547382 -53.111076010432299 0.343823024296483 10 18 20
-118.988279712784561 -52.347868715427687 1.132331654727949 10 18 20
-119.058108315302945 -51.457928646949242 2.486883437673669 8 16 18
-119.084790274804689 -50.759777764454455 2.935897117568686 10 16 19
-119.133352219021432 -49.958877439130937 3.837755995203025 11 17 18
-119.171273279606410 -49.204136616881677 4.513281683694544 11 17 17
-119.193114672125631 -48.522842515592693 4.849294283333791 12 18 18
-119.236872425397863 -47.736033229972122 5.638141013717615 13 19 18
-119.177612732281375 -47.442861856932673 4.276467000390852 12 18 16
-119.161960269330322 -46.944343153102551 3.820411872632519 10 16 12
-119.130153396308003 -46.528057196419518 3.024898338683897 8 14 10
-119.158355928386158 -45.818201024244303 3.474518966860501 10 16 12
-119.170437981458932 -45.187815376612654 3.584668988407515 6 12 8
-119.166375420999330 -44.639374721730093 3.355362328394392 5 11 7
-119.129788354524152 -44.258895312549690 2.447071656143692 5 13 10
-119.131530896174837 -43.685744800083825 2.331146671025010 10 19 16
-119.193507486461911 -42.800532623879235 3.460272974963061 6 16 8
-121.286459244657550 -1.507380448238441 30.088320719114762 106 113 105
-120.642203892816056 -3.901960148684365 15.060528084483451 113 118 112
-120.346586997338719 -5.685382096459422 8.840224962373668 16 20 19
-120.255633126325009 -5.935604063933738 6.582110904246917 29 33 32
-120.217622441904041 -5.791797864568952 5.342998719532346 22 28 28
-120.179822944792761 -5.653564516286190 4.104044930258567 27 33 33
-120.248572612974343 -4.700934322283887 4.903140829158644 23 29 27
-120.377193979282168 -3.285030430417569 6.834699283523179 17 26 21
-120.423686569370304 -2.504323635342727 7.181481626784404 0 7 1
-120.357783583563702 -2.603070845470253 5.377228160183648 0 8 0
-120.315808367970888 -2.523407533214016 4.026020727384889 0 6 0
-120.285973392924234 -2.355855101558972 2.901434227033377 0 8 0
-120.340209565423578 -1.531128559577700 3.362326841129260 1 6 0
-120.407091527918439 -0.608014575001191 4.049974176281609 21 26 19
-120.271626628224510 -0.916227383699550 0.329997619499949 32 33 24
-120.016382514466898 -1.169546135514238 -7.438765811961957 53 57 43
-119.940001553891832 -1.451406379308437 -9.467864801173818 58 62 48
-119.660510955088256 -1.562394588785398 -19.023434906472318 91 95 80
-119.211037505892037 -176.870298557505947 -7.456629498379897 30 25 6
-118.730019881942610 -173.541026874513108 -16.589727340440362 33 26 8
-118.675520938114602 -172.776176460996794 -17.288825747417945 36 28 12
-118.684442887310681 -172.386470058050520 -16.734274536679237 33 25 11
-118.602065916952853 -171.458653782427405 -18.002681610078895 27 23 9
-118.548729578709754 -170.703390863025874 -18.701125141636510 24 22 7
-118.495787561476021 -169.951862633711187 -19.399341588333613 22 20 5
-118.602547358766373 -170.118033060154886 -16.907662123325196 17 14 0
-118.544436662764099 -169.333755522556658 -17.719547238230916 13 12 0
-118.532095321258225 -168.810410659776636 -17.619979460362742 18 15 7
-118.740843579737088 -169.527220153807178 -13.078381132000402 43 41 29
-118.412037177373307 -167.227155815222005 -19.356595376153450 17 11 4
-118.727995242498707 -168.520202353374600 -12.651457932915065 22 5 0
-118.682454623727310 -167.798751745950057 -13.234965086965445 50 32 22
-118.642882592704069 -167.111103513014342 -13.704410059353677 78 59 46
-118.777846857955268 -167.368753985695776 -10.644001598875690 88 69 54
-118.789159228989874 -166.948770105306892 -10.088618479808559 74 55 41
-118.783827541388391 -166.436752680485085 -9.874721823609804 63 40 28
-118.739538039141749 -165.716887671792819 -10.457614126438870 62 34 23
-118.745859925588448 -165.263797994902404 -10.015818097607450 72 42 32
-118.724455879576183 -164.663669725616472 -10.143094026527564 84 56 43
-118.714446661643962 -164.121873855852186 -10.042600494219499 71 45 34
-118.765871286854832 -163.892950443116860 -8.690048934430308 68 46 36
-118.806230995811134 -163.601271249091184 -7.565154539273550 68 49 41
-118.965131736495010 -150.588829091420990 2.354219069227611 68 79 74
-118.819564995083155 -149.474627117492389 -0.498360724559291 60 67 64
-118.749869473948223 -148.660963280582990 -1.759526007722172 57 62 60
-118.691203608569111 -147.893886275495476 -2.793217429873778 58 63 59
-118.686585653181197 -147.331167460534743 -2.690360106429921 59 66 60
-118.660597677274296 -146.689426585707224 -3.041975080993382 56 62 57
-118.650897758745330 -146.107606377934189 -3.052604456449103 52 58 53
-118.576927189884273 -145.296652685804588 -4.426645895829267 50 57 52
-118.556835010658645 -144.680720884871164 -4.664315790786134 46 52 47
-118.558332264932176 -144.140242552484892 -4.447445154621136 45 49 45
