ply
format ascii 1.0
element vertex 691
property double x
property double y
property double z
property uchar red
property uchar green
property uchar blue
end_header
-120.215859751472067 -125.306257852800144 -8.060994979462549 39 44 40
-120.203599279022242 -124.731301212918282 -8.183637549905370 38 43 39
-120.153927057549495 -124.101339383250789 -8.989897278417544 36 41 37
-120.141869975696224 -123.529212532485900 -9.112413419055173 38 43 39
-120.154885452928696 -122.992566752106214 -8.779134169204184 37 42 38
-120.199182144180028 -122.496577569155335 -7.876177170405811 36 41 37
-120.168640129525969 -121.898154115268241 -8.340383778441918 41 45 41
-120.163151297844095 -121.333571088047023 -8.348821153425718 41 43 40
-120.114101445453755 -120.715611709862273 -9.154659595439597 41 43 42
-120.146185636011026 -120.197172249409036 -8.479493876937596 45 47 46
-120.122252832138599 -119.611726273569488 -8.829546192568927 45 47 47
-120.135776270944888 -119.068835075707426 -8.496088222861772 46 47 49
-120.074667430488446 -118.445852314749544 -9.529465121475027 43 45 42
-120.069679009723913 -117.884226894560641 -9.537632657456300 44 46 43
-120.015008051046351 -117.274666321217353 -10.456932649253446 48 50 47
-120.028841902803137 -116.732457319548104 -10.123319156866643 48 50 47
-120.011660229101281 -116.161388500178589 -10.359134878750837 49 51 48
-120.038051277614571 -115.627690005582750 -9.797708693712593 47 48 47
-120.027228804368960 -115.061857579365522 -9.919569410150331 46 46 46
-120.022691374867733 -114.501230789689032 -9.927510914051567 45 47 44
-119.993400410429913 -113.923183693710200 -10.390909279864331 44 46 43
-119.964197425431408 -113.347340100334847 -10.854242874855629 40 42 39
-119.959889519836224 -112.788965519215935 -10.862051392192882 40 45 39
-119.949451120651091 -112.227068436077204 -10.983687860453273 43 48 44
-119.945283643133152 -111.669008713569013 -10.991425956481862 45 50 46
-119.885421239342136 -111.083971615157537 -12.023815970299950 44 49 45
-119.869019853525074 -110.522946061233910 -12.259155024758059 47 52 48
-119.877461455589895 -109.972846792584093 -12.039061269543083 44 49 45
-119.892152245835035 -109.423856779704380 -11.705107621075655 46 51 46
-119.882145163019786 -108.865606283565953 -11.826500212911242 46 51 45
-119.859835003099249 -108.304638010226327 -12.175524299949586 46 51 45
-119.837601377845431 -107.745316101255213 -12.524494826210230 45 50 44
-119.821626524853912 -107.188732833640088 -12.759584102142043 43 48 42
-119.824266843915652 -106.635712472733289 -12.653154614021105 43 48 42
-119.857865282296387 -106.084901026378873 -11.977597705663982 42 46 45
-119.879152580286586 -105.530277181337155 -11.529687417446439 43 48 44
-119.851082598957575 -104.973447856866343 -11.992283263944103 46 51 47
-119.823089883296873 -104.418802771921918 -12.454819663336167 46 51 47
-119.838383976408252 -103.862559003594527 -12.120652063394317 46 51 45
-119.841389968014994 -103.306310533638083 -12.014080867329341 46 49 45
-119.832117172579601 -102.751689938625532 -12.135084814203537 46 48 45
-119.829079472729035 -102.196258557753609 -12.142255373627791 45 47 44
-119.819938672064055 -101.642457206090697 -12.263187741772896 40 42 39
-119.810864464835575 -101.089200018127514 -12.384082650495941 37 39 36
-119.795692752782713 -100.538659818711366 -12.618725502218950 40 42 39
-119.817566214268012 -99.974529264472551 -12.170632652728074 40 42 39
-119.814847459730984 -99.419090681870969 -12.177650703938610 40 42 39
-119.824512750875400 -98.857666047579514 -11.957088117740255 40 42 39
-119.815760811665868 -98.304935545277971 -12.077823433107625 40 42 39
-119.825548251303246 -97.742137008913019 -11.857216553753176 41 43 40
-119.798457489096876 -97.201086779930122 -12.319181523022451 40 43 41
-119.789906317277286 -96.649966369249370 -12.439804218476695 39 43 42
-119.781422324734379 -96.099380500923900 -12.560389273282311 36 40 39
-119.785311450442364 -95.540079207321952 -12.453427013137826 34 38 37
-119.776960205761043 -94.990014546557305 -12.573943196770188 33 37 36
-119.787129076149469 -94.424973954910939 -12.353176920853173 39 43 42
-119.803509701663799 -93.853388203564322 -12.018647450272425 44 49 43
-119.844545992134229 -93.257297992897008 -11.229139491117138 45 50 44
-119.904079450430075 -92.639420106351722 -10.098430167008644 6 11 6
-119.963662276566566 -92.016077261608984 -8.967753479054579 7 12 6
-119.961835811002516 -91.452575459351380 -8.974427661049447 18 23 17
-119.904772195029167 -90.950281026871181 -10.004627032542231 17 22 17
-119.903092226919597 -90.389188119620911 -10.011206334690598 15 21 19
-119.870764518013019 -89.864811586576479 -10.586363895502529 17 23 21
-119.899943136403152 -89.266932090174066 -10.024264793883589 11 17 15
-119.916901518406661 -88.682088410992151 -9.689595397090244 12 18 16
-119.933927744017126 -88.095583405911356 -9.354910645009909 11 17 15
-119.926459649030932 -87.541165818659621 -9.475049139714343 3 9 7
-119.912926065389215 -86.995973635519036 -9.708853266602347 3 9 7
-119.930166968085430 -86.406928198138985 -9.374091963685942 1 7 5
-119.947479500249059 -85.816215714604752 -9.039313553221291 2 8 6
-119.909617588930402 -85.309581611746864 -9.727794910671008 4 10 8
-119.841147277401433 -84.855182416822657 -10.984675966319031 2 8 6
-119.785038915448865 -84.386597590764012 -12.014071357649442 7 13 11
-119.790388240799075 -83.819430668208383 -11.906491507871465 10 16 14
-119.783541188003696 -83.272914894801204 -12.026251560781134 8 14 12
-119.770637281912585 -82.737794062246806 -12.259650782616291 9 15 13
-119.788496426911891 -82.147907691397961 -11.924602370851858 10 16 14
-119.837115901299498 -81.499164891311054 -11.021149737136312 12 18 16
-119.830590769971224 -80.951387415208089 -11.140768771259275 17 23 21
-119.860964218603769 -80.332223813370405 -10.578317154937366 18 24 22
-119.866878201546214 -79.759298633955495 -10.470526447533302 16 25 24
-119.915827226227492 -79.098094382703067 -9.567044430063817 24 33 32
-119.989405187837562 -78.381278374587723 -8.208916913656992 17 26 25
-120.056936318473774 -77.670933550400875 -6.964474454234676 5 11 11
-120.044794832780553 -77.128009881990963 -7.197589255274153 5 11 9
-120.051152055833413 -76.545267339397370 -7.089687558371537 7 13 10
-120.100554124113074 -75.864687635956145 -6.186188247660255 3 9 5
-120.131645086471849 -75.222169166692652 -5.623633778614050 0 9 3
-120.101470447756085 -74.721217720262601 -6.197520191842528 3 9 5
-120.083663717072227 -74.193511674235793 -6.544047468955256 4 10 6
-120.115049634726660 -73.547519835716130 -5.981387647441267 0 6 4
-120.171088772824064 -72.837707949527115 -4.964155201900724 0 5 3
-120.178134546576061 -72.247133136396045 -4.856004726199046 2 8 6
-120.142316514769107 -71.766545279678866 -5.543240191600177 3 9 7
-120.131152376814896 -71.224861046047963 -5.775874674706529 7 13 9
-120.163067957082134 -70.569758747009047 -5.213055242960905 6 12 8
-120.213517568218649 -69.861981555311388 -4.309334748747091 2 8 4
-120.270228253576363 -69.132855092135600 -3.291979851942813 1 7 3
-120.253366009692812 -68.604728743958177 -3.638059616188883 1 7 3
-120.273466129939735 -67.973510599411426 -3.302364578257340 2 9 2
-120.262970875870920 -67.429129889270854 -3.534706825792938 4 10 4
-120.344749000761979 -66.615940483130245 -2.062789514259521 5 11 7
-120.328351221142015 -66.087715477592639 -2.408648095923752 6 12 8
-120.355090239235750 -65.431292494282019 -1.959177593165293 5 11 7
-120.345078298738713 -64.885425169922684 -2.191303927611784 5 11 7
-120.378223816602997 -64.206977740376317 -1.628136401091496 5 12 8
-120.331566134393313 -63.777300590173382 -2.541751238453571 5 13 8
-120.346523279202202 -63.155604886337272 -2.319277447997564 4 14 9
-120.367767779971601 -62.512798248373940 -1.983154228530992 0 11 7
-120.419919226434175 -61.767350996881717 -1.079007338979864 1 13 10
-120.392216753895696 -61.283253618923297 -1.651537588989441 11 23 23
-120.475448238323850 -60.428739632239676 -0.179350369902409 19 30 31
-120.460334644663618 -59.902944302587841 -0.524569591530849 16 27 29
-120.476150053262387 -59.272302890192286 -0.301777293291735 15 26 29
-120.424343742876829 -58.877439767808227 -1.328355743368178 15 26 30
-120.508234815956399 -58.007327737251046 0.143986462167419 14 24 28
-120.561497599016576 -57.240419093008178 1.048444098440655 13 23 24
-120.639607973510749 -56.379502470902885 2.407256605625719 13 24 25
-120.619221979741866 -55.874145076467272 1.948866578871417 16 27 28
-120.605146985459285 -55.347913324554767 1.604139727311690 20 32 32
-120.603563586834383 -54.776788661269677 1.486644476848909 20 30 31
-120.670061157991370 -53.947919506520385 2.618513569562623 20 30 32
-120.662640923386164 -53.398291510511349 2.387588387848666 20 30 32
-120.643018760401418 -52.897627283788843 1.929612084256263 20 30 32
-120.691547935554979 -52.131789367756191 2.720957315355292 17 27 29
-120.758836758471105 -51.288230180130661 3.853053728310329 15 26 28
-120.758293774274421 -50.712241168432868 3.736006137361926 12 25 24
-120.714595042814608 -50.312428992116047 2.824114267075231 8 23 20
-120.726764969249828 -49.688310510144177 2.934370838022176 11 23 21
-120.757708808726335 -48.986449933869110 3.385385200946928 12 24 22
-120.844645141783118 -48.048714706925750 4.858488168885998 12 24 20
-120.876036711755120 -47.339570062848978 5.309641745976023 13 24 20
-120.870419272274347 -46.786968900590843 5.079548410976372 9 22 15
-120.833947031486588 -46.369098193113487 4.281786668444283 9 22 15
-120.834891740587040 -45.792606371552580 4.165445609195331 5 18 11
-120.898171406688178 -44.943247106382643 5.184705467239979 8 19 13
-120.862235255311504 -44.530225010619397 4.387250097240667 6 17 11
-120.832677711147710 -44.092962936855507 3.703455601717820 2 14 5
-120.958905236617426 -42.955082364591718 5.858448454367334 16 28 18
-123.117105416432651 -0.991959367656056 28.409035731483442 123 125 111
-122.049923611904632 -5.218494557324546 7.322252868918241 112 116 112
-121.891185546054629 -5.846787881313407 4.148731683362172 19 23 22
-121.967057692727849 -4.894102678397092 4.951234385324426 15 19 18
-122.043625701941167 -3.936541413861541 5.754019793788927 10 12 9
-122.053532217983459 -3.435995117473694 5.421030007863834 5 10 4
-122.050378729652095 -3.029306002637695 4.861040709890915 3 8 2
-122.101735713862311 -2.250475755411683 5.210169478876111 0 5 0
-122.174055606087222 -1.327821527952162 5.900423033482554 0 7 0
-122.185950999391935 -0.826978043839855 5.568381660519975 0 5 0
-122.171076566265626 -0.517569644111842 4.782068692162511 0 4 0
-121.984604546280792 -0.627427183700563 0.037918769157073 28 32 18
-121.451171184685180 -0.554439167514901 -15.073115804233908 85 91 77
-121.256626384957968 -1.669400837748631 -18.813051711374925 90 95 81
-120.448707305732555 -173.473019665828957 -12.442446652815306 34 33 15
-120.231693357802911 -170.976128176151065 -15.232580378168507 19 20 4
-120.225586087348205 -169.083339773988797 -14.035537763173551 12 10 0
-120.219805141390225 -168.583555831281188 -13.821730105255682 82 80 67
-120.394111069080665 -168.958347572658766 -10.408718279631842 17 10 5
-120.484761583959553 -168.913963468667419 -8.481207208268728 30 12 7
-120.466488375338344 -168.338468508741101 -8.495872907364145 114 88 80
-120.448482692313505 -167.763312628983982 -8.510407132808751 112 81 73
-120.449904984127159 -167.278930594429795 -8.182136046133195 67 29 24
-120.508952949085611 -167.062023721061280 -6.825813814463118 107 66 64
-120.491602041066628 -166.483671899331739 -6.840067695225514 130 91 89
-120.461779487401373 -165.847009640042415 -7.082605956983315 87 53 49
-120.387755558283928 -165.008524182119231 -8.124379667261906 120 90 89
-120.415673634343477 -164.635451800809307 -7.338851782363150 133 98 99
-120.475419406339739 -164.401184331137841 -5.982374423537010 142 124 123
-120.305186584483963 -148.962624052197611 -2.564386876245777 115 122 120
-120.380501039797380 -148.667255836949948 -0.979372683513333 77 83 81
-120.382033867587523 -148.121900967201128 -0.762535225748735 63 69 65
-120.420574390602653 -147.695182711816017 0.138381082352083 55 60 56
-120.360950686688312 -146.949729400478986 -0.784687098008504 57 62 58
-120.362910438652250 -146.402627170525250 -0.567663387638987 57 62 58
-120.309827467209587 -145.682603484170897 -1.376481859179734 58 63 59
-120.348845912312015 -145.249055862754659 -0.475407212885841 59 64 60
-120.259391322987810 -144.421515093005723 -1.967885778623895 56 60 59
-120.182432570117612 -143.637801601336236 -3.232217473003260 54 59 55
-120.105713652358645 -142.860243623946161 -4.496371069286823 55 60 56
-120.114738586748800 -142.337158112677969 -4.164861298791095 52 57 53
-120.136079653924369 -141.847477178602787 -3.605397912652023 50 55 49
-120.102619620393355 -141.200469430877973 -4.071500593459859 51 56 51
-120.044945886473585 -140.488103207625926 -4.993295332839836 46 51 47
-119.999649886939878 -139.813512540550050 -5.687061993899448 64 69 63
-120.015396256419365 -139.306000299987318 -5.241317523476965 48 53 47
-120.019070096625342 -138.764215192160265 -5.023419067358645 55 60 54
-120.004615601584746 -138.173974808385054 -5.147268573942171 33 38 31
-119.923469666325190 -137.413354174573300 -6.524224580557870 33 38 32
-119.878960814211538 -136.751041444316513 -7.217488290018224 57 62 56
-119.901351152614893 -136.257117160561393 -6.657566615050314 62 67 61
-119.893503096408793 -135.686912479875673 -6.667190501462926 40 45 39
-119.910006486758519 -135.174615767098743 -6.221133123827002 35 40 34
-119.853922890832408 -134.490045505935683 -7.141881028840089 49 56 48
-119.846424996923872 -133.921196317554944 -7.151323446046632 45 52 44
-119.839035493621566 -133.352429809251049 -7.160713158491063 77 84 77
-119.868023714235662 -132.863913897269100 -6.486720523281065 28 35 28
-119.848742098161225 -132.267490168418988 -6.723801841218801 29 36 30
-119.829578030611856 -131.672234946236955 -6.960814896318880 29 35 31
-119.768284953496163 -130.990348470298699 -7.994886258647398 46 51 45
-119.767468659500594 -130.436142696376578 -7.890122604416462 43 48 44
-119.766744721952762 -129.881460469063910 -7.785319671551576 38 43 39
-119.784187471522316 -129.361470631082568 -7.338892096887150 33 38 34
-119.777612899899609 -128.793560402971735 -7.347883134687265 34 38 37
-119.777152210219882 -128.236891733352792 -7.242974712393192 33 36 34
-119.758731404074751 -127.647024319392003 -7.479576734368550 37 39 36
-119.764466392394340 -127.100836788020985 -7.260737548414880 36 38 35
-119.734221283015117 -126.491460018363625 -7.724914865966923 38 40 37
-119.722110240935748 -125.914581530562330 -7.847505731978799 37 39 36
-119.710093399770059 -125.338303020642016 -7.970045356722721 38 40 37
-119.716172957495758 -124.791246203765013 -7.751050277938646 37 39 36
-119.674340351377111 -124.169001780456625 -8.442621237276342 35 37 34
-119.656608271299476 -123.586062016812392 -8.678822465276937 39 41 38
-119.650956399903208 -123.021706849734343 -8.687335492422363 38 40 37
-119.675337787417277 -122.499650620521066 -8.126750882631427 41 43 40
-119.663848920836401 -121.925844977306511 -8.249012471684523 42 44 41
-119.658430728151373 -121.360532915630245 -8.257423557532235 42 44 41
-119.611215728806698 -120.741832247462341 -9.062391842608548 44 46 45
-119.611953150427610 -120.185869725947668 -8.956902979237839 46 48 47
-119.570921854919405 -119.579785805286178 -9.647924246154133 45 47 47
-119.601694607670211 -119.058792780242385 -8.973412200126631 44 45 47
-119.566817150470982 -118.462594123844767 -9.550528852977976 43 45 42
-119.567858476038609 -117.906776624490490 -9.444893110214906 41 43 40
-119.515259865087955 -117.296465481786910 -10.363209423950394 42 44 41
-119.516459503542606 -116.742074293275067 -10.257483263110828 45 47 44
-119.499837358422326 -116.170808975554081 -10.493033331095688 45 47 44
-119.525021217384122 -115.636926870485865 -9.932186551395858 44 45 44
-119.514501829699654 -115.070898449153248 -10.053904290216138 41 43 42
-119.504056815280279 -114.505441012605672 -10.175580571688187 41 43 40
-119.475822594032977 -113.927462576164189 -10.638472688433723 44 46 43
-119.447673957963147 -113.351686706449343 -11.101301189397930 43 45 42
-119.437460174377122 -112.789568699028891 -11.222832476410218 43 48 42
-119.421369714385165 -112.224470082270187 -11.458064711101287 41 46 42
-119.393461968523738 -111.653932394855715 -11.920724051773647 44 49 45
-119.365636214103873 -111.085592124064192 -12.383321548908185 45 50 46
-119.343833681365766 -110.522177636233607 -12.732127968957087 45 50 46
-119.369628994974221 -109.980072036452697 -12.171073320012397 42 47 43
-119.377655025851411 -109.428703933523735 -11.951191433377687 44 49 44
-119.385737844395081 -108.876261101199631 -11.731293442447623 44 49 43
-119.352335024494096 -108.311259160115128 -12.307383510407533 44 49 43
-119.342745021731233 -107.754464965202814 -12.428561582135558 45 50 44
-119.327290657868204 -107.197130484997246 -12.663409590461072 42 47 41
-119.317835395391498 -106.641718786247552 -12.784508972170556 41 46 40
-119.314373695821473 -106.087412025073519 -12.791870795331732 42 46 45
-119.293196425608826 -105.532275645985990 -13.140292881199798 44 49 46
-119.289864014511366 -104.978800457865987 -13.147584293399632 37 42 38
-119.292516131616750 -104.425065813502130 -13.041156513613458 41 46 42
-119.301147898559648 -103.870253956329947 -12.821020293213707 45 50 44
-119.327593800683886 -103.311927582818001 -12.259821373525710 49 52 48
-119.318577735239813 -102.757373696006653 -12.380701814991028 50 52 49
-119.315542874705145 -102.202011753219523 -12.387870301335198 52 54 51
-119.306654493785345 -101.648276993706659 -12.508681227272973 47 49 46
-119.297830555070519 -101.095086368597265 -12.629455723232041 39 41 38
-119.294983279033843 -100.540267885404461 -12.636528875692704 37 39 36
-119.304019446031134 -99.980560600549751 -12.416249582789476 39 41 38
-119.301292766849627 -99.425191802806580 -12.423270706792124 40 42 39
-119.310444484999095 -98.863843164384406 -12.202953029890551 38 40 37
-119.307839059220896 -98.307919882199243 -12.209921854267577 40 42 39
-119.305295820905641 -97.751990028203750 -12.216860996022461 39 41 38
-119.261483149499000 -97.222683529438441 -13.019281439982024 40 42 39
-119.264976521171207 -96.664566475756871 -12.912496317235338 37 42 38
-119.250823580409744 -96.118942010995255 -13.146601192138291 35 40 36
-119.260342374871868 -95.555910988017772 -12.926125224816417 33 38 34
-119.240419987805240 -95.016246417796040 -13.273787719787776 32 37 33
-119.261860012072560 -94.442042258207039 -12.826005917856719 39 44 40
-119.271559783710387 -93.876521871144831 -12.605468995949309 43 48 42
-119.310804378425530 -93.281345473727612 -11.816808771563018 40 45 39
-119.361892088278793 -92.670375297962948 -10.800927644943187 9 12 8
-119.442503432424729 -92.023211347161990 -9.217000648982548 0 3 0
-119.399379508479143 -91.505476259374049 -10.018972488171414 0 4 0
-119.344548389769145 -91.005132905274337 -11.048083757195855 0 3 1
-119.336938918967363 -90.453095064141849 -11.168265389683569 0 6 4
-119.382423068246325 -89.835481179896050 -10.265992259184458 0 6 4
-119.416181439190453 -89.228719347053939 -9.590934765072404 3 9 7
-119.420549591844278 -88.658109306451436 -9.483859746692872 2 8 6
-119.395539308867001 -88.127735351969477 -9.944719525573475 4 10 8
-119.376493686234923 -87.591079393070871 -10.291931610296928 4 10 6
-119.369299179626125 -87.038616863147297 -10.411919096872168 4 10 6
-119.344515177436733 -86.513605172565192 -10.872615427323439 0 6 2
-119.343355829613543 -85.953737510138623 -10.878933054450869 2 8 5
-119.271632883617997 -85.508119691862873 -12.248138653077831 6 12 9
-119.235311037219546 -85.010231353554147 -12.935793224200665 3 9 6
-119.222610708802037 -84.475303867509155 -13.169093064961800 4 10 8
-119.280607228033574 -83.817338011298986 -12.039531652843777 8 14 12
-119.315133239728638 -83.196337969179567 -11.364253483068410 10 16 14
-119.320310612437737 -82.626458349748390 -11.256783817996222 9 15 13
-119.319681516511992 -82.067151231100027 -11.262842004474749 11 17 15
-119.325015274629209 -81.496370332112875 -11.155306802482585 10 17 15
-119.342195681443883 -80.901592438704100 -10.820633447638130 11 18 16
-119.353572829522861 -80.317109539379103 -10.599489265255556 16 25 24
-119.347382267525163 -79.768236039097957 -10.718959524485030 18 27 26
-119.400105868590970 -79.094640797268667 -9.702940424381609 21 30 30
-119.470561747880382 -78.377702688532480 -8.346307758298423 22 32 33
-119.505805373858493 -77.732569894995592 -7.670934694843424 12 19 19
-119.494073207210263 -77.190829293292524 -7.903841501154858 5 12 10
-119.535377240326653 -76.527608241715555 -7.114896466304543 7 14 10
-119.588539313787365 -75.832738295588399 -6.098886593729191 3 10 5
-119.618262843249994 -75.189530483488113 -5.536993395645396 1 10 2
-119.595130706773091 -74.673412971094848 -5.996807926957757 4 10 6
-119.595626655319094 -74.100597178275208 -6.002466947586754 3 9 5
-119.613870900327711 -73.482783444754716 -5.667521775671389 0 5 1
-119.626330536041991 -72.878513408978421 -5.446063413850197 0 5 1
-119.621236897914656 -72.319649860234051 -5.565111741047417 2 8 4
-119.622128355846456 -71.745463319673789 -5.570595661137048 3 9 5
-119.652549999767956 -71.090855816340962 -5.008485830237674 6 12 8
-119.665422307901963 -70.482466877229257 -4.786872445286662 6 12 8
-119.696062493362575 -69.823059413678465 -4.224707473265852 2 8 4
-119.744478034864343 -69.110172277917997 -3.322012670214349 0 6 2
-119.769461542954474 -68.461476362175418 -2.873302458836008 0 6 1
-119.765118484968795 -67.897682537976010 -2.992042460868305 1 8 1
-119.737328953937407 -67.405179030936537 -3.564700887871993 3 10 3
-119.780329546917486 -66.699535730705037 -2.775380898114747 4 11 4
-119.782220270793601 -66.117756255274728 -2.780464930694762 6 12 8
-119.825474310167749 -65.406179197491710 -1.991084772198661 6 12 8
-119.827610380090277 -64.822287586944682 -1.996073173338885 6 12 8
-119.847551367472846 -64.181065968602312 -1.660557234805339 6 11 7
-119.844041917169832 -63.615493591683617 -1.778916749316153 5 11 7
-119.858345841047125 -62.991491106560851 -1.556779202373349 3 12 7
-119.866885069344420 -62.386178624992105 -1.448065965361138 2 11 6
-119.887355124124468 -61.739863402693558 -1.112349353822424 1 12 6
-119.813559373645646 -61.418892178117979 -2.592122409923689 1 11 11
-119.828388236962738 -60.794151757328549 -2.369741329694733 9 19 20
-119.855165290130984 -60.126208731504178 -1.920371212671768 14 24 26
-119.911616808608287 -59.349618484694730 -0.903628868983446 15 25 27
-119.891453741281353 -58.847982987703809 -1.361873937131918 13 23 25
-119.912777169192410 -58.195709088856532 -1.025810410463521 13 23 25
-119.957895541436002 -57.453301060835756 -0.235855720177852 13 23 24
-120.032745203487039 -56.595101973941262 1.121424846306240 11 21 22
-120.084135890237334 -55.820721628225293 2.024909968145124 9 19 20
-120.070640127526318 -55.293822709042857 1.680453351495885 11 21 22
-120.086876207285073 -54.652490509880273 1.903336851737180 13 23 24
-120.097359325833750 -54.033363525112392 2.012837839561342 14 24 25
-120.090242097524779 -53.484730095453337 1.782067852591950 15 25 26
-120.077355142720251 -52.961039849706822 1.437935516045940 16 27 27
-120.117957872304572 -52.220275505268418 2.114887972702093 16 26 27
-120.200259389332217 -51.304131185632642 3.585995906594860 12 22 23
-120.193826619165037 -50.753165627905830 3.355529356288599 10 20 19
-120.181624353496701 -50.228226614836366 3.011711718489096 8 18 17
-120.193329506987851 -49.603217942456766 3.121736780475601 9 19 18
-120.246794560261350 -48.797858319852303 4.025895386889175 11 21 20
-120.318313205253631 -47.910098792829672 5.270419240849577 12 22 21
-120.342521546555304 -47.225756296717130 5.607532802013822 11 21 20
-120.349093425791750 -46.619009970867062 5.604431221778839 12 18 16
-120.302298651689995 -46.252894866214739 4.580546191270770 12 18 16
-120.309230234238683 -45.648203797652151 4.577637847663169 11 17 15
-120.322316880077409 -45.015982274958589 4.688249565361673 10 16 14
-120.311767657791194 -44.493334419186027 4.345246321883081 10 16 14
-120.259651987490045 -44.167155557402857 3.208367991761264 6 17 13
-120.213639902756327 -43.818124141931555 2.185033248158845 8 20 15
-120.448425275613147 -42.138302753964645 6.492700147318516 3 12 7
-128.070332673857877 -1.387681165733961 149.956017325964609 127 135 126
-121.952379670342708 -2.716680536986888 16.783699856273699 124 128 121
-121.891032178730839 -2.679455294655135 15.201943859561851 82 87 81
-121.451281820183738 -5.305290655887257 6.925899238655973 54 58 57
-121.331629413219616 -5.707391508469584 4.323042610201298 17 22 22
-121.321393726566740 -5.346941824932561 3.649282293601686 8 14 12
-121.376053051767727 -4.530345501102043 4.110461030919311 8 10 7
-121.424858809296126 -3.756777506639390 4.458423468815994 9 13 8
-121.474262187850741 -2.980627637676268 4.806645230031819 9 14 8
-121.537264872059168 -2.108371249854209 5.382101349620598 4 9 3
-121.581409797840379 -1.373462171457982 5.617373112308570 2 9 1
-121.508708242039617 -1.488541166070390 3.810035344388240 0 4 0
-121.527637249664224 -0.945268746059709 3.591780970975918 12 17 9
-121.344323518981284 -0.726588516547447 -1.819393151076582 33 40 24
-121.081756430279526 -0.530790857489031 -9.818000619325545 68 75 57
-120.665491422741127 -2.085595322184641 -19.867576746595290 90 96 82
-119.753929046706830 -173.465188901924677 -16.433249998795020 30 31 13
-119.639316037241841 -172.393950477573640 -18.161990538715486 33 32 14
-119.606551412676765 -171.770612531969704 -18.405799123252820 33 32 14
-119.535132303247480 -170.041430340969072 -18.679482891199058 23 21 6
-119.528512889981357 -168.181121882350027 -17.482350951194178 31 32 19
-119.677093472877587 -168.477836376875672 -14.415026385426700 67 69 55
-119.806964538817724 -168.666056065867679 -11.690345834738054 8 4 0
-119.893593765943564 -168.624385633059660 -9.764730600471466 24 11 2
-119.875709753268808 -168.051689854171229 -9.779181296183566 58 40 29
-119.882637921099146 -167.601010551897815 -9.337070413219550 120 99 88
-119.914273134963963 -167.269000650792265 -8.438482700678776 111 86 77
-119.958272039825047 -166.992588569511781 -7.311690174614284 104 75 67
-119.886223849567614 -166.148794526171997 -8.352573342130995 111 81 73
-119.851197704891661 -165.486162636714255 -8.708727187361688 120 92 83
-119.816465203299913 -164.825500179521299 -9.064720282391761 121 93 86
-119.855084121880807 -164.511833797799540 -8.051743885472490 118 87 82
-119.887721233401265 -164.164987214054293 -7.152829589955189 121 103 99
-120.120887285912843 -164.744523340752465 -2.490104011434482 192 190 185
-119.782071155095480 -149.022420054966204 -2.481451339518713 93 100 96
-119.859896538829261 -148.746864303535943 -0.784173102673265 68 74 70
-119.861094375695387 -148.200581225372957 -0.567505457934004 54 60 56
-119.891878544052020 -147.752997891300197 0.218626577027692 55 60 56
-119.822697574759616 -146.967585402019239 -0.931142856063587 55 60 56
-119.789046028507826 -146.304086112539977 -1.397506911624532 55 60 56
-119.726200270848665 -145.547386048884334 -2.433091164844342 58 63 59
-119.722296080806530 -144.984082024960799 -2.329898402355497 56 61 57
-119.677457976716667 -144.290451735381481 -3.023641992203324 55 59 58
-119.615227088014052 -143.545383887599627 -4.058812357980514 51 56 52
-119.582503029123444 -142.895425644342140 -4.524593321975829 50 55 51
-119.573363275410912 -142.318727842874864 -4.534901989002037 48 53 49
-119.540959290128740 -141.672295972616126 -5.000493532151410 48 53 47
-119.508719933898121 -141.028169578646242 -5.465982585901230 52 57 52
-119.464960600383350 -140.352513530684149 -6.159025077705195 45 50 46
-119.508929362275936 -139.929882899668058 -5.144610957840285 48 53 47
-119.447959208711794 -139.207799647988111 -6.178941600254461 50 55 49
-119.497931081390831 -138.796550365078986 -5.050679573912220 23 28 21
-119.419796947047871 -138.031857210144182 -6.426236665798797 25 30 23
-119.411727133112251 -137.460403278740671 -6.435979499514303 29 34 28
-119.345601473812195 -136.736296910853241 -7.583656228072869 43 48 42
-119.378494992840103 -136.272775478282171 -6.796679145834759 49 54 48
-119.335921922173910 -135.614051774588006 -7.488979840432563 30 35 29
-119.345759110529301 -135.088789633251963 -7.157103895570771 27 32 26
-119.291855732271927 -134.405974649657935 -8.076790723970504 47 53 46
-119.325101988813103 -133.936242167825185 -7.289708826765349 39 46 38
-119.300449688091206 -133.326412169267940 -7.640356344218560 48 55 48
-119.333843374446829 -132.851922980196093 -6.853252880272692 36 43 36
-119.292039080452312 -132.203526563925635 -7.545079490788481 24 31 25
-119.302444660517992 -131.673827445957954 -7.212977301310218 34 40 36
-119.272455630807485 -131.054759529577069 -7.677131867068141 81 86 80
-119.283042723898163 -130.523837931140804 -7.344955425986456 51 56 52
-119.259053533576619 -129.919362299441076 -7.695230598509227 43 48 44
-119.252496125878949 -129.351763840404260 -7.704210215950724 31 36 32
-119.240263243686314 -128.772777844794234 -7.826881063491754 34 38 37
-119.222362715731492 -128.183220875400082 -8.063230990602392 34 36 34
-119.204565427670985 -127.594815442550384 -8.299519674757306 34 36 33
-119.215671394268668 -127.060726138735745 -7.967127613151263 34 36 33
-119.198061270371809 -126.473254124878110 -8.203317150461174 35 37 34
-119.203567976910307 -125.927279374231631 -7.984584983470228 36 38 35
-119.191894367235406 -125.350821497406955 -8.106962253759093 35 37 34
-119.197557773125382 -124.803588023823679 -7.888168079003009 35 37 34
-119.151579241042640 -124.171884897792737 -8.692678683210119 38 40 37
-119.145924908936820 -123.607027497510074 -8.701198057289218 39 41 38
-119.134611212827835 -123.033491915345053 -8.823373065514886 43 45 42
-119.152072997923142 -122.502806924571814 -8.377046474900681 40 42 39
-119.123709968420869 -121.904548466360779 -8.840208965525733 40 42 39
-119.118377034698511 -121.340140288159589 -8.848569959651286 42 44 41
-119.073009364647518 -120.722330878716292 -9.652645314551847 42 44 43
-119.079302794117638 -120.174633495078382 -9.433554513933814 42 44 43
-119.068485461061485 -119.604614935077180 -9.555455861300487 41 43 43
-119.092084404822231 -119.076079873573875 -8.995312259794645 41 42 44
-119.058527890068760 -118.479408460746455 -9.571801844627174 40 42 39
-119.059376299567532 -117.923128029577896 -9.466263157439926 41 43 40
-119.025996895696508 -117.330335748715783 -10.042628083179324 43 45 42
-119.015565294841153 -116.763207775449004 -10.164315143321943 44 46 43
-118.988074391527775 -116.180288667669515 -10.626902516127785 42 44 41
-118.994924643079869 -115.630672640814126 -10.407565083292837 42 44 43
-118.984713967075137 -115.065262891740716 -10.529128767199410 39 41 40
-118.980280044377778 -114.505061334550760 -10.537016376668873 40 42 39
-118.958805505565167 -113.931787044042238 -10.885767377450179 43 45 42
-118.943110450792503 -113.364263113292267 -11.120835416614966 43 45 41
-118.933187830009530 -112.801671357600753 -11.242232288869246 44 46 41
-118.911941647011730 -112.232547399362318 -11.590831323556500 41 46 42
-118.890772037731381 -111.665076730619717 -11.939376707500458 42 47 43
-118.863985789611050 -111.096253949278562 -12.401481875107919 43 48 44
-118.842968943004124 -110.532358529313299 -12.749917376080759 42 47 43
-118.856157949223714 -109.984870834726095 -12.416666711826650 41 46 42
-118.846651197766278 -109.427015019001630 -12.537815884211881 43 48 43
-118.854264840069320 -108.875463204433657 -12.318133173893699 44 49 43
-118.844883700757080 -108.317906581697642 -12.439219174115550 43 48 42
-118.835567523589063 -107.760906322507836 -12.560268369740754 43 48 42
-118.831995450395212 -107.205559831876869 -12.567693697722831 40 45 39
-118.811450678718231 -106.647744420004983 -12.915840775089777 37 42 36
-118.790976558340120 -106.091571100689990 -13.263937150233801 37 41 40
-118.770572598631531 -105.537038816869440 -13.611983068751385 36 41 38
-118.761584000026090 -104.984165710947480 -13.732833069053243 36 41 37
-118.769671937509514 -104.431054874307975 -13.512939505343923 38 43 39
-118.783482707631180 -103.876325075423665 -13.179465937987885 39 44 38
-118.803011737051307 -103.319158707804235 -12.732422970889530 42 46 41
-118.799921684448563 -102.764134334899126 -12.739614386153477 48 50 47
-118.796891105761716 -102.209111663550544 -12.746777331784983 48 50 47
-118.788256317087559 -101.655713332468054 -12.867463477034846 52 54 51
-118.785346041449486 -101.100963266304802 -12.874566064038049 50 52 49
-118.788156016054103 -100.544043854568415 -12.768095548175808 43 45 42
-118.785363272344242 -99.989017982587868 -12.775144747315238 40 42 39
-118.788288222231074 -99.431276345896762 -12.668627691246598 42 44 41
-118.791270232856832 -98.872985977184712 -12.562088985890398 40 42 39
-118.799965043144482 -98.310888979796616 -12.341997595378530 39 41 38
-118.780443532865576 -97.765342236723427 -12.689528860428879 40 42 39
-118.755336588850355 -97.225222734611151 -13.150535197436227 37 40 37
-118.752906996701583 -96.670978487409968 -13.157402620457106 36 41 37
-118.744887234589669 -96.121070589593003 -13.277758610324696 34 39 35
-118.731280970028592 -95.576314697083902 -13.511593016556787 29 34 30
-118.717740168604593 -95.032636263171227 -13.745385014625839 29 34 30
-118.738149233527466 -94.459059436721944 -13.298089962656150 38 43 39
-118.752965213700151 -93.888725742013420 -12.964296124995712 43 48 42
-118.779127851570848 -93.305329850738858 -12.403490771095846 41 46 40
-118.850497968955963 -92.671361541175131 -10.934707801897588 14 18 14
-118.921906528134414 -92.030297170900923 -9.465979485594858 1 6 0
-118.886148307384644 -91.506087504652015 -10.153635358790467 2 7 1
-118.827899362349186 -91.012310275704095 -11.295173000709468 5 10 5
-118.826140043338839 -90.453274593242156 -11.301769088008569 8 14 12
-118.886485085206687 -89.813469522465823 -10.060038327703239 7 13 11
-118.924322323370319 -89.198102671350526 -9.272259208349908 7 13 11
-118.905832486598982 -88.657752673767774 -9.619243431618543 8 14 12
-118.847951571086469 -88.176115330808869 -10.760480047530223 5 11 9
-118.835248354845746 -87.632457970965675 -10.993871130792598 6 12 8
-118.833889088030816 -87.072457450480556 -11.000285766055157 4 10 6
-118.821327979320060 -86.530377591698098 -11.233592627551474 4 10 6
-118.786299244100576 -86.026345990315875 -11.920691814411583 4 10 6
-118.734444626234264 -85.554110780662725 -12.948089804383898 5 11 7
-118.699572750607103 -85.057370277171373 -13.635038899219438 8 14 11
-118.715479899438947 -84.473284269619214 -13.300864609677376 9 15 15
-118.748355944666159 -83.856517110704829 -12.626332207011359 10 16 16
-118.809463524934117 -83.183395875717792 -11.384579590964051 9 15 15
-118.814315197870798 -82.613061234319062 -11.277270423316253 4 10 10
-118.807978414270423 -82.064450625557882 -11.396807928384732 9 15 15
-118.796087647985260 -81.527770699318552 -11.629738516143988 5 14 13
-118.806801087056002 -80.945339524601806 -11.408890730443858 7 16 15
-118.840116761183268 -80.313884641003781 -10.734299198947667 12 22 23
-118.839724827641959 -79.752581343341859 -10.740264475427779 11 21 22
-118.878829299366359 -79.103607962566201 -9.952225044775020 28 38 39
-118.923645218611085 -78.437977793772916 -9.050765848971906 20 30 30
-118.951652148489458 -77.807121812828214 -8.489566722642138 18 27 26
-118.968483018880960 -77.200156551220616 -8.155186035527720 10 19 18
-119.024814380522784 -76.496242064447415 -7.026894201429883 6 15 12
-119.053081917020819 -75.856220402716957 -6.465664748743336 1 10 5
-119.081440136401852 -75.213411759252224 -5.904420601479444 2 8 4
-119.087367666475288 -74.625520283342695 -5.796777468782551 4 10 6
-119.132805410056307 -73.934123705524925 -4.895286020940432 3 9 5
-119.133291034348431 -73.358074643279522 -4.900983262323564 0 4 0
-119.128241029770905 -72.797203435789001 -5.020031381220178 0 7 0
-119.123287686621197 -72.236808676154453 -5.139028353303928 2 9 2
-119.118432308370672 -71.676888383563977 -5.257973575388007 2 9 2
-119.158737220458420 -70.988927016020895 -4.469761181113796 3 10 3
-119.148452411523152 -70.444102410199122 -4.702007321660147 4 11 4
-119.183337812600797 -69.767409370769940 -4.027130497235134 2 9 2
-119.207066551918231 -69.121125387515775 -3.578995735703927 0 6 0
-119.253446112268691 -68.403946755213596 -2.677319113586151 0 4 0
-119.254861410814925 -67.821749998144895 -2.682634883303933 0 6 0
-119.233842795548640 -67.310277349440639 -3.141390501398377 1 8 1
-119.246751995507111 -66.693042304034606 -2.919850524940955 3 10 3
-119.259778406031103 -66.074620997697139 -2.698266686130410 3 10 4
-119.267285480277863 -65.473533661902650 -2.590003736530093 4 10 6
-119.286191209200965 -64.834208242339457 -2.254963543568351 4 10 6
-119.293941324279274 -64.231280909429600 -2.146603264081932 4 9 5
-119.324381457287103 -63.550328821257061 -1.584755766113148 4 10 6
-119.338028044093775 -62.925385477187568 -1.362942371705543 5 11 7
-119.346161133183543 -62.319128546223325 -1.254433151990185 3 12 7
-119.343134290539069 -61.752540163105706 -1.372572246913592 0 10 5
-119.283771126495779 -61.390763983743213 -2.624143059192193 0 9 8
-119.264044088419979 -60.889909447343719 -3.082171493621786 5 15 16
-119.283982678241387 -60.244224761551770 -2.746702642668538 10 20 21
-119.388823655558269 -59.277879150494122 -0.711034230741404 13 22 24
-119.409075423506280 -58.624546596510974 -0.375494279795134 16 26 28
-119.418169895115227 -58.013053313872120 -0.266579038376221 13 22 24
-119.416099853058640 -57.445039901875148 -0.384275071716189 12 20 21
-119.465085481493574 -56.676234219187464 0.518116861275502 10 18 19
-119.514247287793552 -55.902899116878679 1.420546453562366 7 15 17
-119.546606884319701 -55.193742223622685 1.983021890071313 9 17 19
-119.545162654820885 -54.620763221210922 1.865574129997242 11 19 21
-119.572193855656877 -53.930913662362684 2.314840335443989 10 20 19
-119.525731230435653 -53.547167884750564 1.290932722448161 10 20 19
-119.524742402408492 -52.976185574389241 1.173723377831436 11 21 20
-119.552267813306301 -52.284203642860554 1.623204062094572 9 19 18
-119.619691441572527 -51.417994679642803 2.865990704869063 8 18 17
-119.641928220385623 -50.744176527386188 3.202269409655031 9 19 17
-119.641637618858766 -50.168935049408496 3.085350252450837 9 20 16
-119.635835186938081 -49.619436606036906 2.855200355546202 9 20 16
-119.675667432530872 -48.865642042300529 3.531650088708687 9 20 16
-119.744142799046742 -47.978723018598394 4.774726700400350 12 23 19
-119.773038734086498 -47.268963169943397 5.224680041683371 10 20 17
-119.779376164446120 -46.662706179564893 5.221471338885181 11 17 15
-119.751733573981397 -46.216755756484041 4.538503517103891 10 16 14
-119.741340446575506 -45.692816549923094 4.195561656358535 10 16 14
-119.731123074476415 -45.170315132314435 3.852718676233508 9 15 13
-119.703970616140055 -44.731984753692572 3.170063768927974 8 14 12
-119.671270601821305 -44.324593906487195 2.374214521074947 5 16 10
-119.638725171917045 -43.920836379469179 1.578476625465868 9 20 14
-119.652051877646002 -43.293454638356714 1.689253005296166 5 15 8
-127.564083250133720 -2.130514275800143 158.035892060337574 101 112 110
-121.960194839160224 -0.731009274580196 30.513500824567132 120 125 116
-120.968218048024298 -5.001423474103914 9.130570796557521 28 33 31
-120.866547384594952 -5.301454358981459 6.756983684961398 29 34 33
-120.869594836016319 -4.843005438147373 6.310286990546587 30 36 36
-120.792764881042245 -4.978516644650764 4.390325644713499 38 44 44
-120.796432420800357 -4.526854590823469 3.943995459065064 15 17 15
-120.887307570611640 -3.430567407482541 5.084774033740075 15 20 14
-120.978960197793725 -2.327644449676851 6.225856245564160 0 4 0
-121.002898961151246 -1.732118730766371 6.120319537587562 6 11 5
-120.971163315440009 -1.559518659182270 4.994771805011567 4 11 3
-120.908401608186580 -1.628437000582955 3.302572956693240 0 5 0
-120.877100106052907 -1.467177531899207 2.177349651439300 16 21 14
-120.645914900575377 -0.625363418270365 -6.034612373181886 55 59 44
-120.436530109675260 -1.237562306999870 -11.560565029836738 68 75 57
-120.162156657923987 -1.544703420072410 -20.113938044865819 96 100 85
-119.211509025027411 -173.769665179322317 -17.465619945070557 34 33 15
-119.226951222407735 -173.417110677155392 -16.796708161851342 36 33 14
-119.158594477936361 -172.584922050045293 -17.724847009057441 39 34 15
-119.090696940550686 -171.757628413713263 -18.652715786568706 36 33 14
-119.017272443962256 -170.901729486458038 -19.694381975967673 33 32 14
-119.044617646497684 -170.161106234498504 -18.469475997870632 22 21 3
-118.912789136538507 -168.986869289671205 -20.650948129412882 14 15 0
-119.130789257492737 -168.340952867234819 -15.121220999903670 33 34 20
-119.231160932621364 -168.405444943348670 -12.855361986820498 16 9 0
-119.231222978516982 -167.932585036269245 -12.527623034083291 27 10 1
-119.213832397009270 -167.366302909353749 -12.541771655074740 29 10 0
-119.278996720369307 -167.226170171704354 -10.960015333922513 26 6 0
-119.350051147803427 -167.108704074972195 -9.264349003128700 33 14 1
-119.374214649334561 -166.744333399800524 -8.480527722782057 36 15 2
-119.269727365931118 -165.725584296178226 -10.203883851116160 56 29 18
-119.265106269898155 -165.213641309817291 -9.989646484114246 79 51 40
-119.301561744258194 -164.904069141282122 -8.977662927701488 90 63 52
-119.326454937643092 -164.532295637227207 -8.193568766309767 78 53 44
-119.322362453705523 -164.014568134519379 -7.979138056026045 92 74 66
-119.318472403078971 -163.496013148850579 -7.764619020037969 117 108 100
-119.353570242398447 -149.981343255992300 -0.681114100576451 97 108 104
-119.280691226255939 -149.165424836405947 -1.943825564390920 64 70 66
-119.320983690425464 -148.765240890946075 -0.930939117744686 48 54 50
-119.299298176081081 -148.138039175957857 -1.169487265647746 55 61 57
-119.283419832640774 -147.532010888865699 -1.294180449245147 56 61 57
-119.211391852455151 -146.730131911189318 -2.556340265346591 57 62 58
-119.190249937021477 -146.108846183186046 -2.794567461168043 56 61 57
-119.118675914574752 -145.316838058053946 -4.056408499799289 56 61 57
-119.097897637468023 -144.700480210304079 -4.294411007144618 53 58 54
-119.066050958480005 -144.048230887036169 -4.759795818839422 51 55 54
-119.090459215590016 -143.581141495599439 -4.087773668531241 49 54 50
-119.064514308156589 -142.948794366925569 -4.439271344736483 47 52 48
-119.061126576505501 -142.389156458955910 -4.335793773150414 45 50 46
-119.013096865222579 -141.689383701000281 -5.141986329372656 44 49 43
-118.976436378961310 -141.027934544786149 -5.720627633389284 41 46 41
-118.939942795672891 -140.369331889632434 -6.299159791130336 38 43 39
-118.914779813621607 -139.746856515504788 -6.650181781984315 50 55 49
-118.934396739036600 -139.257075972031117 -6.091544244683149 48 53 47
-118.898340107332132 -138.603710133480718 -6.669813461100176 18 23 17
-118.879154628245033 -138.000642932916094 -6.906917172024436 23 28 21
-118.860100198627393 -137.398765456177642 -7.143945942906726 25 30 24
-118.846738720606098 -136.813350028623546 -7.267222888196528 48 53 47
-118.833496705036808 -136.228572213780694 -7.390436119790849 37 42 36
-118.798145399561577 -135.585514919022245 -7.968261799537601 24 29 23
-118.785150972794455 -135.003097443534671 -8.091332289338936 41 46 40
-118.766720609307569 -134.407127586270491 -8.328001699028391 49 56 48
-118.792778113620528 -133.923604902377235 -7.655359710646138 38 45 37
-118.780098783432223 -133.341431550083257 -7.778276946441508 68 75 68
-118.789685426251140 -132.813333548216121 -7.446550052642664 30 37 30
-118.760600459008032 -132.192041829226440 -7.910295008732447 19 25 20
-118.781435075186081 -131.688360585314598 -7.351218019236882 82 88 84
-118.763628268234683 -131.094211361048082 -7.587570380927076 93 95 90
-118.768035365565069 -130.550307550167133 -7.369342945988762 39 41 38
-118.733862401922067 -129.921390024870703 -7.946459363291723 62 64 61
-118.727413786310322 -129.353893493833084 -7.955385885776138 33 35 32
-118.715539745541790 -128.775006873055020 -8.077884041894805 34 36 35
-118.714789870847000 -128.219086609601646 -7.973106261000055 36 36 34
-118.703100899195562 -127.640865292589694 -8.095509032381585 36 36 34
-118.713537650286725 -127.105784711665237 -7.763447324893235 36 36 34
-118.696517447216323 -126.517314156993763 -7.999364924584142 39 39 37
-118.679593794363967 -125.929987995481113 -8.235224555168003 40 40 38
-118.662765240445069 -125.343804377920307 -8.471026929969184 39 39 37
-118.668017433489595 -124.796937139021196 -8.252425708191282 39 39 37
-118.651363950136400 -124.211942839974128 -8.488132087581022 41 41 39
-118.629310211653831 -123.619087116131297 -8.837361737029283 43 43 41
-118.612840250332624 -123.036638306367024 -9.072954118108044 42 42 40
-118.612917009565351 -122.480684426486306 -8.967781224406593 41 41 39
-118.602098478101126 -121.907865486439363 -9.089711970806150 41 43 40
-118.596841923626542 -121.343541005272428 -9.098035563825761 43 45 42
-118.575224850073752 -120.756347273990713 -9.446998032534594 42 44 43
-118.564648553452585 -120.185553665679052 -9.568792046858562 41 43 42
-118.559623630507645 -119.622432708055655 -9.576992439675934 40 42 42
-118.560141896428249 -119.066165728783616 -9.471611553577702 40 41 43
-118.522444836763157 -118.463562221352603 -10.161001907853660 40 42 39
-118.523111502412860 -117.908178533105485 -10.055540935675396 41 43 40
-118.501986116212933 -117.328274184696710 -10.404193149560200 43 45 42
-118.519176448104659 -116.790139439641592 -9.958073105291390 42 44 41
-118.481819594445767 -116.195284015726685 -10.647220951264131 42 44 41
-118.488216348703105 -115.645201551317200 -10.428105271256555 40 43 42
-118.472849302933724 -115.074406240678783 -10.663050065995122 39 42 41
-118.463009658554924 -114.509365081839789 -10.784432455559170 41 43 40
-118.436885808133766 -113.931788741473767 -11.246310839158298 43 45 42
-118.421740921579399 -113.364604166673629 -11.481112186571977 44 46 43
-118.412114805191507 -112.802353214934726 -11.602363704073781 45 46 41
-118.402555693220535 -112.240666930326938 -11.723577354489720 40 45 41
-118.382176907403732 -111.672986701483296 -12.071746568306764 40 45 41
-118.372753873307872 -111.112970844073871 -12.192877924987386 41 46 42
-118.374274353168886 -110.558984794377380 -12.086994104421365 40 45 41
-118.375851933238849 -110.004470034973963 -11.981088409585766 40 45 41
-118.350309163803303 -109.438476471102234 -12.442569578696038 41 46 41
-118.341141935416488 -108.880427070540094 -12.563558317074040 44 49 43
-118.321174357905036 -108.319643900742889 -12.911459815353822 43 48 42
-118.322996804582289 -107.765998272579338 -12.805428030768155 43 48 42
-118.303161512187586 -107.207414816481958 -13.153243601543380 41 46 40
-118.294248294228836 -106.652131655580163 -13.274082347908831 37 42 36
-118.274546966530067 -106.096288168571604 -13.621805626554419 36 40 39
-118.249490387597987 -105.541800886893625 -14.082935763851452 36 41 37
-118.251612667418144 -104.989558842333366 -13.976746092326778 33 38 34
-118.264629282999024 -104.436258137081623 -13.643637735402280 35 40 36
-118.277693868036238 -103.881328956432597 -13.310523192769637 39 44 38
-118.285389657102542 -103.325574621961508 -13.090844442370013 35 39 34
-118.271475179142186 -102.773040039373342 -13.324906366800491 43 45 42
-118.279279620928236 -102.216201339967512 -13.105186799225180 40 42 39
-118.281723046304776 -101.659895455146980 -12.998885323916483 41 43 40
-118.284220926037307 -101.103044966522873 -12.892563403711080 49 51 48
-118.270544502195165 -100.552144307535059 -13.126494625070904 45 47 44
-118.251522756987924 -100.004767444054892 -13.473805642572728 46 48 45
-118.265007961278485 -99.442763553784189 -13.140562700671154 45 47 44
-118.278542744399061 -98.879122455526129 -12.807312893031622 39 41 38
-118.286723189758533 -98.317096986335557 -12.587466836662600 40 42 39
