ply
format ascii 1.0
element vertex 683
property double x
property double y
property double z
property uchar red
property uchar green
property uchar blue
end_header
-95.961769215089276 -94.690564994927826 -10.556206244353007 111 115 116
-95.932369850177409 -94.079114366362560 -10.022270343638070 49 53 54
-95.929107108354899 -93.491471939244590 -10.029880126850742 25 31 34
-95.936303667798114 -92.914985068145810 -10.254089156288217 88 93 97
-95.974908736338847 -92.374674563913189 -11.128053390637973 51 56 62
-95.950693772486588 -91.765282604109103 -10.702474984235550 23 27 36
-95.963126109894688 -91.198458175081939 -11.034938659991553 20 24 33
-95.996519628285498 -90.659918411463238 -11.800518970026161 21 26 37
-96.014205894774406 -90.104382939440612 -12.241211866133767 24 29 40
-95.963746057616902 -89.457346606641508 -11.274281985000471 27 31 42
-95.955206841971830 -88.865245741121811 -11.173603023229361 25 30 38
-95.967643001237917 -88.303602937223332 -11.506011533551117 25 30 38
-95.995826322532423 -87.767657111911333 -12.163198798387015 25 31 37
-95.992532940000004 -87.185219171785121 -12.170769667611154 33 38 42
-95.973486482856899 -86.577092149004301 -11.853564529603460 40 45 49
-95.959680793812538 -85.976174967039825 -11.644636896508246 46 51 55
-95.945867798154879 -85.374174868558441 -11.435723905875477 49 54 58
-95.937302990188201 -84.780471020185573 -11.335073687691050 50 55 59
-95.928735270172183 -84.186227298376807 -11.234430419809570 54 59 63
-95.904391557146951 -83.561675779266054 -10.809069651529626 35 40 44
-95.937891212744077 -83.047090684021583 -11.574352608453211 30 35 39
-95.929326705009714 -82.452584443052160 -11.473710506068727 76 81 85
-95.941812339713351 -81.900487576238845 -11.805997086384878 90 95 99
-95.975367305125999 -81.394059537531817 -12.571169618601601 110 115 119
-96.014213964472120 -80.902717292878407 -13.444514221842809 181 184 189
-96.037289167035297 -80.381065594529190 -13.993139171620527 202 205 210
-96.049848611316762 -79.838483377136114 -14.325292502621409 206 209 214
-96.057154154387831 -79.285436124706337 -14.549208118894796 211 214 219
-96.022300235129535 -78.634536818632810 -13.907428838417047 196 199 204
-96.003256681338655 -78.018294843251013 -13.590305842739326 128 131 136
-95.989488654689865 -77.413333149801872 -13.381401824271677 43 46 51
-95.970449221226716 -76.794101520269010 -13.064307631455335 42 45 50
-95.925024005782234 -76.105968660286692 -12.206251116671609 65 68 73
-95.900704594413256 -75.468389639668914 -11.781012821180127 87 90 95
-95.886948599525894 -74.856629057598198 -11.572173031135009 104 107 112
-95.889048208694419 -74.286584986861257 -11.687895220211828 106 109 114
-95.896450479824395 -73.731620472051986 -11.911784297458183 129 132 137
-95.866879938854169 -73.074052227525101 -11.378404998571483 141 144 149
-95.869032522137175 -72.504264667265616 -11.494099204622245 172 175 180
-95.813039213311484 -71.766103276873508 -10.419895628442504 198 201 206
-95.815221754518689 -71.194399876765587 -10.535595223426981 198 202 206
-95.790974587767849 -70.543737191488589 -10.110457043090776 204 209 213
-95.772031439416338 -69.907062187827663 -9.793496341219793 199 204 208
-95.747810477777179 -69.252304488421572 -9.368387776485548 194 199 203
-95.771259857206701 -68.745786409091252 -9.916677943389971 195 200 204
-95.497408820771227 -66.103073106384954 -4.531945870124133 188 194 194
-95.552743959888971 -65.696508116784429 -5.729106441047094 187 193 193
-95.692227109837987 -53.949193015224992 -9.774219053041520 97 99 95
-95.743630718920215 -53.596628457568343 -10.861845715963341 127 129 125
-95.992175411163586 -54.139429282355962 -15.947723056827016 133 135 131
-95.889303877040220 -53.102249719872667 -13.901293842919443 129 131 128
-95.786473024377287 -52.054665129088086 -11.854952271323953 133 135 132
-95.742296084674990 -51.270241656476280 -10.997289753351964 108 110 110
-95.730155472250260 -50.632246408363962 -10.787947216470627 108 109 110
-95.760724623705414 -50.196405213572724 -11.442962681085390 117 119 118
-95.764729332801593 -49.635321313645726 -11.557681245347567 131 133 132
-95.726170236157515 -48.867030192001991 -10.808023997040635 117 119 117
-95.709010704090062 -48.199770037084264 -10.490524847579621 59 61 60
-95.718591271888357 -47.663309518945667 -10.713181364233122 23 25 25
-95.722928247963281 -47.101073727972285 -10.827752830104771 9 10 11
-95.690026680158141 -46.349949392719594 -10.186071217957959 7 8 10
-95.657211325959864 -45.595459483398130 -9.544383005061803 10 11 15
-95.667151422085780 -45.058350857147545 -9.766874195898112 13 15 18
-95.671854578593596 -44.494363368039110 -9.881288513414717 15 20 24
-95.724660258635808 -44.184067450654680 -10.967809338046891 30 35 39
-95.745565418005185 -43.708644512202696 -11.406137688280836 27 34 40
-95.761239015083191 -43.206605805483001 -11.736383884535599 14 21 27
-95.750345214024691 -42.561299705534324 -11.526520131640922 12 19 25
-95.723553652608913 -41.827090331920765 -10.992600284103816 17 22 28
-95.728875970813021 -41.267046675316337 -11.106677800937973 23 28 34
-95.723639953115494 -40.647867273061777 -11.004697333572892 25 30 36
-95.750521976677348 -40.208304711481794 -11.550656128510752 25 30 36
-95.734845028804784 -39.528755905676569 -11.232574209109686 26 31 37
-95.724620214916968 -38.878022071235684 -11.022446285443436 20 25 31
-95.719849613027662 -38.256917950578142 -10.920262976844384 15 19 28
-95.741868088067548 -37.790827646391932 -11.357962655184849 17 21 30
-95.785339707270097 -37.452431657782263 -12.227520340836719 18 22 31
-95.802268825733705 -36.959805636154641 -12.557069010467984 16 20 29
-95.792663866035383 -36.308843395331415 -12.346646901783799 13 17 26
-95.793854981670961 -35.721090558996892 -12.352127111352587 13 17 26
-95.784518142640792 -35.068143871832092 -12.141597161562942 14 19 27
-95.812631022684783 -34.643409867239626 -12.686814481192471 15 20 28
-95.808899048886801 -34.022884348250926 -12.584128340637022 14 19 27
-95.826624035617286 -33.534948591960550 -12.913247990360077 14 20 27
-95.801866009131786 -32.779617126704714 -12.378572726982810 15 21 25
-95.787917078491830 -32.089104418267745 -12.059776987018324 15 21 22
-95.784774835661452 -31.465048997153833 -11.956845056245243 13 19 20
-95.803085355130918 -30.977947324095833 -12.285676003475373 12 17 18
-95.800249805936232 -30.353463532923442 -12.182601760946454 14 20 21
-95.776285031554394 -29.588298147300641 -11.647648233964276 14 20 21
-95.763135349890547 -28.890661656344392 -11.328543464701397 14 19 23
-95.771435522792927 -28.333248690358829 -11.441169307035096 15 20 24
-95.790535348993060 -27.847747115759422 -11.769606182013490 15 20 24
-95.783212234235037 -27.183263849354095 -11.558231625240069 13 18 22
-95.786697256252637 -26.590129800271335 -11.562669829384674 13 18 22
-95.806296872975423 -26.106616203082122 -11.890847143040077 12 17 21
-95.820752094086956 -25.587584958985151 -12.110992233983978 12 17 21
-95.851309166557641 -25.180915656610068 -12.654854311279735 12 17 21
-95.855491721877584 -24.589454664975570 -12.658941596262650 11 16 20
-95.854554519765088 -23.959977912488913 -12.555010586055630 11 16 20
-95.859113977365112 -23.367660996982966 -12.558926372734078 11 16 20
-95.863865502854281 -22.775043252336239 -12.562753371378165 9 13 12
-95.879410172153527 -22.259232048785552 -12.782344128548459 7 11 10
-95.873957200006075 -21.588876050280096 -12.570135352942174 8 12 11
-95.895185973426095 -21.112641963214333 -12.897458351963252 8 13 10
-95.906020876557093 -20.558963473645271 -13.008833147202125 10 15 12
-95.954079854827555 -20.283144964907986 -13.875552114563448 9 15 14
-95.965302760516977 -19.731828754517473 -13.986716974582095 8 14 13
-95.955600497191696 -19.019844244989024 -13.666110663565775 8 14 12
-95.956692995841081 -18.386825339756893 -13.561245112629166 9 15 13
-95.979120232261039 -17.915971348623810 -13.887939391028823 9 15 11
-96.001751980703162 -17.446405354422133 -14.214522573578733 9 15 11
-96.014049479994014 -16.895465137189671 -14.325169481415344 6 10 9
-96.042371716721291 -16.469503959970311 -14.759440392509049 5 9 8
-96.065635435283241 -16.003481911527203 -15.085684763105803 6 10 9
-96.068073477813982 -15.370070749006915 -14.980179546289804 5 9 8
-96.076014937949765 -14.778124104879247 -14.982473583158338 4 8 7
-96.099957179810744 -14.313907466877634 -15.308374766537980 5 9 8
-96.129371094276408 -13.893925268413113 -15.742061878111713 6 10 9
-96.138024874209719 -13.302619167968768 -15.744008550192859 6 10 9
-96.162652869682418 -12.841528688115018 -16.069549492278895 6 10 9
-96.129917269168601 -11.899447254726407 -15.208036329447594 11 15 14
-96.102745037088582 -10.996530282273394 -14.454317415676798 15 17 16
-96.112490542286636 -10.399981841779280 -14.455795772173047 9 11 10
-96.179950293541054 -10.294380617908102 -15.644057998977587 7 9 8
-96.216273994960673 -9.924697827908251 -16.184780619998264 6 8 7
-96.179851599178548 -8.923971015291766 -15.214775988814836 11 13 12
-96.169837553778450 -8.145255287232416 -14.784146846309199 33 35 34
-96.092524081413814 -6.768342558035974 -12.950705557255134 39 43 45
-96.109223673753561 -6.210782744032051 -13.059314657701208 33 37 40
-96.079488277775241 -5.235943675561323 -12.196703398097924 7 11 14
-96.159040498044519 -5.235577735758726 -13.599815159371701 7 11 14
-96.171411734056079 -4.631891497767329 -13.600110848182368 11 15 18
-96.106484396587575 -3.319438877097095 -11.981798324212065 24 28 31
-96.160910926207819 -3.090244620476977 -12.844991149984764 48 52 55
-96.236203929900626 -3.056059880562777 -14.139629734847517 27 28 30
-96.275581211891463 -2.691614182113995 -14.678837625375394 67 69 71
-96.289476241126877 -2.087634295014052 -14.678407359408709 97 99 98
-96.277991609788955 -1.239849869731662 -14.138333814052146 181 184 180
-96.297720655717654 -0.682024726483022 -14.245496365452595 166 169 164
-95.888042592368407 -149.815567675903537 -13.128096240703400 194 198 201
-95.947789037956355 -148.986605902615594 -14.438353284940575 166 170 173
-95.959620421818826 -148.348841557803695 -14.771834675003191 166 170 173
-95.971524956537181 -147.712761303336322 -15.105263734759234 169 170 174
-95.983500629858142 -147.078362628185545 -15.438641452710925 168 169 171
-96.016913344758237 -146.366856859758514 -16.205993005179494 89 90 92
-96.023688994530701 -145.756326576012839 -16.430753822308901 73 74 76
-96.025180490210715 -145.166079438819565 -16.546974891106288 71 73 72
-96.005338156155503 -144.651939624767863 -16.229183040330810 76 77 81
-96.022980750707617 -144.005945388237990 -16.670827966448968 76 77 81
-96.035335671194517 -143.380499965603008 -17.003932093530551 71 72 76
-96.042395826904482 -142.774785654231380 -17.228507230771726 67 68 72
-96.033445321941770 -142.223571239933335 -17.127604163618400 64 65 69
-96.035248113967072 -141.636801681260067 -17.243640512848543 59 60 62
-96.037097077539457 -141.050605286472660 -17.359648873905030 56 56 54
-96.028271614331629 -140.498935695400377 -17.258690672567951 56 56 54
-96.024843811477936 -139.930042873389368 -17.266186421307793 54 56 53
-96.010728799654203 -139.394042881694958 -17.056738541918861 50 55 51
-96.012737392080552 -138.808492155801474 -17.172663890884564 48 53 49
-96.014784652654740 -138.223506789598844 -17.288564921609463 51 55 55
-96.027604181992231 -137.607847894921434 -17.621346043760923 51 55 55
-96.029727545655263 -137.024532561286179 -17.737193476544832 49 53 53
-96.026514637106487 -136.456853709941214 -17.744573924575889 45 49 50
-96.012587360863122 -135.918798357453596 -17.535057389989987 45 49 50
-95.998682643395725 -135.379671396450021 -17.325541093967814 43 47 48
-95.995549564443095 -134.810951644574999 -17.332894066305812 47 48 52
-96.003195828619170 -134.214268349405359 -17.557095850479243 48 49 52
-96.005494696096179 -133.632400554193822 -17.672844422599979 47 48 52
-95.997060911731595 -133.077976993036629 -17.571727191444381 47 48 52
-96.004789616492445 -132.483500477456317 -17.795866820833766 49 50 53
-96.001780320215701 -131.915922878035019 -17.803148819214897 46 47 48
-96.009558766960737 -131.323093899300687 -18.027247693285119 49 51 50
-96.006591092962410 -130.756075302466314 -18.034504025616485 52 54 51
-96.014414539208019 -130.164890432448090 -18.258564448442939 58 60 57
-96.022260172216377 -129.574798121035059 -18.482603010943535 52 54 51
-96.003179218804945 -129.043512930429415 -18.164623404251842 54 56 53
-96.005667988349131 -128.465516542355203 -18.280241277536021 53 56 55
-96.002780592202456 -127.899066974265168 -18.287453347919609 57 60 59
-96.021480275896906 -127.289708458210825 -18.728215456340422 37 40 38
-96.024017121780403 -126.713894968049928 -18.843787860403893 40 38 34
-95.988792073853602 -126.209919575088151 -18.200673764963142 55 41 40
-95.910377732092854 -125.781989618285536 -16.690567426411889 60 40 33
-95.848131248773839 -125.317529881308488 -15.505679113940630 74 45 37
-95.845268119980574 -124.744027769728220 -15.512952170278538 89 53 42
-95.874822911100509 -124.115937988873370 -16.170431812674565 95 56 41
-95.882786953613120 -123.526413344086649 -16.394407885196443 99 60 43
-95.874547730080891 -122.963638774749612 -16.293283537927948 98 61 43
-95.877121799325423 -122.383754100771014 -16.408880041203304 99 59 44
-95.879701926996916 -121.804411647228534 -16.524468064800686 108 66 50
-95.887695912037401 -121.217871543828721 -16.748399091536072 105 63 47
-95.884877213875967 -120.647352389649782 -16.755620187332966 112 70 53
-95.903704684218056 -120.048046375234463 -17.196217687610272 125 82 65
-95.906305387368107 -119.471685512684886 -17.311765176955248 136 91 73
-95.930564257626401 -118.869254239098865 -17.860655368913086 142 96 78
-95.927759026171429 -118.301443580240715 -17.867842142380795 144 98 79
-95.952035339956069 -117.703082822172220 -18.416682089554257 143 98 79
-95.954650845863682 -117.130787841506375 -18.532180645146042 144 98 80
-95.984362808119982 -116.531202813329500 -19.189291683670234 143 98 79
-95.981563376098961 -115.966642369792339 -19.196442226609605 137 96 74
-95.989603973623943 -115.392033725288897 -19.420228137591920 135 94 72
-95.992222030622315 -114.823260354991277 -19.535689223045978 134 93 71
-96.000262454615964 -114.250548358153438 -19.759455693897905 134 91 72
-95.997450559317187 -113.687336063177412 -19.766598322056240 137 94 75
-95.994632636932892 -113.124121284916612 -19.773743859113296 133 93 73
-96.002665865903907 -112.553575374972695 -19.997491475418798 131 93 72
-95.999837303625554 -111.990899234671843 -20.004636558093608 131 93 72
-95.986138353320484 -111.434462803972977 -19.795199998833397 130 92 71
-95.961560397514262 -110.882636023947668 -19.369202699223791 133 95 74
-95.953266282062174 -110.320900937447377 -19.268093912142575 132 94 73
-95.966703730318955 -109.749397059979401 -19.600124914227308 133 92 72
-95.969266656465123 -109.183590022231797 -19.715581840141027 133 92 72
-95.966384924721240 -108.620087312491052 -19.722760867200407 133 92 72
-95.941734557666990 -108.062546366822502 -19.296857027661162 130 89 69
-95.933387245795814 -107.499173351441485 -19.195790549589248 129 88 68
-95.941355338233777 -106.932413748829035 -19.419530352625515 129 91 71
-95.932986951620009 -106.368767178876254 -19.318476772472877 127 90 71
-95.935496567929619 -105.803768605778558 -19.433950879696880 126 87 70
-95.932551861302684 -105.239445296434525 -19.441168480568336 128 89 74
-95.929596754668438 -104.675121775209064 -19.448391058948715 129 90 75
-95.926631136879962 -104.110798257546335 -19.455618665792514 129 87 75
-95.923654919291835 -103.546474962275354 -19.462851341254947 125 93 78
-95.904310209363004 -102.979288551258890 -19.145367464073956 129 97 85
-95.879492078428825 -102.409246383029441 -18.719672563563705 127 94 85
-95.860107114518883 -101.838529426310927 -18.402244285429788 120 92 85
-95.878901341668012 -101.278570732936004 -18.842452667394753 110 89 82
-95.892238068808851 -100.718745657699188 -19.174411638337887 128 112 105
-95.840054370335494 -100.132796126716471 -18.207677649410698 173 165 161
-96.046956500679826 -99.109046448810091 -22.442730861076001 180 182 177
-95.405860661120400 -96.427693173415705 -10.028257663633894 206 208 209
-95.375265653004703 -95.818409636886869 -9.494871447562417 166 170 171
-95.366532798484258 -95.224358794022393 -9.394305194061900 114 118 119
-95.396100195956151 -94.663075846449587 -10.051091129326466 108 112 113
-95.381878087604122 -94.064817312175464 -9.842335343004379 11 17 17
-95.362164579893303 -93.460174254697975 -9.525413457496796 6 14 17
-95.380777979384618 -92.892918201408065 -9.965783462184959 94 99 103
-95.393915848858143 -92.321994727403478 -10.297951807348312 52 57 63
-95.346765315136537 -91.685422303611261 -9.440189941443037 39 43 52
-95.354406731654947 -91.108390756586246 -9.664191759403479 59 62 72
-95.400434655091189 -90.579070414106340 -10.645350683079215 48 52 63
-95.457454464740081 -90.068508042578628 -11.842775810690597 31 35 46
-95.388300612915486 -89.398249905835769 -10.552451461028511 28 32 43
-95.390455246554637 -88.818651559594500 -10.668245673544533 22 26 35
-95.370647327579761 -88.208614440524158 -10.351424477847729 19 23 32
-95.427708505821300 -87.709208820728165 -11.548714972815958 15 20 28
-95.402401650050777 -87.091434258266673 -11.123745210104744 12 17 21
-95.377078837721271 -86.471490988628148 -10.698805404549120 11 16 20
-95.346244352141966 -85.840545657080995 -10.165756729413431 6 11 15
-95.331885563409955 -85.234203155521172 -9.957149542852932 2 5 9
-95.312019460775787 -84.617401764386699 -9.640425810069786 3 5 9
-95.297643977098843 -84.008622978580988 -9.431851688211339 89 94 98
-95.294266989606172 -83.418601540044875 -9.439540614520666 178 183 187
-95.230345600259369 -82.716476659988075 -8.257899978062483 203 208 212
-95.447178133360779 -82.542003641264955 -12.590319372714873 199 204 208
-95.245591154085588 -81.573415764142865 -8.705808197076720 191 196 200
-95.487927478722924 -79.182272657337165 -13.824856158497397 186 190 193
-95.556358287491562 -78.763883266690357 -15.237591290288492 188 191 195
-95.503440873930529 -78.074557944718194 -14.272272407092515 191 195 199
-95.439465444144005 -77.354527735733882 -13.090841931940929 189 193 196
-95.425155512677179 -76.747138064350608 -12.882222151277318 189 193 196
-95.344579171194454 -75.977246328449780 -11.376670090361443 190 194 197
-95.159014150185442 -74.939012797844171 -7.817787617267101 188 192 195
-94.934682854876471 -73.784887759292218 -3.502631531985060 188 192 195
-95.323754644602573 -74.192573415472737 -11.183285237497529 187 191 194
-95.547196196743087 -74.202694712996220 -15.621501662986560 193 197 201
-95.306247415136696 -72.991093311940716 -10.982310304500714 190 194 197
-95.308577556401261 -72.419694031527499 -11.097936157666936 188 192 195
-95.244532152993699 -71.664599787473705 -9.916900089383432 190 194 197
-95.080477389247008 -50.112162120957059 -8.776067889977526 108 110 109
-95.042644412674065 -48.174329606926953 -8.148960830316923 136 138 135
-95.113857593543841 -47.919464893992476 -9.558681643176612 151 151 149
-95.146120169667881 -47.486096937903334 -10.212861520946007 154 154 152
-95.161737601245235 -46.975593538055818 -10.543221717922421 161 161 159
-95.149548088964536 -46.331410487229057 -10.333966268726329 158 158 158
-95.109546811621513 -45.549457641886917 -9.585139581707466 140 140 140
-95.125433970108134 -45.039491518764876 -9.915365211795802 62 62 64
-95.130255872061866 -44.475335417207432 -10.029724457510724 2 3 5
-95.190983280669414 -44.192971123478117 -11.223026925037260 13 15 19
-95.184840406051975 -43.575605223790433 -11.121461627621215 46 50 53
-95.184378122109379 -42.986263529717448 -11.127749172791709 3 5 10
-95.167273081634121 -42.309947541930256 -10.810317170976788 11 15 20
-95.144689758702938 -41.602650000386745 -10.384965984486882 14 19 22
-95.144539289681205 -41.011042341375543 -10.391127683183470 16 20 23
-95.133334256378205 -40.359763943834203 -10.181474298587148 12 16 20
-95.161312620975167 -39.917576345589374 -10.726935628552837 16 20 24
-95.167077243694067 -39.356712141198031 -10.840809994733831 23 28 31
-95.172957305385566 -38.796254616648369 -10.954624949146108 17 21 25
-95.162211081690373 -38.143606833801940 -10.744766167376923 13 17 23
-95.168329356919358 -37.583130160745412 -10.858467358354602 17 21 27
-95.208054382466500 -37.211512105163173 -11.619300488073179 27 32 38
-95.225577987049149 -36.716827078155738 -11.948585951959586 23 28 34
-95.237646342478541 -36.191663289062149 -12.169936036630702 17 22 28
-95.233103844927555 -35.570733344516839 -12.067641810815871 17 22 28
-95.228694326414242 -34.949084818020133 -11.965291365010273 16 21 27
-95.246733827596898 -34.457827022163613 -12.294294747519587 16 21 27
-95.248173366118451 -33.868873107499240 -12.299668475733853 17 22 28
-95.272060057597287 -33.413037999950191 -12.736368843842911 17 22 28
-95.234744876687714 -32.589599358206833 -11.986684171640576 15 21 26
-95.219887234779705 -31.897624391103868 -11.668338207794960 15 23 26
-95.205182642611163 -31.203801393791331 -11.349938048181883 15 23 26
-95.218501011206158 -30.680238004515818 -11.570673657120039 12 20 23
-95.204107034738854 -29.984071199645825 -11.252149026008880 12 20 23
-95.201017927828261 -29.355980347663117 -11.149233213911060 16 24 27
-95.225939396690165 -28.903344664964550 -11.585405614779745 13 21 24
-95.234306336281051 -28.346110767706922 -11.697997672914113 13 21 24
-95.248401825769847 -27.824983490486019 -11.918336433755229 10 18 21
-95.234829555840506 -27.124358101037501 -11.599464595503719 10 17 20
-95.249257134974641 -26.603559750520930 -11.819641099988985 9 16 20
-95.269413544117270 -26.120224995560861 -12.147550205146302 11 16 20
-95.284174272416791 -25.601381766121442 -12.367547207169366 11 15 19
-95.310224303674332 -25.157712527680903 -12.803087411541242 11 15 20
-95.303096544285538 -24.491289105784542 -12.591639368423955 11 15 20
-95.318381506381641 -23.974370074646821 -12.811365772055922 13 17 21
-95.322738396180057 -23.382266998304345 -12.815376265322357 13 18 22
-95.327284858887651 -22.789866569032007 -12.819299128361934 13 17 18
-95.326474964141568 -22.158611231089935 -12.715325522620788 10 14 15
-95.320318712941130 -21.487665000950035 -12.503459268853561 10 14 13
-95.358725527438480 -21.128116791745715 -13.153939900307279 10 14 13
-95.369595713235825 -20.574662237579950 -13.265295511359881 9 13 12
-95.391744210496057 -20.100738795540018 -13.592154733018305 9 13 14
-95.408548179390522 -19.588201405140538 -13.811109346575421 8 12 13
-95.408950737551052 -18.955792866695809 -13.706567577991763 7 11 10
-95.415104138267239 -18.362959760591671 -13.709726141156125 9 13 12
-95.438058954653414 -17.892054006331541 -14.036168559932264 10 15 11
-95.494365384529985 -17.668690265427760 -15.009260916359295 10 15 11
-95.512186806325545 -17.160706080775196 -15.227681915501989 8 11 10
-95.524703195559127 -16.611846959510871 -15.338202685374000 8 11 10
-95.504352680700563 -15.811893976772206 -14.801878195237435 7 10 9
-95.511827733082882 -15.219520911501892 -14.804399749343617 6 9 8
-95.514032156472368 -14.584299703543277 -14.699024926831015 5 8 7
-95.532997156583548 -14.076228239105856 -14.916899740441949 5 8 7
-95.563191779354284 -13.654816546353896 -15.350228078341388 4 8 7
-95.610091467607660 -13.364999307310102 -16.106786857116134 3 7 6
-95.662677318732833 -13.122187012879275 -16.971000434475854 2 5 4
-95.633129934453791 -12.225974980898926 -16.218348768055108 1 3 2
-95.598416273228537 -11.281271100802003 -15.357808896849320 3 5 3
-95.591431398641774 -10.553542794942977 -15.036064655179558 38 40 36
-95.650436047073711 -10.359646796787185 -16.007562866819057 77 79 75
-95.638517378695056 -9.585975942867421 -15.577792959993985 131 133 130
-95.566794537294086 -8.312037638346837 -13.962334934607838 123 125 122
-95.386453879128624 -5.416755783224588 -9.976633135860112 102 106 103
-95.392375733883412 -4.758931552802675 -9.869712571189552 98 102 99
-95.474827942742138 -4.748918917196244 -11.271536286148489 120 124 122
-95.448659741415980 -3.812949532584363 -10.517677272588941 121 125 124
-95.526107518396756 -3.763868590654512 -11.811438355387253 118 122 121
-95.516885756526477 -2.965763856731503 -11.380629767934209 118 119 119
-95.464651148487093 -1.784921754214313 -10.087467007294634 111 111 111
-95.537436226174961 -1.695269456302687 -11.273017445880214 122 123 122
-95.572543058918200 -1.274863594328759 -11.703985445844950 109 109 108
-95.607925474407892 -0.856073354730885 -12.134804977555689 106 106 104
-95.415415032529268 -149.032862912141979 -14.470845267833994 189 194 197
-95.389003955013663 -148.538218570255168 -14.045136319804953 160 165 168
-95.396142743190751 -147.919991141431694 -14.269802643347390 166 170 173
-95.420105533614489 -147.242986888276874 -14.819602096024084 174 178 181
-95.472082772130349 -146.470253340405833 -15.911279347082115 88 89 93
-95.479433613691398 -145.858417500516339 -16.135778433176796 109 110 114
-95.486844490725446 -145.247710337489821 -16.360237180468943 75 76 80
-95.483127097650666 -144.675895960403466 -16.367901541212007 69 70 72
-95.485054184566593 -144.085507273194423 -16.483915681700665 68 69 71
-95.481435869448617 -143.514036712413343 -16.491529104814873 69 70 72
-95.494659066544841 -142.888396773814407 -16.824219853593235 67 68 70
-95.502336929555028 -142.282214909091550 -17.048504294540862 61 62 64
-95.515666258776477 -141.659626085762397 -17.381112863412170 60 60 62
-95.529046933375255 -141.038696016354777 -17.713679794443522 58 58 60
-95.520057242071417 -140.487343909547292 -17.612796891239611 53 53 55
-95.511102773943918 -139.935472846371511 -17.511902479267491 48 50 49
-95.490965740618762 -139.415954690595385 -17.194306973585753 48 52 51
-95.487684151141138 -138.846332883289108 -17.201740278159548 47 52 51
-95.484436757829741 -138.276731355336096 -17.209157014659041 50 52 49
-95.498060684793657 -137.660284535273064 -17.541561426255015 51 53 50
-95.500496425162680 -137.076185074289242 -17.657267490510264 53 55 52
-95.508581058582465 -136.477567452053506 -17.881279471340349 43 45 42
-95.494230909391277 -135.939276640706623 -17.671967661419529 41 43 40
-95.485521016120586 -135.385378369517099 -17.570977112744686 43 45 42
-95.465593666920654 -134.859475023967775 -17.253347020862179 47 49 48
-95.468169409512754 -134.275988867578633 -17.368979795481494 47 49 48
-95.476394821432024 -133.679337438157944 -17.592904189349582 48 50 49
-95.479023685919415 -133.097230172554049 -17.708497357020690 46 48 47
-95.487302558963378 -132.502499052647863 -17.932376408559520 48 50 49
-95.489979546301271 -131.921766822038137 -18.047932400497956 48 49 51
-95.492678079445980 -131.341584932685095 -18.163472420057275 47 48 50
-95.489766735737277 -130.774313487112607 -18.170704406870243 52 54 53
-95.486871850346702 -130.207047409623925 -18.177928464823879 52 54 53
-95.489625342164103 -129.627968386570188 -18.293430839985660 54 56 53
-95.486761465753219 -129.060982542493178 -18.300637178766408 53 55 52
-95.489546561218148 -128.482725737773137 -18.416115971345249 55 55 55
-95.503620790056189 -127.883009810708799 -18.748132740581639 59 61 60
-95.523352777443165 -127.274195080726017 -19.188395400991169 42 42 40
-95.509266781455210 -126.730310486768403 -18.979014800697882 50 43 38
-95.444414058171390 -126.277028072777782 -17.795258250691830 54 38 31
-95.368255026796604 -125.837601167852469 -16.395050208165600 69 40 34
-95.314643930438919 -125.352534090729009 -15.427960647716986 83 49 39
-95.317467089454908 -124.768851261008450 -15.543477083624566 91 54 38
-95.348531078506099 -124.140206702388824 -16.200240441509550 94 59 40
-95.357024367331960 -123.550137844534746 -16.423968926267804 98 62 44
-95.365526820656981 -122.961154234989579 -16.647681855755025 101 62 47
-95.368387101272234 -122.381541430502850 -16.763138638002488 106 64 48
-95.382555893923097 -121.786441627767388 -17.095062652148300 108 65 49
-95.379774612757330 -121.216197138045331 -17.102263020523480 103 60 44
-95.365685045390507 -120.660891857746279 -16.893001687627390 109 66 50
-95.368557502193610 -120.082899805330484 -17.008435961613003 129 83 68
-95.388403190572703 -119.484665918882683 -17.448535313919763 144 99 81
-95.408257998466254 -118.888602556218672 -17.888607961190417 147 102 83
-95.411141933081964 -118.313861954600924 -18.004003275413368 149 104 85
-95.436670146426025 -117.715211919803892 -18.552247295799475 148 104 85
-95.450883362511945 -117.130957059421007 -18.884038425486580 149 104 85
-95.470764317547932 -116.542760073116852 -19.324017591490275 142 97 78
-95.462325845345902 -115.983220240590981 -19.222955267331457 141 99 77
-95.470878873169980 -115.408056800636245 -19.446501744203488 137 95 73
-95.468096026600378 -114.843484940693983 -19.453644470234508 133 91 69
-95.482314353609141 -114.265463060080720 -19.785368995681665 135 93 71
-95.473852221355472 -113.705910706265797 -19.684318119298382 139 97 76
-95.471052073839743 -113.141873070503252 -19.691463623004893 142 101 80
-95.479590678442847 -112.570498111256995 -19.914978003161281 140 100 79
-95.476777661784809 -112.006998199082133 -19.922124128362327 140 99 79
-95.462604485224105 -111.449743273503415 -19.712922862496214 134 96 75
-95.431385335960471 -110.899955394668467 -19.179222814717861 137 100 78
-95.428536439351120 -110.334546029463638 -19.186405759723925 137 101 79
-95.448398006842652 -109.759899570810731 -19.626254718274112 140 98 75
-95.462579425709137 -109.189461708175017 -19.957918834343133 138 97 75
-95.459710812598345 -108.625948150569783 -19.965091697155913 137 96 74
-95.434095312988561 -108.068407366231085 -19.539649572062388 130 93 73
-95.408458093416243 -107.508691483626990 -19.114240227103608 128 92 72
-95.399859661660670 -106.943950115512209 -19.013307969065721 128 92 72
-95.391247383819262 -106.378664303594377 -18.912387939181457 128 91 72
-95.388310809207795 -105.812427488603745 -18.919621346399509 128 90 73
-95.391054009368816 -105.246055022462784 -19.034997850080913 130 90 79
-95.393788532928184 -104.680225633291883 -19.150372914454806 129 89 81
-95.379432273867963 -104.113714549937754 -18.941354512910806 128 88 83
-95.376449455267860 -103.547476875375594 -18.948610051942495 125 94 85
-95.362061110241882 -102.979336093087767 -18.739623775524393 127 101 93
-95.347655169243325 -102.410109128508211 -18.530657097579194 118 95 89
-95.316132287818050 -101.835310740849167 -17.997359799957366 138 122 116
-95.330192735756000 -101.271931403367788 -18.329009131158642 175 171 163
-95.389871483926783 -100.726492295696033 -19.525521235460900 182 184 177
-94.775705101421948 -94.592807162913033 -8.574867168147250 202 206 207
-94.800989333023594 -94.025387048527278 -9.122906443303236 205 209 212
-94.831999170475058 -93.465986982802164 -9.778982938777119 161 164 171
-94.851573162685895 -92.898710285581998 -10.218893611699201 96 99 106
-94.836807847232649 -92.298557728068673 -10.010417189925050 73 73 81
-94.736149095276772 -91.605613210606549 -8.181103774207060 53 53 61
-94.744237533917499 -91.024764193618083 -8.404931033452471 46 46 56
-94.815335025500815 -90.518237720621229 -9.817297672590598 42 42 54
-94.886464832276843 -90.018779872021113 -11.229576091349401 81 82 94
-94.814342703974944 -89.346373160670510 -9.940693871337430 140 140 152
-94.799505882322734 -88.742175217149040 -9.732293299074144 126 126 136
-94.807594450929273 -88.167871992498121 -9.956053117015557 38 39 49
-94.838627645961708 -87.626723519083313 -10.611930565494248 36 36 45
-94.835248513530573 -87.039116085820055 -10.619595669365822 36 37 41
-94.826125472671478 -86.442954881573712 -10.519237802682170 57 58 62
-94.805513667802273 -85.828594213922884 -10.202845687699238 127 128 132
-94.744692680281872 -85.148892392644896 -9.130349902746673 192 194 198
-94.532009803844943 -45.366762894769778 -9.087299680963355 153 153 151
-94.583472520446392 -45.020496960243669 -10.063974347238059 155 155 153
-94.600070031147411 -44.511887336062237 -10.393846184136862 151 153 150
-94.651731067240490 -44.173597505701267 -11.370343872999541 151 153 151
-94.633555894905669 -43.499266237253138 -11.053403388884874 155 157 157
-94.574677849875428 -42.622456619350942 -9.982007036473959 153 157 159
-94.568353647625329 -42.000621289201618 -9.880574491668824 151 155 158
-94.591276336403197 -41.524232488088828 -10.317947604858830 153 154 154
-94.590989327144129 -40.931927116768072 -10.324181805840254 152 154 154
-94.567493290521540 -40.220427196729467 -9.899310515644771 147 148 148
-94.637372307270326 -39.987261669700828 -11.198587342505078 147 148 149
-94.625755657885890 -39.336127050861734 -10.989129393644788 133 135 136
-94.625911087813961 -38.744936329697019 -10.995140459581648 123 124 125
-94.597038248437201 -37.999306160638746 -10.462333848271840 81 82 86
-94.574114480677210 -37.281931013063875 -10.037249263282547 89 90 94
-94.632912496649681 -37.001904301589455 -11.120591798803304 42 43 46
-94.639374854735124 -36.442073841282010 -11.234121729929427 34 35 39
-94.675101390404748 -36.042394769597408 -11.886297684714634 23 24 28
-94.652676887458497 -35.323569749978496 -11.460989177411079 22 23 27
-94.659521129773125 -34.764886829392601 -11.574324604228138 24 26 30
-94.654844428152074 -34.141029875769078 -11.472124710355246 18 20 24
-94.667781806425438 -33.615588093434660 -11.693061919000684 24 27 30
-94.692504904917300 -33.157699282107771 -12.129383292666319 23 26 29
-94.664942702109073 -32.399456940228013 -11.596079500745304 23 27 31
-94.649178494944991 -31.706017989812526 -11.278182304126460 19 25 28
-94.627742380795894 -30.976590792645172 -10.852510088549849 15 22 25
-94.629749738122527 -30.382432771067133 -10.857665742680865 13 20 23
-94.620266897150032 -29.718679032866774 -10.647316882125267 13 19 22
-94.610942574390009 -29.053609366730058 -10.436905732507483 14 21 24
-94.648329246123666 -28.669140741371002 -11.088130915124992 10 18 20
-94.650956684494844 -28.074646286451021 -11.092993387687216 9 17 19
-94.700275787180928 -27.766233459353703 -11.959445025540333 11 19 21
-94.691590263855218 -27.101329702099946 -11.748726568679274 11 19 21
-94.712144677872416 -26.616775719598024 -12.076457819790420 10 18 20
-94.709613039831098 -25.987159360674166 -11.973291019305719 13 17 20
-94.742119044334700 -25.578070083082501 -12.516245644217861 14 15 19
-94.768975711321772 -25.134301228222096 -12.951400982223504 15 16 20
-94.761156127067878 -24.467819656038426 -12.740284504320414 15 16 20
-94.741915277030628 -23.724523988325970 -12.313704837051688 15 16 20
-94.769298226134552 -23.282668731405668 -12.748588705871640 16 17 21
-94.779449793703847 -22.727922795482041 -12.860301394262535 14 18 19
-94.789787558346831 -22.173427246709000 -12.971922429250839 13 17 18
-94.759737733442961 -21.347438522949098 -12.329647169834601 11 15 16
-94.787855495800883 -20.908776486109083 -12.764146637094200 14 18 17
-94.816154297494023 -20.472001148271410 -13.198540075015700 12 16 15
-94.838846692720566 -19.997457903562580 -13.525145477691609 10 13 11
-94.879090147794059 -19.644012448165867 -14.174684647878479 11 14 12
-94.867452015223506 -18.931722307275564 -13.855007596090616 8 12 10
-94.890730733976966 -18.460292710149854 -14.181300453262310 10 14 10
-94.867978397187201 -17.664111718190426 -13.646086159508911 8 12 8
-94.920556914336984 -17.398228428592464 -14.510540726760439 7 12 8
-94.932900237499098 -16.847226261333283 -14.621166350296846 1 3 1
-94.957000355444848 -16.379571693905525 -14.947027394633324 6 8 5
-94.946712082346238 -15.661986646169847 -14.626759077837136 4 6 3
-94.948200451921181 -15.026620272247524 -14.521728307281165 3 5 3
-94.972967215539185 -14.559978910455641 -14.847260001178483 9 11 8
-94.951906334107349 -13.752969504834134 -14.311347983281223 27 29 26
-94.994394274077820 -13.415531230047424 -14.959648629635495 58 60 57
-95.048577752123833 -13.167518094922361 -15.823151442618439 84 86 83
-95.120178521462663 -13.054137910104735 -17.009512693318499 114 116 113
-95.071403006386035 -12.026263110562322 -15.934838315009586 136 138 135
-94.965608569527546 -10.551354139803786 -13.783454291526908 136 137 132
-94.843052033746872 -8.931643560383002 -11.309003059651531 132 133 125
-94.346022206787651 -1.501774042833279 -0.980806852217711 116 119 109
-94.534329320867684 -2.294066425946720 -4.319191343326423 114 117 108
-94.585877136213497 -1.990996404815089 -5.073662891576220 112 115 106
-94.702141503365354 -0.771552247272555 -6.582619157048043 116 115 107
-94.819996839804347 -148.707224932305479 -13.428736626578058 180 185 188
-94.833538917091332 -148.066635429171498 -13.761428707544042 130 134 137
-94.864644785857564 -147.367804118625514 -14.418894497813255 172 176 179
-94.924996043310728 -146.573773475785970 -15.617643753533201 139 140 144
-94.927085272380197 -145.980060065075207 -15.733614548820526 160 161 165
-94.946741199664160 -145.329457334330584 -16.174343741006993 124 125 129
-94.948944039604086 -144.737723617491639 -16.290239807259866 73 74 76
-94.968720378080604 -144.090727694535275 -16.730874268460042 65 66 68
-94.971029772852546 -143.500965485638773 -16.846699065524803 65 66 68
-94.967543401808598 -142.929848419332899 -16.854245728350008 64 65 67
-94.975791571075391 -142.323164558249033 -17.078262504039998 58 59 61
-94.984087989023678 -141.717595855043385 -17.302244718845941 57 58 60
-94.986582189983125 -141.130395207292537 -17.417954737828381 54 54 56
-94.977417409414528 -140.577728454969616 -17.317169129035307 50 50 52
-94.968286695237310 -140.024541241590015 -17.216372580364464 51 53 52
-94.959188646247824 -139.470832103184705 -17.115565777216204 52 56 55
-94.955976933653758 -138.900432048471998 -17.122973663819920 51 55 54
-94.952798166221712 -138.330050765590585 -17.130365596343154 53 54 53
-94.961367088124490 -137.728438699518648 -17.354176718537673 49 49 49
-94.964112577241053 -137.143282041908861 -17.469745482309804 54 54 54
-94.978611860091632 -136.528522358591005 -17.801713760104036 43 43 43
-94.969697419993977 -135.974642424760503 -17.700820877174436 41 41 41
-94.966670131074707 -135.405694332504822 -17.708125590345304 45 45 45
-94.946071595508400 -134.879554303894963 -17.390819028017432 43 45 44
-94.948955239578794 -134.295819024979210 -17.506307067968265 43 45 44
-94.951864070261252 -133.712636474701952 -17.621777369216630 46 48 47
-94.954796831925762 -133.130005672374182 -17.737230542546428 44 46 45
-94.969494274182978 -132.521568075442588 -18.069038945148634 45 47 46
-94.972473990422671 -131.940581363972200 -18.184452732117478 39 40 42
-94.975473993047657 -131.360143721076838 -18.299851162310460 43 44 46
-94.960867770488179 -130.817345671120250 -18.090708252282553 45 47 46
-94.958024327439787 -130.249280886085216 -18.097915921894014 44 46 45
-94.966950727709246 -129.657578677909527 -18.321454020517621 46 48 45
-94.981774800528271 -129.055417145615792 -18.653137240806984 47 49 46
-94.990738445627258 -128.466164844090713 -18.876632303511911 56 58 57
-95.005600282402412 -127.866995299732309 -19.208266659619227 51 53 52
-95.008713713540956 -127.290924243618619 -19.323565878528797 47 46 43
-94.982416220923056 -126.767707451944744 -18.898096702453273 56 45 40
-94.903143652192398 -126.334031181160896 -17.499318971359685 62 41 36
-94.835618163092036 -125.873453530154208 -16.316916156898202 72 41 35
-94.791623782813090 -125.368309852968537 -15.567150420811885 86 49 41
-94.782955020633892 -124.803108873027838 -15.466256539623032 95 55 43
-94.797852452509431 -124.200947767850224 -15.797904660794700 97 60 42
-94.812761311989647 -123.600414618299780 -16.129530557674343 100 63 45
-94.827680736783250 -123.001509131304473 -16.461134645795909 102 63 48
-94.830819846826401 -122.420808556178315 -16.576469233970471 105 64 46
-94.839858976873458 -121.832631377790364 -16.799917118152393 106 63 46
-94.837108355883871 -121.261028633966561 -16.807116799996209 105 62 45
-94.822559380379317 -120.704370092650819 -16.598089176173971 110 67 50
-94.813904222622213 -120.139419365297670 -16.497186210700590 126 80 64
-94.834752335931583 -119.539269843621767 -16.936825724952456 136 93 74
-94.861511189295200 -118.934631407275447 -17.484542652996964 150 108 88
-94.888279881214288 -118.332706054448067 -18.032226947178629 151 108 88
-94.909152293604123 -117.739609080393706 -18.471782241418140 146 104 84
-94.924123886281109 -117.154525417116218 -18.803219097628158 141 98 79
-94.927282000486741 -116.582211960908282 -18.918458261448080 138 95 76
-94.924527608769580 -116.015738332179637 -18.925606950636734 138 96 74
-94.933588522657217 -115.439203774496150 -19.148924570160347 138 96 74
-94.936735860464168 -114.868509129334740 -19.264152226137213 137 95 73
-94.945792009244599 -114.293869022248487 -19.487452624740115 139 97 75
-94.925271878763454 -113.741379544542653 -19.170379781804627 143 101 79
-94.922483812073438 -113.175431033901901 -19.177539175680579 141 100 79
-94.937439411709022 -112.598468896083176 -19.508900083965329 145 104 84
-94.946475188361958 -112.026532117760269 -19.732182401803243 146 105 85
-94.937746429878032 -111.465059110993948 -19.631278848740209 146 108 87
-94.899397569296553 -110.917314653916307 -18.990109711530550 139 103 81
-94.884713618850171 -110.355973896485338 -18.781194855660374 138 103 81
-94.887786317212814 -109.786609053947018 -18.896444530565134 135 104 76
-94.896776456255765 -109.215745402527233 -19.119737635044856 135 99 75
-94.899833930227956 -108.647734572311762 -19.234980655716726 133 97 75
-94.885097629861662 -108.084754524708771 -19.026107717906086 131 94 75
-94.870344091296118 -107.520685921038833 -18.817254231845283 128 92 73
-94.867435349706724 -106.953622972366816 -18.824482827649973 127 92 73
-94.876379567692140 -106.385196194955526 -19.047772816637917 126 93 75
-94.873449197312155 -105.818674458162548 -19.055006188616119 126 92 79
-94.870506374942579 -105.252151997564837 -19.062245525033973 129 91 83
-94.855677408587908 -104.685361390824283 -18.853456142313945 128 93 88
-94.828953646619780 -104.116672621660243 -18.428658957941934 121 91 89
-94.820024550580328 -103.547842025164201 -18.327926981046033 125 108 101
-94.805138628667663 -102.977519365273125 -18.119201202867231 159 149 140
-94.802119025212633 -102.408551866630788 -18.126502439098033 182 175 168
-94.415896081925169 -89.510452445317014 -12.568515887312515 202 202 211
-94.310921771027580 -88.800182804778515 -10.741445356394934 201 201 209
-94.097394850342596 -41.737863594818769 -11.328031997048896 146 148 144
-94.272872710433489 -41.420319728929293 -14.462260291494857 140 142 139
-94.065988222494482 -38.632309758726045 -10.820729421287353 143 145 141
-94.029659152127721 -37.854886454068641 -10.180958223121081 144 146 142
-93.969143373911365 -36.949529212586590 -9.110639211683349 142 143 139
-94.066728535483335 -36.854996571703921 -10.838670035570544 142 144 141
-94.097594716822144 -36.420633344528326 -11.382669303723532 146 148 145
-94.116431025685287 -35.924950200155457 -11.711337048505158 148 150 147
-94.062488772024011 -35.044088147322022 -10.748480029090786 143 145 142
-94.063355686307233 -34.450591454925984 -10.754174459871194 132 134 132
-94.058279761019321 -33.824154098186398 -10.652192114617634 100 102 99
-94.065486616316846 -33.263076647919632 -10.765378716723546 56 58 56
-94.121415045500569 -32.968891916293316 -11.739380903421278 20 22 20
-94.092454331751227 -32.209191329411638 -11.206761164789157 16 18 18
-94.069713792357675 -31.480422969307458 -10.781706200037434 16 18 18
-94.034981323630817 -30.680988846454486 -10.141397761528310 14 15 16
-94.036827623605191 -30.084532310229193 -10.146654124710551 9 11 11
-94.038823960113461 -29.487865351275676 -10.151840876916111 12 13 14
-94.047041391584827 -28.925942505653843 -10.264552724923476 10 12 13
-94.103950605374848 -28.646224317140010 -11.237936796231821 17 18 19
-94.094269646175889 -27.980617408828053 -11.027701790367530 14 15 17
-94.145403426088635 -27.671517584809671 -11.893292364460024 16 17 19
-94.142106680542071 -27.042046342935720 -11.790490095020544 15 16 18
-94.169289668719841 -26.593447606127903 -12.225539038488307 16 18 19
-94.154203185341643 -25.890538147227481 -11.907415105834730 17 18 20
-94.181712275496494 -25.443904989328779 -12.342287810543297 16 17 19
-94.197266983384495 -24.924891481197754 -12.561906728216883 14 14 16
-94.176654873299213 -24.182104410570499 -12.135977831809555 12 13 15
-94.156236159982726 -23.436836291679295 -11.709981953727095 14 15 17
-94.190487354584334 -23.030944005879054 -12.252068777435824 7 7 9
-94.212804063791978 -22.550994874118565 -12.578909552526540 5 7 5
-94.241345786762679 -22.110938480606560 -13.013220551295888 8 10 8
-94.221690445143707 -21.362283108820726 -12.586894345505584 8 10 7
-94.262689269268435 -21.001993535172733 -13.236142599674849 6 8 5
-94.273648399359985 -20.447873197031175 -13.347462513330896 7 9 5
-94.308961245040933 -20.052544134256834 -13.888932714241264 28 30 26
-94.332378370729529 -19.579809506670983 -14.215172791343633 38 40 36
-94.343916981028840 -19.028003200216496 -14.326191664164014 53 55 50
-94.355659168810760 -18.476400730212788 -14.437111048023496 69 72 65
-94.289229775848654 -17.395258471720357 -13.149712763255877 106 109 102
-94.307451579017069 -16.881462309643087 -13.368002046925426 133 136 129
-94.331904566971772 -16.409702912289170 -13.693736532535695 133 134 128
-94.374622600137926 -16.063968128693915 -14.342012503226840 127 128 123
-94.333290791414228 -15.135147105349850 -13.484475240875781 130 131 125
-94.328322693326470 -14.454299701899664 -13.272142496482843 131 132 127
-94.323601450993110 -13.771928232625877 -13.059707345118369 129 130 124
-94.337151614502801 -13.216103212841480 -13.169805264413014 128 129 124
-94.290903678989622 -12.230682750392818 -12.204343581806341 127 128 123
-95.163892686067499 -0.602560075922967 -22.437996808776745 110 112 99
-94.204740021535798 -149.020008998968450 -12.056970462179351 194 199 202
-94.255542518421265 -148.253910191004309 -13.038282525975404 198 203 206
-94.294277930307231 -147.532701768445975 -13.803187592743740 92 97 100
-94.339171507353413 -146.795638466254985 -14.676168701569196 126 130 133
-94.359820573271676 -146.140692470162406 -15.116467487049249 133 136 140
-94.368368069347511 -145.526278969753548 -15.340420630880459 153 154 158
-94.389140055459549 -144.875212308484720 -15.780620679819009 165 166 168
-94.409972377653688 -144.226353979036929 -16.220769132713912 161 162 164
-94.418687524382349 -143.616390776520603 -16.444596263895562 116 117 119
-94.433542285280950 -142.989472021936280 -16.776519641638856 77 78 80
-94.454539785419513 -142.346411269436572 -17.216529396599356 66 67 69
-94.469497806737678 -141.723080133832582 -17.548366445747405 65 66 68
-94.460127360899463 -141.170433320267506 -17.447679021274695 56 56 58
-94.438599733036511 -140.651237015988016 -17.130745458274134 51 51 54
-94.429293389767565 -140.097004204084669 -17.030043692829651 53 54 56
-94.426117327054769 -139.525805953981745 -17.037442740878504 56 59 59
-94.422974383183416 -138.954626346162513 -17.044825753092709 54 57 56
-94.432066645851833 -138.351666885526413 -17.268400380267877 54 54 54
-94.441195095843739 -137.749810232014738 -17.491946343803875 47 47 47
-94.450358284104823 -137.149055069421451 -17.715464350471535 42 42 42
-94.453448683277486 -136.564483568755378 -17.830862087140645 46 46 46
-94.444353086470016 -136.010091167571005 -17.730061144044015 43 43 43
-94.441388504681470 -135.440626437633000 -17.737341176349673 50 50 50
-94.432337205808892 -134.885440091902126 -17.636527213742880 46 48 47
-94.435528973489426 -134.301726016558206 -17.751867630155715 44 46 45
-94.438744647911591 -133.718563301608953 -17.867190934235794 49 51 50
-94.441982981623894 -133.135950990981939 -17.982497732601018 48 50 49
-94.463590328457741 -132.514343216853291 -18.421994912709408 47 49 48
-94.460757182225663 -131.946554018131877 -18.429194819610871 41 42 44
-94.470177497591990 -131.353492651574300 -18.652510621445117 48 50 51
-94.442898959674807 -130.835721536575534 -18.227454718992334 44 46 45
-94.458472490177058 -130.231115161228388 -18.558804567292697 44 46 45
-94.455699307590834 -129.663610997442845 -18.565972853783734 42 44 41
