ply
format ascii 1.0
element vertex 680
property double x
property double y
property double z
property uchar red
property uchar green
property uchar blue
end_header
-108.704298969208253 -32.793458558237077 -11.194600369334211 8 18 19
-108.720567392226187 -31.761944461740324 -9.756270000343193 8 18 19
-108.731535120765741 -31.001914994929241 -9.204552017109648 10 20 21
-108.736418160802643 -30.555152818148706 -9.650250274695196 11 21 22
-108.748570362008550 -29.756042638224866 -8.987509036290106 13 23 24
-108.754586327632552 -29.274617275648779 -9.322163226822369 13 23 24
-108.762237206686166 -28.722573460700215 -9.435044421738866 12 22 23
-108.768670936450420 -28.243271391645564 -9.769476899211526 11 21 22
-108.773865705442859 -27.838370449893496 -10.325454012932312 11 21 22
-108.782895555926103 -27.251838836290382 -10.327171627959871 10 20 19
-108.795095680780250 -26.516592743095185 -9.885467847759429 9 19 18
-108.801679010382173 -26.077720223683144 -10.330271480438483 8 17 16
-108.806989769916612 -25.716005019822198 -10.996607457107274 9 18 17
-108.810255358002621 -25.471038978371119 -11.995296733769749 10 16 16
-108.823454287432867 -24.734044697757188 -11.553133123855048 9 15 15
-108.832412162719848 -24.225337571387726 -11.775801854867979 7 13 13
-108.849224547797931 -23.329721988599832 -10.890106809223141 8 14 13
-108.863318866925354 -22.585405060886838 -10.447590223631636 9 15 14
-108.876181707955524 -21.917083734338540 -10.226598281881905 10 16 16
-108.885453175725672 -21.445229392574866 -10.559596532021118 11 17 17
-108.901234142092889 -20.655572952286267 -10.005880877630517 10 16 16
-108.914199259481933 -20.023322310649032 -9.895327598461620 10 16 16
-108.921104869482932 -19.713595546961567 -10.671224345922894 6 12 12
-108.925814768453364 -19.529504011933607 -11.779454942254091 6 12 10
-108.933116537360561 -19.227551959303923 -12.555082139645975 7 13 11
-108.940627165057109 -18.929059752011071 -13.330573805782791 9 15 15
-108.959004627702328 -18.093676622649504 -12.665227799334161 8 14 14
-108.989334113304011 -16.668575855626628 -10.448209857077728 9 15 15
-109.008579405734608 -15.821502027288432 -9.782569022071840 7 13 13
-109.021504093622099 -15.309810073257003 -10.003370767864368 9 15 15
-109.024557932650865 -15.311025809922489 -11.553921696439062 7 13 12
-109.043113099178711 -14.546068093156528 -11.109483522752470 5 11 9
-109.057747884197028 -13.994590925498377 -11.219017808209060 3 9 6
-109.077047593220612 -13.225422048795163 -10.774266795529343 2 8 4
-109.088856021213829 -12.847831348176836 -11.326798839422423 3 9 5
-109.103584323827135 -12.340175339809246 -11.546696198096157 1 8 1
-109.120414345355627 -11.744283732929892 -11.544778585145224 0 5 0
-109.115976090621089 -12.219985020935512 -14.202618436759309 0 7 0
-109.120587297538435 -12.259132001324531 -15.752033880527733 2 9 2
-109.132660846442249 -11.943682578978368 -16.414658325012027 10 16 10
-109.163520884887831 -10.720455708228332 -14.860461888189434 12 19 13
-109.199671905910151 -9.259538161254557 -12.751886508371626 10 16 13
-109.242206962214411 -7.510521715987219 -9.978069265123338 9 15 11
-109.305612827120484 -4.772450329316621 -4.876411754619511 6 10 7
-109.345238286865140 -3.220816285890124 -2.656249120775897 4 9 3
-109.368146336591565 -2.502246112194354 -2.430968822244580 105 109 102
-109.399369530935033 -1.403829265217627 -1.318749460293219 102 108 93
-109.395485052816284 -2.010070465974814 -4.196698444013890 100 105 91
-109.385484351663536 -2.917411498105317 -7.739627345568294 90 94 80
-109.410707518034542 -2.158634782852827 -7.402794484379541 86 89 78
-109.471184211932737 -1.216554201890580 -10.820185382530610 71 76 65
-109.495263348623794 -0.606162283154943 -10.814949076728084 73 77 66
-109.505761085849187 -0.642886172188061 -12.250714481750549 76 79 68
-109.491304259992006 -1.839383604636065 -16.236234285682968 52 57 48
-109.511763373366776 -1.442368480777348 -16.673968931767490 26 33 26
-109.511383028563529 -2.010423423006700 -19.218057965701860 24 31 24
-109.524439391633379 -1.978919241418913 -20.431583868855341 23 33 25
-109.522847963752270 -2.619861520503493 -23.086360899729755 26 35 30
-109.531497427145950 -2.809611544146176 -24.743153107581605 31 40 35
-109.534387718825045 -3.266681595340537 -26.954243248709702 25 36 28
-109.546667571898425 -3.317135577146221 -28.278155879956273 23 34 26
-108.273888278863865 -119.489621893992606 -8.956075817756158 166 168 165
-108.253111464409315 -118.683462486865707 -12.854374550548158 200 181 180
-108.247919132627956 -118.098505058716071 -13.195456459701234 211 170 172
-108.243249419325537 -117.521239389850422 -13.425350289902667 187 133 137
-108.237660688832491 -116.933528146354419 -13.877509066165942 166 112 110
-108.234023158270986 -116.370012684770728 -13.885049796050112 159 105 103
-108.230890114021150 -115.811740270426782 -13.781436327172401 162 113 105
-108.229202301017395 -115.267811174201086 -13.344407166880131 164 116 104
-108.225171245113401 -114.698287443190708 -13.463056888995197 163 115 101
-108.220701474718354 -114.124903967342661 -13.692815105832068 153 106 90
-108.215797457717784 -113.548475564503377 -14.033671292640179 148 101 85
-108.213729128222596 -112.996913699930289 -13.707761622972555 152 106 90
-108.211212082121648 -112.440131340916565 -13.492979239883397 150 107 90
-108.207324515369862 -111.872288647341733 -13.611543013517093 152 109 92
-108.202542334217625 -111.298886792902579 -13.952309760689900 151 110 92
-108.197334754801560 -110.724339751208234 -14.404150689842169 148 107 87
-108.194914338149047 -110.167046350953640 -14.189327339960244 144 103 83
-108.190684572305585 -109.599711810579663 -14.418908474710776 142 101 79
-108.188305272603316 -109.041344561304385 -14.204076508288239 136 95 73
-108.185489357588409 -108.480199470862956 -14.100340895769733 132 91 69
-108.182241295387627 -107.917091408794263 -14.107691111757248 133 92 70
-108.178565512215130 -107.352835236990558 -14.226116650982249 133 92 70
-108.175813029594252 -106.790889923190704 -14.122358929724925 133 92 70
-108.173527034492352 -106.229014838154953 -13.907518434617089 129 88 66
-108.171256964551588 -105.666056428804453 -13.692681472168090 126 85 63
-108.167669790498394 -105.101816027597948 -13.811064458759461 126 85 65
-108.164992962711509 -104.537710684967649 -13.707292778750713 126 85 65
-108.162776055756709 -103.972586868493323 -13.492452672934860 125 84 64
-108.161014550432625 -103.405628900124938 -13.166554699466190 125 84 67
-108.158388953142563 -102.839083940952165 -13.062783623162005 124 82 66
-108.156218751451817 -102.270704022134538 -12.847954690405004 124 82 65
-108.152757833857066 -101.705931290752915 -12.966282755881309 124 83 65
-108.150189225098657 -101.138030087506479 -12.862498376960531 125 84 66
-108.147206628121239 -100.571693367369178 -12.869754829494553 123 82 64
-108.144245530550165 -100.005356266213681 -12.877001000708276 121 79 65
-108.140876269321438 -99.441669845924324 -12.995274036147464 121 79 65
-108.139673156940063 -98.863909581144625 -12.558361237952141 121 79 65
-108.136772925444674 -98.296753582669339 -12.565586720365388 120 76 63
-108.136022500895010 -97.712261812266235 -12.017667763711529 114 70 57
-108.133159544677412 -97.143742484790522 -12.024889447189935 112 69 54
-108.131587507472005 -96.563189444487804 -11.699040773727745 115 72 56
-108.127922541513868 -96.002412587881452 -11.928284208615764 120 77 61
-108.124285822651643 -95.442718960908522 -12.157502979963112 121 78 62
-108.121934056308874 -94.869631454362022 -12.053668249599184 121 78 62
-108.120438131514646 -94.285801023121593 -11.727816900051693 117 73 58
-108.118541942944447 -93.705703834549112 -11.512977492100958 116 71 65
-108.116249816239304 -93.130154693585681 -11.409139569178450 114 71 67
-108.114393326178501 -92.548143125915175 -11.194300875262627 74 46 41
-108.111731970287693 -91.977406530580964 -11.201448937287637 114 105 98
-108.107451530687271 -91.432487461760886 -11.652541350321457 54 54 48
-108.100337730988542 -90.936830784480577 -12.880494345014256 78 81 73
-108.096955139307710 -90.384147102072419 -13.109519385908243 78 82 73
-108.094011497418663 -89.825270125618445 -13.227539300492822 74 79 68
-108.095565917836183 -89.183950152542636 -12.124808250542770 47 49 38
-108.090643598225611 -88.662226884488490 -12.797686740584396 55 41 33
-108.087379230956344 -88.111406632726613 -13.026636042097323 80 46 44
-108.085356504010917 -87.536585879655874 -12.922661741590730 135 93 93
-108.084164061445961 -86.943948239696482 -12.596755864208717 155 107 107
-108.080192086448093 -86.411984106333634 -13.047567357175353 158 108 109
-108.075461362788133 -85.900529800613768 -13.720248484782928 157 108 107
-108.071571776939223 -85.373431229032136 -14.170970479391457 159 109 108
-108.068914326572965 -84.819338725325892 -14.288804231950991 163 113 112
-108.067083877370436 -84.245794749516818 -14.184724803921483 162 114 112
-108.063310058102232 -83.722999169049132 -14.635347123345440 164 114 115
-108.061154623724349 -83.160227194430163 -14.642171170410734 163 113 114
-108.058641406471466 -82.608242722671804 -14.759914223311370 156 106 107
-108.058125608241042 -82.001396611586003 -14.322972011609636 143 91 95
-108.054120581184165 -81.494498643564953 -14.884400182856439 131 76 81
-108.052112671803542 -80.932193475532088 -14.891148849394000 128 76 80
-108.049754359464046 -80.381759833404189 -15.008801832846586 126 74 78
-108.049765693133651 -79.758857693393352 -14.460913830901831 122 73 76
-108.047098420388153 -79.220271085058044 -14.689451557403885 120 71 74
-108.044090016454732 -78.695456577729288 -15.028869601663189 121 74 76
-108.041900081134941 -78.146286570602243 -15.146429026896925 130 82 82
-108.040139833381716 -77.584381028616733 -15.153055099409187 131 86 85
-108.039575137551992 -76.981873284952769 -14.826950508076493 127 86 84
-108.039051176025623 -76.377704555223659 -14.500843526956686 121 81 79
-108.038569256086063 -75.771873511376626 -14.174733544320191 108 73 69
-108.039656017489676 -75.107015335351520 -13.405045166148426 107 72 68
-108.038878683787360 -74.511380218818260 -13.189830441562009 110 76 73
-108.038908769186790 -73.884852655004025 -12.752829672082925 103 74 70
-108.035572492768836 -73.392526383760838 -13.313787921521225 93 70 69
-108.036081167739837 -72.748592406293710 -12.765878484471074 56 40 40
-108.034748327822882 -72.180405241870034 -12.772364746434874 23 14 14
-108.035357507842122 -71.532310972023566 -12.224450052093516 14 15 14
-108.032251006328352 -71.043909458437213 -12.785257978503068 12 18 16
-108.031465299791705 -70.459080001814172 -12.680794916286686 8 18 17
-108.029611432241239 -69.924031386839957 -12.908907094188493 8 19 17
-108.028570865858157 -69.355900969023892 -12.915252949374178 11 18 18
-108.027592756541154 -68.787722590526315 -12.921569418996967 15 20 23
-108.027801119040447 -68.166674402007914 -12.595285845322366 14 19 22
-108.027698603846687 -67.561819975425166 -12.379843188864299 14 19 22
-108.025794457961595 -67.046579504283258 -12.718634409494314 13 18 21
-108.022468587565385 -66.606612491882530 -13.500766490414151 15 20 23
-108.021453546053309 -66.058225326835128 -13.617755792290609 17 22 25
-108.022000261713231 -65.434450278098652 -13.291338420565808 11 16 19
-108.022246095660108 -64.828220623890289 -13.075743270981718 18 23 26
-108.020705403853285 -64.318404772450933 -13.414304778090781 17 22 25
-108.021101315441740 -63.711229497594736 -13.198647565625805 17 22 25
-108.019715725516647 -63.203188615251840 -13.537116601877784 17 22 25
-108.020268477770372 -62.595058921766977 -13.321394181686458 16 22 22
-108.019044098957991 -62.088784654580493 -13.659767910437409 15 21 21
-108.019760656901127 -61.479691315519858 -13.443977045453778 13 19 19
-108.017960530376996 -61.017472528268620 -14.003890494590991 12 18 18
-108.017732858692838 -60.472215808870523 -14.120470898190973 13 19 19
-108.017964749706351 -59.905729090936923 -14.126191094691137 14 20 20
-108.020518135277797 -59.207356426284569 -13.467004954932747 14 20 20
-108.021304754358866 -58.616822821643339 -13.361848413191353 14 20 20
-108.021440823269671 -58.070679675318289 -13.478263928975196 13 19 19
-108.021299331629876 -57.547775956323385 -13.705431898595549 15 21 21
-108.022000131708410 -56.979752093276751 -13.710943593213159 17 23 23
-108.023920607700859 -56.341635890813741 -13.384016639953785 20 24 27
-108.023328216061628 -55.867013486635514 -13.832621104601373 22 27 30
-108.023584191892397 -55.346716812913570 -14.059572091519527 23 28 31
-108.023568585543316 -54.851557241859709 -14.397253138516504 21 29 32
-108.025158606808660 -54.260231037567529 -14.291720410550369 21 31 33
-108.027235270218824 -53.643548520101390 -14.075356994999225 24 32 35
-108.028672592366490 -53.075598412598701 -14.080515580780656 24 29 33
-108.031733673952459 -52.406552939832935 -13.642502451311287 20 25 28
-108.033403719253698 -51.837267498988396 -13.647563448390713 19 24 27
-108.035192012168523 -51.267855888442206 -13.652569174945171 20 25 28
-108.034820179235979 -50.854701839856439 -14.322153170241279 21 27 27
-108.036083637737434 -50.339345301853392 -14.548571329604471 20 26 26
-108.037467566944059 -49.824946961244677 -14.774921992988055 20 26 26
-108.040123509082875 -49.230846707981101 -14.668907886809393 19 25 25
-108.041373278350690 -48.744692701773829 -15.005890883645662 16 22 22
-108.045831791734699 -48.040567836400491 -14.456711432484099 13 19 19
-108.049276099377195 -47.416673697827619 -14.239767973458925 13 17 17
-108.053638543979702 -46.735564920078090 -13.801256450041450 11 15 14
-108.056592586498368 -46.165124852287576 -13.805715072408361 12 16 17
-108.058123649798119 -45.708638727600537 -14.253116997656065 12 21 20
-108.061357076251682 -45.138962308725226 -14.257434103084279 16 26 25
-108.064736790946398 -44.569112997394441 -14.261683004388260 25 37 37
-108.067077283976090 -44.087144529655262 -14.598101118865429 31 40 45
-108.069160760901298 -43.636268690948306 -15.045181021836271 38 47 54
-108.071383253898418 -43.187403683568185 -15.492173721497807 26 36 39
-108.076958939508202 -42.499133155593881 -15.053155507233868 14 24 25
-108.081094845358379 -41.930274924893077 -15.057032447590274 21 31 33
-108.087014718676556 -41.238311363443110 -14.617887589355263 22 32 36
-108.092708205808023 -40.574944073507822 -14.289415562628193 20 31 35
-108.099402376169422 -39.847162851117609 -13.739410087598600 18 28 30
-108.105052955227762 -39.211068576904481 -13.521536738015470 19 29 31
-108.115034032479826 -38.255381817806260 -12.196292569731867 17 27 29
-108.123999595597169 -37.389164807284601 -11.203189917623035 16 24 26
-108.128154292075365 -36.906289282787732 -11.538749460179872 14 23 25
-108.131632266585669 -36.490134322521307 -12.095663725762336 15 23 26
-108.134419212724481 -36.142349919185648 -12.873922574301105 18 24 28
-108.139924122617643 -35.598945522340827 -12.987741463637605 15 21 25
-108.145615000509650 -35.055837131129550 -13.101468339586177 15 20 24
-108.154532631137585 -34.276717456276671 -12.440068736347399 14 19 21
-108.160188537628912 -33.766284077214287 -12.664334887100125 13 19 19
-108.167354095388063 -33.153751445722762 -12.556353129995074 12 18 18
-108.176948996925319 -32.367452149533150 -11.894703426123897 12 18 18
-108.186345579280669 -31.612408886355645 -11.343685748340562 12 18 18
-108.195087795391899 -30.924583131190250 -11.014006983389237 12 18 18
-108.203612968568706 -30.270210817009787 -10.794946582880641 13 20 22
-108.214661640021205 -29.435950507978369 -10.022236202343379 16 22 25
-108.220907533132632 -28.993177462694955 -10.467241413555058 15 23 23
-108.226417516987084 -28.624796878651939 -11.133550692098680 15 23 24
-108.232578617840247 -28.222889889317049 -11.689034697713339 15 24 24
-108.245091033862209 -27.344970502399413 -10.805214586691960 13 22 21
-108.255994923354024 -26.610589088298148 -10.364122020469495 12 21 20
-108.265244061674068 -26.023070779067798 -10.365744885501329 11 20 19
-108.270354616898345 -25.773935518812745 -11.363594452072448 12 21 20
-108.275138554423833 -25.567359525125624 -12.472021072440896 13 19 19
-108.285538090428545 -24.945833549959040 -12.362584764232565 14 20 19
-108.296200467928145 -24.323369218895660 -12.253032372522739 14 20 18
-108.310166715386728 -23.467440790727444 -11.479149274460156 15 21 19
-108.323954054717191 -22.646239030851401 -10.815853191311447 14 20 18
-108.337553331144392 -21.860589496011492 -10.263140004819263 12 18 16
-108.348867432305070 -21.269681984155234 -10.263809885471460 10 16 14
-108.358347362526757 -20.837830081263075 -10.707155527610041 11 17 17
-108.364863954638452 -20.648685045153428 -11.814573826360515 12 18 17
-108.373702881626670 -20.302976734814639 -12.479057172816766 11 17 15
-108.385479352030217 -19.756627249418248 -12.589906084378157 12 18 16
-108.396431368542835 -19.292363517617694 -12.922022231797825 10 16 14
-108.410422872864316 -18.622955252217874 -12.700501529805905 11 17 15
-108.428114427095792 -17.702626276632817 -11.814640280018608 10 16 14
-108.449057761545461 -16.568137549652739 -10.375133419024507 8 14 12
-108.464718461817483 -15.846992861038490 -10.042487843485191 9 15 13
-108.480149855787900 -15.166044180853744 -9.820397094507598 10 16 14
-108.488260576619567 -15.038282977965586 -11.037279797831189 9 15 13
-108.504297051581005 -14.357690718039690 -10.814895911368751 6 12 10
-108.517064410924036 -13.934894708684260 -11.256575641822565 3 9 7
-108.531326351638469 -13.426753713630596 -11.476701098641769 4 10 6
-108.545893131913772 -12.919182560635836 -11.696674855589407 4 10 6
-108.567660111764795 -11.927141934857371 -10.698743215274931 2 8 4
-108.576590860017475 -11.861334668218323 -12.025454782222823 0 7 0
-108.583110325033616 -11.980386638527364 -13.794852589496571 2 9 2
-108.586468810832599 -12.332651470696581 -16.117656445852049 3 9 4
-108.603668596142953 -11.746427735186687 -16.115462422918625 9 15 11
-108.619890541703768 -11.250614404950943 -16.334523325290803 11 17 15
-108.644552714665750 -10.205718073877289 -15.224891819922505 10 16 14
-108.671813985470735 -9.016218538092824 -13.782928733722144 9 15 13
-108.699684425394594 -7.818634154850724 -12.340757444499673 7 13 9
-108.743647861707373 -5.586498250762601 -8.462641011234723 4 9 3
-108.797212130789816 -2.770315074358011 -3.255636845409981 0 4 0
-108.828968309096211 -1.437810549046856 -1.591277663223991 24 32 18
-108.824830653140921 -2.471770712926160 -5.462675004483117 107 115 100
-108.838970033269447 -2.329985664128614 -6.565959087434038 91 99 86
-108.900493915470889 -0.815170794986399 -7.328131217944133 67 73 66
-108.924099999585437 -1.006340484794789 -10.529778005259800 62 67 61
-108.928429266172628 -1.583864203837001 -13.182375395292240 56 61 55
-108.940838361937722 -1.676210984613342 -14.727512743494145 26 31 24
-108.942592401437594 -2.427350412896658 -17.712131654387150 27 32 26
-108.941637922512086 -3.344557477709571 -21.028913548364301 23 29 25
-108.974546931142342 -2.250455516643016 -19.915843283348352 22 30 26
-108.985652092434535 -2.475388241768357 -21.681957425442846 24 33 30
-109.014384240096348 -1.683147228353497 -21.232931459543892 28 37 34
-109.000920572953135 -3.363240010461446 -26.099869329244143 31 40 37
-109.013002172545242 -3.564050981223430 -27.754905759017817 22 33 27
-109.023323372966104 -3.877077959508328 -29.631347031823935 21 32 26
-107.746166147607596 -119.371143970361246 -11.205215757823737 183 188 184
-107.741696119487969 -118.780761202286868 -11.546007965130258 185 180 173
-107.735858654711834 -118.154105889990205 -12.552981030488326 209 184 182
-107.731947776310093 -117.580741755609310 -12.671612791299481 204 160 161
-107.726913090261476 -116.979054319205119 -13.345368148415218 190 135 140
-107.723075899828302 -116.408163374181868 -13.463939199374209 175 118 124
-107.719953738134592 -115.853525954481839 -13.249424222572571 163 113 111
-107.716852055609124 -115.297813068759126 -13.034910518919048 164 113 111
-107.713321376545295 -114.731646373733000 -13.042427421890636 169 119 114
-107.709148501481422 -114.152239020116241 -13.382964496739277 166 116 109
-107.705232407021967 -113.578617777005618 -13.612460284364289 155 105 97
-107.702006416571763 -113.017713706858657 -13.508918369585416 150 100 91
-107.698583863445776 -112.452673297201855 -13.516371952057909 149 104 90
-107.695185396470805 -111.887641330928801 -13.523813924886269 153 108 93
-107.691596003397649 -111.319559141523200 -13.642237518505112 154 111 95
-107.687607145374074 -110.746455168792764 -13.982621676366364 150 108 91
-107.684707435578403 -110.187561908914773 -13.768044086840092 148 106 88
-107.681404238540566 -109.623102375974270 -13.775434590513271 146 103 85
-107.678331281536103 -109.060619997188212 -13.671835711382272 142 99 81
-107.675070312744808 -108.495900385600862 -13.679208690327187 137 94 76
-107.671625739201829 -107.929758393160085 -13.797543031357122 134 91 74
-107.667798429757255 -107.361853049514806 -14.137796392831206 134 91 73
-107.664607148777677 -106.798234769596249 -14.145124696805766 130 87 69
-107.661837387769296 -106.235845047776465 -13.930520931064251 128 87 67
-107.659479832395760 -105.673052979519682 -13.494006339273056 128 87 66
-107.655946062931903 -105.107677203302913 -13.723234349197810 129 88 69
-107.652438472965898 -104.543391178246210 -13.952438617584335 130 89 70
-107.649540128120535 -103.978770456957761 -13.848778215628499 131 90 71
-107.647430484038935 -103.410622508542943 -13.301341269769580 130 92 75
-107.644943049322436 -102.841795064901802 -12.975809821882081 129 92 75
-107.642466691239889 -102.271338382687418 -12.650289845541948 129 91 74
-107.639247255068838 -101.705498738733681 -12.768513369399983 128 90 72
-107.636237685119482 -101.138369644892805 -12.775790882011904 128 90 72
-107.633062320541441 -100.573345789901580 -12.893984924845370 128 90 72
-107.630278245218193 -100.004111339575985 -12.790317348172522 129 87 72
-107.626962810996247 -99.442278637710174 -13.019404436621755 127 85 70
-107.624580286952352 -98.866929932089917 -12.693889926453608 125 81 66
-107.622029559416291 -98.293141425906157 -12.479298709263531 125 81 66
-107.619493676823467 -97.718264079372858 -12.264711598284123 119 76 61
-107.616441013606831 -97.153504350091708 -12.382844222428218 115 71 59
-107.614291477666129 -96.569248595151450 -11.946451051362828 121 77 65
-107.611977544129786 -95.987094876006537 -11.620973775153828 123 79 68
-107.608983948397793 -95.421510621456463 -11.739086628868478 125 81 69
-107.606358395073485 -94.846820669933308 -11.635399372029184 122 78 66
-107.603581515526528 -94.276677195896156 -11.642596594879848 122 78 67
-107.600996107685845 -93.701162734858855 -11.538898619669425 123 78 72
-107.597926815120303 -93.142013142472962 -11.767840336200152 118 73 69
-107.595885590638702 -92.548486833663333 -11.331490775772096 83 53 48
-107.593361320047819 -91.971324413313170 -11.227780515984023 121 111 104
-107.590365982260266 -91.412971267813035 -11.456678654574489 54 54 46
-107.586097116975012 -90.909497689729051 -12.572492220761944 73 80 72
-107.582847510803234 -90.369471325565328 -13.023041123549973 79 87 76
-107.581076217399087 -89.766194106999379 -12.475803915111783 74 82 70
-107.579636575045186 -89.145109534518213 -11.706873576146563 44 43 33
-107.576152921260771 -88.621767791077204 -12.379080473168443 56 36 30
-107.573180688489629 -88.077425782408071 -12.718682219648827 93 55 56
-107.571020720875936 -87.492925394279780 -12.504014327033246 149 105 106
-107.568884003752814 -86.907326483737890 -12.289346619105800 157 108 111
-107.566005071033672 -86.365124930781164 -12.628881698375181 163 113 114
-107.562401804530140 -85.870397274132884 -13.522569048383048 167 119 119
-107.559450405821920 -85.342233643067132 -13.972853180671564 173 123 124
-107.556838174717100 -84.796801089792481 -14.201435044191726 180 131 130
-107.554707843006597 -84.222481320732697 -14.097507064555828 183 135 133
-107.552016607894203 -83.688636267036046 -14.436866332288673 181 131 132
-107.549950978991234 -83.114284819503425 -14.332907725133794 173 123 124
-107.547625663781446 -82.560976973840766 -14.450574508493531 175 125 126
-107.545481325799884 -81.997120947332206 -14.457404405771570 164 112 116
-107.542798183194421 -81.478629883715826 -14.907460640664226 135 80 83
-107.540586674004928 -80.927440870632225 -15.025051169405742 121 69 71
-107.538131023084063 -80.400554569216794 -15.364226104535902 123 71 73
-107.536421831151273 -79.814470205642365 -15.149358867034749 131 81 82
-107.534049526005845 -79.289443458498368 -15.488474788505272 133 83 84
-107.532277322812632 -78.715203033326176 -15.384374664687783 132 84 84
-107.530406239546124 -78.153371723632276 -15.391052996419432 134 86 86
-107.528576920908591 -77.591514927527086 -15.397711610440183 130 84 84
-107.527062492269636 -77.002588892731808 -15.182780449596237 128 87 85
-107.525588578409071 -76.412547214075673 -14.967841390503935 125 85 83
-107.524693898334206 -75.765127438824393 -14.309780309844626 109 71 68
-107.524102970493601 -75.085738785598735 -13.430185217037433 107 68 68
-107.523015916318514 -74.460403589554787 -12.993706609661103 108 71 71
-107.521707598536693 -73.862621920263592 -12.778768001584211 96 68 67
-107.519658626575719 -73.354638304378938 -13.228412692976292 45 27 26
-107.518842211098516 -72.709966066211365 -12.681144773942719 11 5 3
-107.517421935566986 -72.141023849590397 -12.687680636936449 13 13 11
-107.516314209783587 -71.540103659487087 -12.472678372706440 17 19 19
-107.514487374728290 -71.035505878170270 -12.922181942468171 13 20 18
-107.513618379621334 -70.417445799604351 -12.596383014862624 11 20 19
-107.512548927179921 -69.831281876718066 -12.492069432046122 11 21 21
-107.511410848666330 -69.261587104627239 -12.498478039385219 13 19 21
-107.510460020276753 -68.674515289049864 -12.394117052624466 14 19 22
-107.509696417203486 -68.069248013774597 -12.178994908000902 15 20 23
-107.508618299485562 -67.516466860697307 -12.296059614844182 16 21 24
-107.507106086660158 -67.036767769835393 -12.856015260601197 13 18 21
-107.505913880945727 -66.522898839970111 -13.194451773530517 13 18 21
-107.505537796830254 -65.898456641085147 -12.868482733366818 13 18 21
-107.504981374373600 -65.310251658925424 -12.763944728412497 14 19 22
-107.504495621389538 -64.721442534735843 -12.659379134162180 14 19 22
-107.503465075758498 -64.229572915751405 -13.108370744423837 12 17 20
-107.503126906210809 -63.640911320336720 -13.003733028175645 12 17 20
-107.502126252943881 -63.171963728252784 -13.563333275015282 13 18 21
-107.501942115758723 -62.583713846704455 -13.458617632235189 14 20 20
-107.501714256512116 -62.015448133327503 -13.464576083777700 16 22 22
-107.501690122278433 -61.426238454912699 -13.359793775805372 16 22 22
-107.501380684533146 -60.899842038465906 -13.587078042356296 14 20 20
-107.501523823413208 -60.310208167112336 -13.482220077930720 12 18 18
-107.501507890547302 -59.763328907606272 -13.598715888026277 11 17 16
-107.502316864863047 -59.085138447965889 -13.051015407978923 10 16 14
-107.502356424923178 -58.559782259470190 -13.278122007587143 10 16 14
-107.502733580543733 -57.990413877170880 -13.283802372416176 10 16 14
-107.502587740133663 -57.534859978640299 -13.842855811699081 12 18 16
-107.503400419881729 -56.920565731859973 -13.627072497929305 14 20 18
-107.504435804308656 -56.281757557957853 -13.300576092250679 17 21 22
-107.504702655688050 -55.806411294298933 -13.748776949032646 17 22 25
-107.505067863632448 -55.333147946684335 -14.196909311869859 15 20 23
-107.505532854139815 -54.861965096047136 -14.644972523470415 17 23 26
-107.506853372888244 -54.246346048371272 -14.428959898104807 18 26 29
-107.508157073554457 -53.654216367933131 -14.323572415515514 18 25 28
-107.509825215302129 -53.011495809418705 -13.996813573043767 20 25 29
-107.511991692202599 -52.291302260843906 -13.338037142387435 17 22 25
-107.513639243815618 -51.695268938823027 -13.232525344827621 14 19 22
-107.515146559027457 -51.150135976212717 -13.348274462752812 14 19 22
-107.516121179391490 -50.735717909844496 -14.017227330577128 15 21 21
-107.517598316054460 -50.245453484221443 -14.354143866242850 14 20 20
-107.519455996317802 -49.703483932051753 -14.469692808155514 15 21 21
-107.521834866336832 -49.081284104177534 -14.253241610446224 15 21 21
-107.523943460071223 -48.539308850584462 -14.368670574902069 14 20 20
-107.526314303197381 -47.970308228516195 -14.373393380921385 14 20 20
-107.528953176320755 -47.373456850428497 -14.267415759211019 13 19 18
-107.531728774150167 -46.775904194362752 -14.161379947476462 11 15 14
-107.534366043912968 -46.234144797017208 -14.276553773215653 12 16 17
-107.537420147950812 -45.635724826498233 -14.170393652769008 10 19 18
-107.540618765921877 -45.036590562890012 -14.064171749929642 13 22 21
-107.544107844337532 -44.407665418200878 -13.847258659393333 18 28 29
-107.546446444018187 -44.041585532232268 -14.625920319934522 23 32 37
-107.549057478278641 -43.649547694043441 -15.293859962028449 32 41 46
-107.552392124146664 -43.141039412676463 -15.519216779909044 30 40 43
-107.556623710646946 -42.482592083342126 -15.191393477806912 12 22 23
-107.560870864504025 -41.852749106773778 -14.974127174282557 17 27 29
-107.564668995233220 -41.344487950958353 -15.199259718806815 22 32 36
-107.569088964247356 -40.744140819213996 -15.092466010475931 19 30 34
-107.574468657589321 -39.986689187187473 -14.432535904257833 17 27 29
-107.579561032481053 -39.320357756167496 -14.104381958959038 15 25 27
-107.586302240409424 -38.365778479732008 -12.780676333179173 9 19 21
-107.591788420343249 -37.693224126694510 -12.452398048560553 11 19 21
-107.596796665553470 -37.148269240459953 -12.566470500545108 9 19 21
-107.601299994091619 -36.734213945170708 -13.122872627368906 10 18 21
-107.605614909188404 -36.388517342630216 -13.900379010013211 11 19 22
-107.610955169995037 -35.880446888994470 -14.124771841801135 9 17 20
-107.617720869512297 -35.138913639327740 -13.574873703993717 13 18 22
-107.625794452088570 -34.191865333811613 -12.361312039602808 12 18 19
-107.631918076992733 -33.646786148220485 -12.474852177240734 12 18 18
-107.636923019185346 -33.342102057313355 -13.362465175822933 12 18 18
-107.643222094467447 -32.834092511417545 -13.586398687098352 13 19 19
-107.650487795563592 -32.187486371843946 -13.367860872579371 10 16 16
-107.658566251611973 -31.434089381419440 -12.817456835990697 8 14 14
-107.666288345170045 -30.783853710876972 -12.598738045467940 9 15 16
-107.675465563157744 -29.918093912510987 -11.716388317000622 11 17 17
-107.683047856169296 -29.371253352469413 -11.829248763527971 13 19 19
-107.689997533850629 -28.969608549823395 -12.384352817871729 15 21 19
-107.697133775020262 -28.570412785185457 -12.939342411703677 16 22 20
-107.705996998490164 -27.916096725183277 -12.720119710041104 15 21 19
-107.715780167075238 -27.149113423419845 -12.169039995545887 14 20 18
-107.724928415485053 -26.528407505826351 -12.060193857769377 14 20 18
-107.732929552840872 -26.132563409667341 -12.614735187823101 12 18 16
-107.740417997766855 -25.852860796097165 -13.500902940314546 11 17 15
-107.750737048972866 -25.157204874428480 -13.170550422696209 12 18 16
-107.761087054257217 -24.497965893431207 -12.950667123808699 12 18 16
-107.772714215756139 -23.682256519492071 -12.288347926442498 10 16 14
-107.783377292238029 -23.057915890558629 -12.178814514018455 9 15 13
-107.796140787092511 -22.157508130431761 -11.295105771866872 6 12 10
-107.807654702231986 -21.489702046201629 -11.074753847991587 4 10 8
-107.816471027422992 -21.258816321984256 -12.070642735270695 4 10 7
-107.824909242137849 -21.112816224239548 -13.287556508750356 4 10 6
-107.834633303688150 -20.810860139321111 -14.062024931151086 4 10 6
-107.847443223034489 -20.105384211048644 -13.730581873013477 5 11 7
-107.860866273162401 -19.356794277376363 -13.288430404407336 6 12 8
-107.874324915499898 -18.646759112385546 -12.956723929928302 6 12 11
-107.889033059216644 -17.809941889340706 -12.293148074924375 5 11 11
-107.905678704790006 -16.760155272034105 -11.076543102032787 4 10 10
-107.918616932138548 -16.251041789430857 -11.297311829091797 5 11 11
-107.933467063026598 -15.530620077164883 -10.965046585208711 6 12 11
-107.947672272954591 -14.935995270443323 -10.964371633319956 6 12 11
-107.961855579229166 -14.383793983005331 -11.074129358388689 6 12 10
-107.971494776507498 -14.436868739250940 -12.731854948129751 5 11 9
-107.986551639341883 -13.845154942384346 -12.730742603923034 3 9 7
-108.003020888198719 -13.121494898895023 -12.397736113323589 4 10 6
-108.023555232452267 -11.954765937187792 -10.958756776769519 2 8 4
-108.037478162401555 -11.623006510544968 -11.620664370768480 3 10 2
-108.048579943890601 -11.651239875287343 -13.167087085237995 3 10 3
-108.058239078811553 -11.866548288504523 -15.155709839110159 2 8 3
-108.071959680958969 -11.639322262876407 -16.038355981067241 8 14 11
-108.087127198805760 -11.279532002552658 -16.589097819014228 11 17 15
-108.105487722275939 -10.601468576150751 -16.365576085157556 12 18 18
-108.124245259758609 -9.921628512967597 -16.141882708972986 11 17 15
-108.148187796150111 -8.730084027148727 -14.701528343638358 10 16 12
-108.172738898925630 -7.530446964946618 -13.260966143185698 5 10 4
-108.225090117880839 -3.507030632476837 -5.184637945788808 5 10 4
-108.244987300338423 -2.934942421237984 -5.291866878174119 1 8 1
-108.253473192462124 -3.550216381464988 -8.163804940441935 17 27 16
-108.271981238524063 -3.176123930152526 -8.713095900777859 38 48 38
-108.263263284799265 -5.496383724315517 -15.455774920446316 37 47 38
-108.281330915981854 -5.191008452827908 -16.115428118218858 33 43 34
-108.317107715141731 -3.234179178212788 -13.014406469110298 32 40 34
-108.337683512877504 -2.777565045588323 -13.341839891413230 22 28 24
-108.355421438173565 -2.617264481514978 -14.332734147270486 13 19 15
-108.373396204839281 -2.461363278687070 -15.323469814192975 18 24 20
-108.382712616910297 -3.106789110360534 -18.083841305284523 21 27 23
-108.395305474710582 -3.465299544066314 -20.180445410772251 25 31 27
-108.416585914871462 -3.078178814067864 -20.617685288971074 23 32 27
-108.428763119211254 -3.503419613069982 -22.824660237397580 23 32 27
-108.469250220916081 -1.543803014546682 -19.832272771942854 23 33 29
-108.448092544615221 -4.796406104201799 -28.123330223229004 30 41 37
-108.470726447807579 -4.379961670775392 -28.449365568042680 31 42 38
-108.496301927975750 -3.757002717643226 -28.332683890527477 20 31 25
-108.517135452458717 -3.549695448428138 -29.100863316133740 24 35 29
-107.220125064079596 -118.235081888898321 -11.468566066778692 194 187 184
-107.216541078941901 -117.634283210018438 -12.030759380203165 203 177 179
-107.212955264158666 -117.053551558934430 -12.260170354164359 195 154 161
-107.209438239561777 -116.462905915100123 -12.711368238684969 182 139 148
-107.205827715324730 -115.911091507210003 -12.386198949250854 178 133 137
-107.202315969951641 -115.337804639931733 -12.504638970840062 170 127 128
-107.198832830078359 -114.765071958861938 -12.623059603139154 170 126 125
-107.195450039853341 -114.179633982480851 -13.074139665259139 170 125 122
-107.192027267353552 -113.608823327143128 -13.192511633637281 162 116 113
-107.188603897809230 -113.042441272560396 -13.199979416906672 156 110 107
-107.185319736712330 -112.461650446063743 -13.650964459741573 149 108 100
-107.181917753763088 -111.899704436861441 -13.547517464373158 150 109 99
-107.178599162177790 -111.331100832031694 -13.665816874679280 148 109 98
-107.175237658903839 -110.768625803100079 -13.562355959438776 150 111 99
-107.171929677630814 -110.203096579102208 -13.569759762741086 147 108 94
-107.168568473374648 -109.642064497217604 -13.355424966552164 147 106 93
-107.165298743591975 -109.076003631054618 -13.362815942932485 145 105 90
-107.162009052993042 -108.511650071365722 -13.259340009415212 142 102 87
-107.158861357199783 -107.942467175692954 -13.488422511612356 139 99 84
-107.155869278441443 -107.370900264751910 -14.050031761781611 136 95 81
-107.152687899550628 -106.806488704499159 -14.057363494263853 133 93 78
-107.149340341279867 -106.244540941694140 -13.621313825605057 134 96 80
-107.145903913366226 -105.681109165364603 -12.963604177734567 130 92 75
-107.142961600462357 -105.113704131940054 -13.414287894873127 128 91 75
-107.139897417197091 -104.547875036151567 -13.532437037695701 130 92 78
-107.136907038827957 -103.983063618387604 -13.761399281958205 132 94 79
-107.133725772666097 -103.416366369162276 -13.547036718415171 133 95 83
-107.130501667814684 -102.847568329933523 -13.221857388320700 133 95 84
-107.127230344821825 -102.275853948938476 -12.785871781673677 132 94 83
-107.124023861595774 -101.703525424413726 -12.460720362512745 133 95 82
-107.121065517073205 -101.136889430138908 -12.578827178255011 133 95 82
-107.118128393163346 -100.570797050622858 -12.696918246429163 133 94 82
-107.115212511257738 -100.005247930409652 -12.814993560460294 133 91 79
-107.112190121941140 -99.434950095512022 -12.711450938336640 130 88 76
-107.108987546882034 -98.855355237995056 -12.275513560617384 127 85 73
-107.105992570846865 -98.283153043658061 -12.171977426602183 131 87 76
-107.103013674959627 -97.710405715043152 -12.068439211240360 125 81 70
-107.100398425322879 -97.155776624546448 -12.518834953234347 132 85 77
-107.097104947857815 -96.563274135667001 -11.861356157807478 129 82 76
-107.094031179502409 -95.980336652944473 -11.536250451643554 128 81 75
-107.091042591051661 -95.400313483884574 -11.321932882131165 130 83 77
-107.088218471160062 -94.828839145172992 -11.329166403859460 130 83 77
-107.085262235847324 -94.247177857632849 -11.114850218693221 128 82 76
-107.082709175269116 -93.691241124242779 -11.454370784959508 125 79 74
-107.080027297168400 -93.125660077030389 -11.572334481013144 125 75 75
-107.077209063966180 -92.548803781856037 -11.468761700830470 100 62 61
-107.074165617450191 -91.952862806153448 -11.032916455367712 110 95 92
-107.071961620395129 -91.419243615464396 -11.704616959924039 60 61 56
-107.070467751884749 -90.942654547204384 -13.262261781082913 47 50 43
-107.067497208089392 -90.347780339037726 -12.826370678434330 31 35 28
-107.064713177744835 -89.765255265704710 -12.611981002382635 47 51 42
-107.061421591188207 -89.136411173021315 -11.733157614895049 42 36 28
-107.059202904619198 -88.596918446493916 -12.183207836278569 86 54 54
-107.056658334783833 -88.027267194515190 -12.190288856270570 124 79 82
-107.053956730666854 -87.440900699253845 -11.975899289479855 149 105 106
-107.051369376358778 -86.862060832945900 -11.872236475519713 159 109 112
-107.049369402080515 -86.336043331322131 -12.432902243354221 162 112 115
-107.047598693952153 -85.831067936361350 -13.214959503914798 169 121 121
-107.045392019792359 -85.282686240238519 -13.443377707391477 173 125 125
-107.043510563842275 -84.764513469264330 -14.003906026710553 178 129 128
-107.041178308720305 -84.199127784617559 -14.010841568444079 182 134 132
-107.039174813543511 -83.664493312320801 -14.349879949631287 182 132 133
-107.036907426786712 -83.099893174442158 -14.356776372533744 185 135 136
-107.034773612544839 -82.546075864336714 -14.474356786660280 192 142 143
-107.032777384899504 -82.003856123315046 -14.702610885146413 189 137 141
-107.030818960307428 -81.462706060750321 -14.930835888043703 151 99 103
-107.028689614958509 -80.899395818086489 -14.937652994870348 134 82 86
-107.026912901682294 -80.371725303384054 -15.276511200859801 141 91 94
-107.024858149164302 -79.809190849395833 -15.283284637149251 148 98 101
-107.023271489460498 -79.296355823655674 -15.732758097940973 146 96 99
-107.020969809628809 -78.696759109364805 -15.407454509113222 147 98 100
-107.018920818841764 -78.121455644681333 -15.303497741931579 150 103 103
-107.016799589850748 -77.532338035413431 -15.088858844268401 144 100 99
-107.014827417887204 -76.955625115305864 -14.984879835457633 133 92 90
-107.012558847248471 -76.336972187706806 -14.548897677561627 130 91 89
-107.010326855575869 -75.716115782848306 -14.112920701911946 114 78 75
-107.007904794128436 -75.064386955782894 -13.455634670500871 95 56 59
-107.005518846114413 -74.409363915728449 -12.798365271536198 79 47 48
-107.003286208697531 -73.765922940728785 -12.251762194213882 72 52 51
-107.002025500092159 -73.240927405315020 -12.590346010431887 26 16 15
-107.000350606864245 -72.655842201087069 -12.486310964619264 15 13 14
-106.999078871842798 -72.117258973020682 -12.714181035862794 14 16 16
-106.997269550965370 -71.499896748812105 -12.388824773517257 13 18 18
-106.996225094264886 -70.978292077604806 -12.727270231696508 13 19 19
-106.994280661081618 -70.326197988011771 -12.180618349312198 13 18 21
-106.992988702177584 -69.755252763081444 -12.187113444041870 13 21 23
-106.991875591793047 -69.201318716832319 -12.304206758565499 14 20 23
-106.991066030340264 -68.682537469002924 -12.642510780748211 12 17 20
-106.989709491442085 -68.077348156272933 -12.427671492083249 12 17 20
-106.988780849298450 -67.524635059070775 -12.544663989790820 13 18 21
-106.988409121650648 -67.044989899423101 -13.104073476207077 13 18 21
-106.987612488452598 -66.494352847394907 -13.220981451511676 14 19 22
-106.986263119769987 -65.850766849935681 -12.784816199163998 12 17 20
-106.985102906682712 -65.223906959791947 -12.459247170123263 16 21 24
-106.984508914249147 -64.672285897301037 -12.576068331694728 15 20 23
-106.984361747573033 -64.179664942972678 -13.024645070364471 12 17 20
-106.983663196531722 -63.590274257551471 -12.920187264277217 12 17 20
-106.983917050240692 -63.140624100335103 -13.589847606008931 12 17 20
-106.983243605332845 -62.531598732864474 -13.374721013958947 13 19 19
-106.982772840137400 -61.942010171925531 -13.270156272735960 16 22 22
-106.982255058312120 -61.330938744637592 -13.054976273122378 14 20 20
-106.982196229470219 -60.782124223656560 -13.171512525124399 12 18 18
-106.981968068191776 -60.190954530814551 -13.066847998404000 11 17 17
-106.982202955018366 -59.664217654370724 -13.293875366471383 10 16 16
-106.982019688167824 -59.050659648495525 -13.078560931643096 11 17 16
-106.982429111594584 -58.524850716665597 -13.305495250199129 12 18 17
-106.982550439040580 -57.932537239945027 -13.200675302813011 12 18 17
-106.983015574227935 -57.385142662986667 -13.316946276022236 11 17 16
-106.983071977900593 -56.746006726065119 -12.990921585210202 12 18 16
-106.983351003784449 -56.128461896994068 -12.775427029496370 13 17 18
-106.984979164915970 -55.745678041868558 -13.665459388670627 18 22 23
-106.986327779012242 -55.295558771676824 -14.223741944680569 14 19 22
-106.987649779141549 -54.823926812019700 -14.671399788720350 15 20 23
-106.988081098728955 -54.159062279400885 -14.234601691859780 14 19 22
-106.989361537171476 -53.640027891970405 -14.461049586029105 16 21 25
-106.990133469442597 -52.997173145867471 -14.134720868359324 19 24 28
-106.990896369233724 -52.327330898082138 -13.697815382788633 18 23 26
-106.991776325420346 -51.655184345521569 -13.260877617206262 14 19 22
-106.993500967677249 -51.135411237775891 -13.487120609812678 14 19 22
-106.995579228611305 -50.668714123448098 -13.934365864433659 13 19 19
-106.997650407952918 -50.177749097505369 -14.271005423749159 12 18 18
-106.999363690131432 -49.581890353635735 -14.165460383891542 12 18 18
-107.000966870579560 -48.931600184217587 -13.838810536490485 12 18 18
-107.003283187781705 -48.415269009758340 -14.064735044282799 11 17 17
-107.005492251909828 -47.845045936543777 -14.069547828124030 13 19 19
-107.007716986150115 -47.246980193269081 -13.963780829106724 14 19 19
-107.009850295370441 -46.592276588759105 -13.636922799622710 12 16 15
-107.012461156455544 -46.020504535884797 -13.641559309602741 11 15 16
-107.015319821490976 -45.477090523554430 -13.756644252385655 13 19 19
-107.018097374417209 -44.876477693738160 -13.650639005245154 15 24 23
-107.021020056190920 -44.275148506187911 -13.544571702791558 17 26 27
-107.024621097219352 -43.819799122767421 -13.990971656740243 20 29 33
-107.028461336483687 -43.396082268087682 -14.547790454484073 23 32 37
-107.032331803942327 -42.945039828071977 -14.994017182219977 23 33 35
-107.035733669178185 -42.315027189911397 -14.777157008286594 11 21 22
-107.039793536655537 -41.835917159774496 -15.112723156587322 13 23 25
-107.043804328818126 -41.296835031650367 -15.227212335441436 21 31 36
-107.048066154956132 -40.789091025034566 -15.452117726395045 24 35 39
-107.051921525082676 -40.094666622638790 -15.013985850082435 18 28 30
-107.056141149126645 -39.460908396147993 -14.796773018360625 16 26 28
-107.060002897178961 -38.634958188951117 -13.916556412369971 14 24 26
-107.064332349195951 -37.900648380275278 -13.367749412509056 13 21 23
-107.069450740607692 -37.389902754069539 -13.592275922750133 10 20 22
-107.074736878903252 -36.880026757019557 -13.816713231927196 11 19 22
-107.080510900174858 -36.502673230276002 -14.482988558882283 13 21 24
-107.085975611666484 -35.929244277031351 -14.486276851917893 11 19 22
-107.091477643001909 -35.288635474910969 -14.268521037359932 12 17 21
-107.096537841027583 -34.342992448472245 -13.056386500565537 11 16 18
-107.102605774378929 -33.765213186850580 -13.059430994240643 11 17 17
-107.109327266744614 -33.427225047705647 -13.835706731482418 12 18 18
-107.116204457831302 -33.092831600673449 -14.611870981018029 12 18 18
-107.122883748321641 -32.552948296675282 -14.725091806324798 11 17 17
-107.129425338432100 -31.802593145295432 -14.175391689955461 10 16 16
-107.136365113749136 -31.155380431261911 -13.957016040987696 8 14 13
-107.143431613928470 -30.435408149191655 -13.517610948224331 7 13 12
-107.150922574933773 -29.856730796670181 -13.519983914848297 7 13 11
-107.158631498780736 -29.277740939209618 -13.522255825566276 8 14 12
-107.166523849597894 -28.661923118737988 -13.413960189253999 9 15 12
-107.174784726954840 -28.192367705092121 -13.747418238360808 10 16 12
-107.183279792367657 -27.761207782371343 -14.191227913548573 9 15 11
-107.191766417833719 -27.033198324974229 -13.751226168398944 8 14 10
-107.200672800367357 -26.565953185433049 -14.084351629229928 8 14 10
-107.209791586584117 -26.100021118707318 -14.417361960748821 7 13 9
-107.219061300940965 -25.444517052698842 -14.197957023981843 6 12 8
-107.228569730361954 -24.672166093223780 -13.647063995758344 6 12 10
-107.238405812260012 -24.245246509335082 -14.090188485318436 6 12 10
-107.248465724950620 -23.547087795713043 -13.759985701172411 6 12 10
-107.258830655549616 -22.728987494667372 -13.098294961756011 6 12 10
-107.269562527343425 -21.748852373819936 -11.994661045047366 3 9 7
-107.280415819690035 -21.360457557589275 -12.547761234749373 3 9 5
-107.291551965381586 -20.854047574083605 -12.769364243021755 3 9 5
-107.302612354492211 -20.833232552364336 -14.316311639144857 3 9 5
-107.314419108058416 -20.046727235798123 -13.764464798436308 5 11 7
-107.326408414718159 -19.420849819204722 -13.654312740968550 4 10 6
-107.339317029994547 -18.216458045018719 -11.997651439426392 4 10 9
-107.351886569710530 -17.667666029208206 -12.108146091539709 4 10 10
-107.365305428670226 -16.700842594858681 -11.113948590425224 3 9 9
-107.377941159195743 -16.528227876964607 -12.218269359463733 5 11 11
-107.391724230163319 -15.767504854619402 -11.776070550098808 5 11 11
-107.404956672604627 -15.515887312597613 -12.659201300117502 5 11 10
-107.419138337767947 -14.881822742770590 -12.548084700337540 7 13 11
-107.432933784974622 -14.592422773184211 -13.320476139392980 7 13 11
-107.447144888030877 -14.219433294371884 -13.871811389084115 6 12 10
-107.463164638227198 -13.191951964698706 -12.766135127785162 3 9 7
-107.479770566469881 -12.114186942708878 -11.549837151302995 2 8 6
-107.495216046462431 -11.650531956970898 -11.879797375067113 5 10 4
-107.510830483660911 -11.232626647928468 -12.320064730798634 4 10 6
-107.525119121783703 -11.355412228024617 -14.085707360367536 3 9 5
-107.541490544094742 -10.853850947124393 -14.304755920118509 5 11 7
-107.556829464634731 -10.762191537602620 -15.517809063582717 5 14 11
-107.573768720523788 -10.264229051118924 -15.736548929497530 12 22 21
-107.590532683014814 -9.904940666396865 -16.286521867741158 11 20 19
