ply
format ascii 1.0
element vertex 673
property double x
property double y
property double z
property uchar red
property uchar green
property uchar blue
end_header
110.144593674695400 -2.288883158627558 -88.047002607927510 141 138 119
108.519081543624253 -2.400313120580442 -89.263676100204890 141 138 121
104.160644483817322 -3.184978752653564 -92.491764268914807 141 138 121
104.196109982124625 -2.523713671708314 -92.515537575408700 143 140 123
101.739776962292126 -3.076719786047854 -94.327933801437212 142 139 122
94.574585198423549 -5.954449287803250 -99.517501730212587 141 138 121
97.749501244477216 -3.771279687789897 -97.289641058070316 140 137 120
96.862359768510174 -3.585951857516464 -97.975732138496625 140 137 120
94.312699658772786 -4.236513137102393 -99.853335705210242 140 137 120
96.012578202777490 -2.765603548232754 -98.686232656717323 142 139 122
94.017321148958857 -3.153148467803566 -100.166614795046740 140 137 120
93.777918550274819 -2.658923541182558 -100.389749372648112 141 138 121
92.244770802213054 -2.828154174378850 -101.539155812892432 142 139 122
90.156813350238863 -3.292140048910193 -103.085262438265005 141 138 121
87.236278835370484 -4.199904207450171 -105.226228982056199 140 137 120
84.777614676484461 -4.884467388205735 -107.036155816178820 141 138 119
85.001455367034154 -4.177397810156641 -106.928800887803305 141 138 119
87.539299198832055 -2.248294714726026 -105.169564012341453 138 135 116
83.877658579683427 -3.591416981853377 -107.838377655791078 137 134 115
79.937326626376205 -5.105324043287800 -110.704685001331853 138 135 116
79.144041673909641 -4.954476764652215 -111.324462910327554 140 137 118
79.184496538964524 -4.358164788495028 -111.349954517834135 141 138 119
83.671949537425462 -1.347641626727042 -108.206499001674644 138 136 117
222.798102846477718 -4.003426406471311 -5.233401489889218 110 110 101
219.328292926883989 -4.090767640175859 -7.785194897651621 123 120 111
214.846905921253011 -4.514132177988254 -11.069042172302204 124 122 110
211.100844850642488 -4.732559405007805 -13.819905297108136 124 122 107
211.124997009593187 -3.774871068965505 -13.841317574307624 125 123 108
205.079587030771421 -4.764117782275837 -18.255717753746779 129 127 112
206.575611871921893 -3.347324751962428 -17.212252513478347 124 122 107
202.001355777229094 -3.905148631784689 -20.561146361617006 129 127 112
198.070667937175074 -4.277883135723077 -23.443814080291048 128 126 111
198.095623010926914 -3.357620691747326 -23.465225225671077 131 129 114
197.384909260200857 -2.684033248995972 -24.019026856739913 134 132 117
194.650158982141534 -2.700134279052057 -26.036332509279106 136 134 119
193.019578207372064 -2.355067120574872 -27.255280133970160 135 133 118
191.020981702412655 -2.146420664673939 -28.740201587648983 136 132 116
186.445375567523598 -2.845582150609002 -32.086994722203684 141 135 119
183.802298669391604 -2.894177071874203 -34.036963244603896 140 134 118
180.514754937817287 -3.186328382314727 -36.452126189110032 138 132 116
178.976182959685559 -2.874122218209719 -37.603893367089256 134 128 112
175.412155038761171 -3.299429264607016 -40.217993238998275 132 126 110
170.650811510300855 -4.180096325865335 -43.695779682896529 130 127 112
171.874705375598523 -2.900482846362642 -42.853292513298868 129 126 111
172.915039039662361 -1.680998663393757 -42.144089601407984 131 128 113
169.442754425896140 -2.132199246023885 -44.690953736895096 133 130 115
166.799225204834073 -2.293493325714265 -46.639545800503100 131 128 113
165.721698309992803 -1.879012137810332 -47.458633709594352 132 129 112
163.630876990712665 -1.856471925558019 -49.008378328085286 132 129 112
160.526442410866821 -2.235109383959256 -51.288532047923837 132 129 112
157.606073651807549 -2.560969978590694 -53.435567714432494 136 133 116
155.514972498873931 -2.580999418504132 -54.984740270647876 133 130 113
153.239484369789352 -2.685742117899226 -56.666548503203103 134 131 114
152.070130584726570 -2.366264331262922 -57.551587709954248 134 131 114
150.255571759997963 -2.310778643965817 -58.901257828453623 134 131 114
149.824113876008084 -1.710412505449153 -59.255324150530868 134 131 114
144.966593058390004 -2.903454395626796 -62.794743162847027 133 130 113
144.166370885168760 -2.471405343088599 -63.414096880334853 133 130 113
141.429383262574390 -2.839297617453634 -65.426711030915044 134 131 112
140.352665760051593 -2.536563806659783 -66.245035878627476 136 133 114
140.014213450813827 -1.932412660646366 -66.532775824932855 134 131 112
137.553849189901428 -2.220610145251704 -68.345969327300992 135 132 113
135.001025946813513 -2.562436582034162 -70.225237624694074 137 134 115
131.801922023181731 -3.194509911303051 -72.568351997151240 138 135 120
131.187072115369261 -2.737598744511499 -73.054925319398393 137 134 118
126.879683482937367 -3.878407375320998 -76.192910037067833 137 134 117
124.695256465377668 -4.121898026111372 -77.805994505960001 138 135 118
126.573905808240141 -2.599487293444501 -76.503227152169757 139 136 117
125.959852647572404 -2.164260931541813 -76.989958422929703 139 136 117
123.868149498158061 -2.388276374339907 -78.536743255690709 142 139 120
120.575320053214980 -3.161358344695289 -80.944427072157794 140 137 118
119.407172362502834 -2.998189120530487 -81.828434307755970 140 137 118
118.886040291201482 -2.548739514473873 -82.248906231238692 141 138 119
119.566766283227281 -1.554166144804045 -81.808788661371864 139 136 117
112.332099516421991 -3.522965879578585 -87.085334942501845 141 138 119
110.886826022962538 -3.529709138866977 -88.167593804185941 138 135 116
112.863452262010853 -1.943276333758168 -86.801498388127413 139 136 117
111.233797390652015 -2.043366005092145 -88.016306738959457 142 139 120
104.330892021163507 -4.653128178976637 -93.001533247323323 144 141 124
104.735929215573663 -3.817470105193807 -92.760467961447972 144 141 124
106.899928109714082 -2.134375033545891 -91.263288204753252 144 141 124
103.789293736453232 -2.986626292226943 -93.535600819903749 143 140 123
97.160249943596085 -5.568331817257979 -98.319553914228806 140 137 120
93.770104677433636 -6.605185941774224 -100.788825921025193 139 136 119
95.843125280530614 -4.972499474741019 -99.358462465572870 141 138 121
100.140386002838312 -2.224928871492624 -96.343030683486290 143 140 123
96.194655415348905 -3.559523220329978 -99.208601096769058 143 140 123
93.267245432887705 -4.407114642700477 -101.346897828632592 142 139 122
90.988002249420987 -4.945157016453297 -103.022449484823397 140 137 120
86.947247775534095 -6.390892201175740 -105.952275653032558 141 138 121
91.064075767174131 -3.695158461623742 -103.071709658028510 142 139 122
87.393760365834311 -4.974280922409985 -105.737032097569937 142 139 122
87.432458722827647 -4.358715252013839 -105.761881585587730 140 137 120
88.863221962992583 -3.018855956913184 -104.797262386441588 139 136 117
89.552839838451106 -2.057369666455289 -104.361058081202316 139 136 117
89.686480867378833 -1.383663402554962 -104.321067403453043 138 135 116
85.365177143046722 -3.065557823674729 -107.446825520996526 137 134 115
79.557103670532769 -5.564680441682588 -111.626648105586838 138 135 116
82.796680912377198 -2.672494974941553 -109.437019384366010 141 136 117
82.281587771493321 -2.366485825091161 -109.858903806786770 140 135 116
218.766197263671813 -4.534624890606191 -9.285463572147734 122 119 110
214.088122548348395 -5.019526835432663 -12.696300455067416 123 120 111
215.126835059177978 -3.736993740913898 -11.986970983145710 121 121 109
206.138702101051820 -4.693441196128011 -18.541404512791445 125 123 110
205.241231272814417 -4.050069791109374 -19.227268939113856 124 122 109
201.669000282384786 -4.283626252697378 -21.839418275786016 127 124 109
198.926795647902111 -4.265295868942961 -23.853512209602940 130 126 115
199.321218285931081 -3.222153353319857 -23.609504697929594 132 128 117
197.409488670955568 -2.948710448545411 -25.025791071500663 135 131 120
195.959174433430860 -2.530594786141725 -26.110011744813960 138 134 123
194.693554610701312 -2.057990351433662 -27.061432703551020 136 132 121
193.058950727200795 -1.719598398417675 -28.278386975572005 136 133 120
189.486230740050246 -2.062867887988709 -30.889173046576929 138 136 121
183.974866560252906 -3.105327946581240 -34.893357844495540 137 135 120
181.878466136641521 -2.975845246843973 -36.441534251344962 136 134 119
179.043498010755343 -3.121408263482744 -38.520422296658296 133 131 116
176.762373759417613 -3.085016290961314 -40.200986997724613 131 129 114
173.650158651657705 -3.362650011429998 -42.478458221892993 133 129 117
172.200007402126857 -3.052518339669013 -43.561645334641668 132 128 116
171.673547138723677 -2.411212871264219 -43.981543138057731 130 126 114
168.468755844518569 -2.765612426463000 -46.324794927575084 130 127 112
167.850254081988254 -2.172557890281803 -46.811022607136408 130 127 112
168.063509105370144 -1.269696329871845 -46.700618917104322 132 129 114
164.211831921616465 -1.908540314007570 -49.507486979444508 131 128 113
160.082542693212162 -2.676418645162929 -52.512794830604577 133 130 113
157.154182461421499 -3.005667275287148 -54.655972529199715 135 132 114
154.040752644913027 -3.424130890137556 -56.931413008016733 131 128 110
152.313589254793840 -3.318120649158205 -58.212553992558668 130 127 109
150.216677060531225 -3.368119780103207 -59.758638073435577 133 130 112
150.523587543964936 -2.474669468993173 -59.582083074830877 134 131 112
149.628923905585964 -2.060481248152239 -60.266931353512859 133 130 112
149.011922219467010 -1.539338324691368 -60.753136442132558 135 132 113
145.805509490230179 -2.074486682661609 -63.093752004461180 134 131 112
142.876266563819797 -2.515082120312774 -65.235361276350147 134 131 112
142.444576909223173 -1.942503744592676 -65.589030686761788 134 131 112
137.757135917420385 -3.140948110955251 -68.988041924520758 133 130 111
133.747774106990533 -3.359337200590946 -71.945519925245208 136 133 114
133.038824073740955 -2.936002579314006 -72.497589334701615 137 134 118
131.126708889785448 -3.031151154358252 -73.909897156128068 138 135 118
129.121956030834497 -3.177409825407900 -75.388220214398899 138 135 118
125.913359298953580 -3.857480033079109 -77.726299203947264 136 133 116
127.520047919468610 -2.453977404498759 -76.624779446701069 137 134 115
125.330120089592256 -2.709732817963782 -78.235106098472698 138 135 116
118.786150456632029 -4.905811928794247 -82.952868940765597 141 138 119
119.652718542774622 -3.838232430104288 -82.380691310631079 139 136 117
119.130066531648367 -3.388474476631131 -82.800439274086330 140 137 118
117.680969442125743 -3.360056701653324 -83.881230870709146 141 138 119
116.602682178719860 -3.171448643032972 -84.697629996496772 139 136 117
110.864940103073380 -3.803626153078648 -88.930316284141583 140 137 118
111.363610289660286 -2.911177864236723 -88.623770386068600 138 135 116
108.616200212670691 -3.540568298148451 -90.628706738269727 141 138 119
104.940598603209310 -4.625178836378852 -93.293502482898703 142 139 122
105.718428268907999 -3.612266330010379 -92.789168866699811 143 140 123
103.749000578921098 -3.270258958603873 -94.289417332377269 142 139 122
99.515054039734594 -4.683593165950350 -97.348872368132021 141 138 121
97.415893354124137 -5.080397245884280 -98.890310940895461 141 138 121
95.409374813045957 -5.444096275493430 -100.365551080045577 142 139 122
98.325963996924798 -3.387006328313499 -98.345386576067057 143 140 123
97.992307046568001 -2.927713387181417 -98.633929507350615 143 140 123
92.733914160251729 -4.933457499492072 -102.416642683518916 141 138 121
93.050767674789668 -4.165082750787169 -102.243556931316220 140 137 120
87.232727757446526 -6.500481376270727 -106.420296896165269 141 138 121
91.082994746348518 -3.946434704591213 -103.743327229740373 142 139 122
89.262353602630867 -4.274270977507560 -105.086141862182927 142 139 122
89.953029217593368 -3.318358936501000 -104.650386197346847 140 137 120
92.691365102662061 -1.296095778979087 -102.766305206418281 138 135 116
89.010501724291245 -2.604691486465794 -105.426278146969167 139 136 117
89.330947363911179 -1.836202792878784 -105.254912027984830 138 135 116
85.835177974374758 -3.079076458483978 -107.782392038497079 140 137 118
86.901172704231101 -1.921788248020021 -107.084825078132951 139 136 117
85.453538098855404 -2.099333421402201 -108.164196242064293 139 134 115
85.310058166618361 -1.585137276879755 -108.322566583356576 140 136 117
81.253633870267635 -3.184169206206294 -111.243318401808835 141 136 117
218.129316082435935 -4.033114248956811 -10.870545142710341 123 120 111
216.582396755370723 -3.551577292296326 -12.020061984484357 122 122 110
214.110840998929064 -3.371372941077211 -13.832723009153597 125 123 110
210.806912744376689 -3.471295332434773 -16.242026362860088 125 123 110
203.988154127632470 -4.722725559741836 -21.170631497478865 125 123 110
204.013591342328084 -3.789788860379675 -21.192403759911485 125 122 107
201.911755372242283 -3.554315747185023 -22.739070832529706 129 125 113
201.012637075495093 -2.933062896698360 -23.423919438170913 133 129 117
199.466093870687700 -2.533189388387893 -24.572775612645813 134 130 118
195.513880936231828 -2.952890296452419 -27.444662351148281 138 134 122
195.077832380218922 -2.200713520628935 -27.798095174618197 136 132 120
193.531537787825016 -1.831627330448951 -28.946753375087752 137 135 120
190.411922872466221 -2.015698402438841 -31.221647644007845 137 135 120
185.533425339096141 -2.831702957769755 -34.754912502105185 137 135 120
182.691013843469563 -2.960217483367960 -36.830415153531192 136 134 119
178.737492881304121 -3.499666139100080 -39.700443512338182 133 131 116
176.542827861263930 -3.433184828721123 -41.311820853049483 131 129 114
175.366729658509598 -3.012119402529422 -42.194679246102083 132 128 116
173.727764660295350 -2.766207272671250 -43.408595234515047 132 128 116
171.811029020788453 -2.631708113717014 -44.821056525334512 132 128 114
169.616436217973160 -2.611137072296898 -46.431995837056974 130 127 112
168.255536432441318 -2.292734439106620 -47.447106796494836 130 127 112
166.524185713828842 -2.121384499493926 -48.726917151780469 131 128 113
165.070858611616814 -1.854863350842487 -49.808136042469982 131 128 111
162.783648328850518 -1.915011416859240 -51.484795471847889 132 129 112
157.623398678000001 -3.093573862139535 -55.212115746974746 130 127 110
155.984528114780147 -2.937842634121684 -56.425148635439712 131 128 109
153.604140431743332 -3.081283290997923 -58.167233828353716 131 128 109
151.038225264855896 -3.311721123069053 -60.041385573141611 132 129 110
150.511958150809221 -2.748406649587140 -60.460572978057570 133 130 111
150.264192983623786 -2.076711742047570 -60.681533719219317 134 131 112
147.698295031533945 -2.339384395287380 -62.555361890299679 136 133 114
146.059740930546525 -2.241081145318317 -63.767955038184454 133 130 111
146.740316459244468 -1.204897757699660 -63.328193799995148 132 129 110
145.473241377252862 -0.965866756292725 -64.276514279003266 132 129 110
134.958820751233020 -3.841600439388790 -71.854763001422299 134 131 112
135.083279611495215 -3.063279038252660 -71.811456461818977 136 133 114
132.702004945266481 -3.345128377023798 -73.551692614920995 137 134 117
131.991594357209806 -2.928344708833088 -74.102995867713020 137 134 117
129.053097157614445 -3.472517802827193 -76.239111750181593 137 134 117
129.178673802746914 -2.708800020498396 -76.196189632644149 137 134 117
126.797154429933556 -3.035906954643739 -77.935842859790199 137 134 117
123.207897893338938 -3.906639060559332 -80.533288464539140 138 135 120
120.825793660506605 -4.265659462502846 -82.272333395300819 139 136 121
119.279699159154163 -4.267070068436967 -83.417273608994776 139 136 119
118.941692065583794 -3.736809175051160 -83.704465955459767 141 138 121
115.815796866990169 -4.464354124934032 -85.970761508764383 139 136 117
115.664042447388894 -3.861453704675123 -86.126086441335559 140 137 118
114.397077826165216 -3.768324952989448 -87.072957919245027 140 137 118
112.479309433524591 -3.981611260259154 -88.481345213989016 141 138 119
113.165440587963374 -3.001560705848774 -88.043663964660112 140 137 118
111.898968338920483 -2.926210994943368 -88.990587983134986 138 135 116
110.539558079331385 -2.901722182815369 -90.003386124068413 139 136 117
109.273254004678734 -2.841186108859196 -90.950238112388291 140 137 118
102.552392809540805 -4.742782177897924 -95.808125669394542 143 140 121
103.985354245180801 -3.419206472462402 -94.844390464260272 143 140 121
101.266721360592385 -3.463439461105416 -96.869117046208174 143 140 123
101.025197939193902 -2.949844583717095 -97.091436414126406 142 139 122
99.479859856483444 -3.079925762335456 -98.235414025062767 142 139 122
96.164085566672867 -4.096935447438827 -100.629610235886929 143 140 123
95.084320820471291 -4.018102810172974 -101.444172565411037 143 140 123
91.301461028849857 -5.302285640157073 -104.166460950409885 141 138 119
91.992850596674842 -4.349588690499452 -103.731013743625596 141 138 119
89.794270388371245 -4.860514731816289 -105.334574527756303 142 139 120
91.139624558102355 -3.573178603800414 -104.439414159648663 145 142 123
90.620303774779714 -3.235929153636238 -104.859597664522767 144 141 122
88.981637722509234 -3.480332992582244 -106.068609599069987 140 137 118
87.809499449368630 -3.491613319226519 -106.948912056850588 133 130 111
89.853748175523478 -1.224540326129131 -105.622173178212506 139 136 117
86.534871801478047 -2.379065688972665 -108.013469844618839 139 136 117
83.538263059794161 -2.797826205570336 -110.233935184123482 139 136 117
222.324303272590100 -4.955753804617756 -8.876995585689627 113 113 104
220.520303746073637 -3.562339027737761 -10.245489212496409 123 121 111
216.558647550785253 -3.829036268609403 -13.114433270994283 123 123 111
206.754447355337220 -5.961172001543622 -20.153232160855765 125 123 110
206.779733939927155 -5.022891169974478 -20.174987372199581 125 123 110
206.898149040780822 -4.054373667875815 -20.130747302825057 127 124 111
204.048720930550132 -4.047114041792325 -22.204290821425730 126 123 108
203.889394976989820 -3.176496739609960 -22.358749302458961 130 126 114
200.390589726153479 -3.409056118311020 -24.895176639824797 134 130 118
199.025541843364550 -2.951464069188304 -25.909735910334348 133 129 117
195.526488462196653 -3.218906410464199 -28.445685475142625 135 131 119
197.131087495165957 -1.776706873079802 -27.343564393099001 135 131 119
190.105397404908047 -3.276185673208545 -32.392338701362604 138 136 121
187.441115082449272 -3.312702797858939 -34.332286944278877 136 134 119
186.633206487515622 -2.718971522400541 -34.949627780309072 137 135 120
183.876073119542696 -2.813791735976667 -36.955415143255379 134 132 117
181.490183522528469 -2.793413812373072 -38.696554506325839 132 130 115
177.525786416157871 -3.350256068702326 -41.561200713956538 128 126 111
176.253939893157764 -2.961666339606997 -42.508778035057276 131 127 115
174.982251318191203 -2.580363757312803 -43.456355907693023 133 129 117
172.967695504953042 -2.478102568633753 -44.932547405996473 133 130 115
169.188276538831929 -3.038337239731137 -47.663933832200144 129 126 111
166.616156127800878 -3.172084892550313 -49.536112290047555 129 126 110
165.437523237988273 -2.798813895392198 -50.417266125431780 129 126 109
163.794474361190112 -2.607711335049344 -51.628664217895533 131 128 111
162.244422851097852 -2.390759283500923 -52.773959128701335 130 127 110
158.463948259428491 -3.038390768402668 -55.503940927952328 130 127 110
157.843304961271031 -2.486777628795720 -55.988717527096867 132 129 112
155.735610194358316 -2.517912716373643 -57.529837439252361 131 128 109
153.813806924408709 -2.488393592228428 -58.938793780802712 130 127 108
153.937573985347171 -1.661014776776913 -58.895661259384099 133 130 111
148.668280857751824 -2.981799947939212 -62.680210423962393 133 130 111
149.443376152735766 -1.907016791651592 -62.175205559866981 134 131 112
148.451832171138136 -1.541902605861131 -62.924060355656195 132 129 110
148.483788261475240 -0.765407031969563 -62.947340898757062 133 130 111
146.469374706017078 -0.828371687260875 -64.421899700080502 133 130 111
145.385412850055900 -0.518415771956133 -65.236833214689369 133 130 111
137.508091878565949 -3.043568988162827 -70.865362410782865 132 129 110
136.144383296710146 -2.883650784168961 -71.877498291841647 134 131 112
135.246210883376534 -2.534963563454698 -72.559993749913218 134 131 114
132.486268177486807 -2.983356693155689 -74.560797631584222 136 133 116
128.701798030135251 -3.886881566955692 -77.286233931490727 137 134 117
128.921149356800754 -3.085588335541389 -77.177701198219239 137 134 117
125.601756372340205 -3.819852995949339 -79.573076674504819 137 134 117
126.753204254112333 -2.618260104350344 -78.805987374527547 138 135 120
122.315505825258171 -3.870798913855467 -81.991341122315902 139 136 120
118.156519050448466 -5.026079700953180 -84.978454040976999 139 136 119
117.724525413518279 -4.542359195078464 -85.331063368589497 140 137 120
115.335512367640732 -4.940373749634428 -87.066401760470001 140 137 118
115.276816444591958 -4.298219308638474 -87.155790735248587 140 137 118
115.871256021984181 -3.358664413647366 -86.784686592507825 140 137 118
114.601339608851077 -3.269830644158643 -87.730101732876363 141 138 119
112.305578325497166 -3.661640088536727 -89.399256435703620 139 136 117
112.714770993923452 -2.810699838627538 -89.160336421469765 140 137 118
114.430787416498191 -1.346103864145774 -88.000888689564192 137 134 115
114.468252945972665 -0.660484008748124 -88.025869500041125 137 134 115
104.146636732807266 -4.878890519357654 -95.349957732015582 140 137 118
103.810012610796207 -4.401592425839908 -95.637266514628891 143 140 121
101.326449314106739 -4.955419083654710 -97.436627423280413 143 140 121
103.362949019322514 -2.706485993920092 -96.105994716448549 141 138 121
101.533448257550901 -2.963530670596691 -97.445299631445067 143 140 123
100.638121318916731 -2.772039442935752 -98.127538257534383 144 141 124
97.780583920675497 -3.556119382718717 -100.189056664860800 144 141 124
97.819968288041892 -2.915493377319971 -100.214492296506990 142 139 122
96.457650964282266 -2.976031560808110 -101.225024482326063 143 140 121
92.570769344057950 -4.316071683519512 -104.007833098824364 140 137 118
92.797864953704078 -3.594584418535389 -103.902183721082054 141 138 119
92.651452037750303 -3.061721864446729 -104.059343075748615 144 141 122
89.418059711114680 -4.112391063530899 -106.381745176166987 144 141 122
86.371053647994685 -5.086159870783957 -108.572387630696198 139 136 117
88.939316618664819 -3.164293151253318 -106.827628679350340 133 130 111
92.070980090584840 -0.932301237767200 -104.690437561519246 135 132 113
86.632591907720496 -2.588730336092985 -108.612355049551894 140 137 118
86.345443300988606 -1.558227417945038 -108.929027164253000 141 136 117
223.892171373230099 -4.747213316595609 -8.853192728395413 111 111 102
218.804267591284770 -5.324175898081744 -12.510456703921022 120 117 108
220.503374175210865 -3.836879346448304 -11.343153031612445 122 120 110
208.348236034900253 -6.655066156677496 -20.021681521623265 122 122 110
206.885758504998194 -6.182481227565175 -21.100643997080766 125 123 110
207.562439082672654 -5.039365837883345 -20.660120132487862 125 123 110
207.495541877802509 -4.130298403189003 -20.748333111684474 125 123 110
207.801084742850776 -3.101027753551457 -20.572521916106780 127 124 109
203.455849267691804 -3.587249460557537 -23.699138825986608 130 126 114
199.482387104623740 -3.976582380307747 -26.561172599316592 133 129 117
194.485175171482609 -4.729325112013800 -30.149154966133466 134 130 118
196.772830428653151 -2.170147283844949 -28.609291064652439 133 129 117
189.355504512479769 -3.800140444587162 -33.912800226016572 136 134 119
185.660191202554046 -4.193330204106344 -36.575283102124729 136 134 119
184.757088287619155 -3.639302853162055 -37.257533494245081 137 135 120
186.367713593810663 -2.210707826506787 -36.158155322591398 136 134 119
182.858482612565098 -2.579291861787755 -38.688194856142729 134 132 117
181.211190381420124 -2.305815575069857 -39.898410856578636 132 130 115
177.608466560368129 -2.743602947870551 -42.493870276235782 132 129 114
173.539784532490131 -3.371126750249830 -45.418758259135814 130 127 112
171.985442434724348 -3.105368551449487 -46.562502953697219 130 127 111
170.524346879175937 -2.814316709056183 -47.640257949692511 130 127 110
168.783890985422886 -2.635272408816443 -48.915791622320086 130 127 110
167.229827785518353 -2.396675994854033 -50.059390150766120 129 126 108
164.837246099744590 -2.482905903462469 -51.796230673540435 132 129 112
161.885433143657224 -2.795407487162461 -53.928361054983100 132 129 112
158.840193913306422 -3.160950507733316 -56.126109529821576 132 129 112
158.311385823449370 -2.574090587526520 -56.544323705731017 131 128 111
156.850682108191904 -2.352207932083800 -57.621554163589451 131 128 109
152.126945385230300 -3.416288450718432 -61.004584722556700 129 126 107
149.640376245869902 -3.625675705367415 -62.806053134185987 132 129 110
153.121966674282874 -1.477466185935549 -60.391967918939287 132 129 110
149.330086479623162 -2.220875882398261 -63.115507423568403 135 132 113
148.149506998086053 -1.933148361294508 -63.994849474171588 132 129 110
142.771047655997563 -3.358197098979364 -67.836959543579610 132 129 110
139.943046837789154 -3.034080827812665 -69.924015369860086 135 132 113
138.575848981077286 -2.864816946745972 -70.934578193536964 133 130 111
135.808671256133039 -3.289074150905164 -72.932169310098317 135 132 113
137.522089423186515 -1.841847007485678 -71.771299795553972 131 128 111
137.275801920916876 -1.215592533703294 -71.992499705334325 133 130 113
128.659477625027534 -3.462000133308365 -78.157232592151814 134 131 114
128.634588715676188 -2.062219474822988 -78.270593353657915 138 135 120
118.239164685190801 -5.247699242869313 -85.680863497597983 139 136 119
118.273595906877802 -4.557156928794145 -85.704443374970140 140 137 120
117.467256714996992 -4.242948650932774 -86.319657737406800 140 137 118
115.258821704075530 -4.565910218738099 -87.920438830495641 139 136 117
115.200781703129422 -3.925040227856575 -88.010128374669534 140 137 118
115.236746188190651 -3.241210484005162 -88.034372664126948 141 138 119
114.057282414169521 -3.116198023174639 -88.912573557525036 140 137 118
113.626345607914814 -2.651193539548684 -89.265495815891057 140 137 118
111.137332919419435 -3.147970727484944 -91.062836993034267 140 137 118
114.824409689493194 -0.761317929523146 -88.527792385898465 138 135 116
106.158323681220040 -4.185841120112960 -94.656592504467937 141 138 119
102.732156922955966 -5.171869834934213 -97.109155124388792 142 139 120
100.147980440673379 -5.775480154661691 -98.970729466604951 141 138 119
100.653795531692097 -4.907157838816005 -98.667353325561550 142 139 120
102.229683473265922 -2.885301647207162 -97.668322537864697 144 141 124
99.739360920038990 -3.474103887996429 -99.464089820111752 140 137 120
99.497891481057550 -2.968095135286037 -99.686356925241057 141 138 121
96.725987198879992 -3.719190037484800 -101.678322568408163 143 140 123
95.922419949562055 -3.503677946782424 -102.293847089230326 144 141 122
95.494193313050346 -3.104053111891281 -102.647392897943405 141 138 119
94.972570166611931 -2.753825767230130 -103.066608548182273 139 136 117
94.076059093959259 -2.596972247930142 -103.747924145283378 142 139 120
92.335267773307152 -2.876997115752828 -105.018571921268745 141 138 119
88.717287735875601 -4.133060262090286 -107.598309895700453 138 135 116
88.144792150036636 -3.240710587512149 -108.109627567707463 139 136 117
88.845336213447226 -2.279757866402077 -107.678644821035277 138 135 116
86.822700222177232 -2.748406929617163 -109.145094123841318 140 137 118
82.920644574852062 -4.224542580424160 -111.919242638147580 142 135 117
80.333089825595550 -5.023648783295972 -113.777188491689259 142 135 117
224.278973375842668 -3.919501794132561 -9.711910840629088 120 117 108
218.338110564217175 -4.770928074466754 -13.956026911607921 120 118 108
218.830554994466354 -3.658480193063088 -13.648767199367654 121 121 109
213.635082445484784 -4.326857502587912 -17.364488552659907 124 122 109
209.371740175212892 -4.730597374056437 -20.420273033099420 124 122 109
208.932051359772117 -3.937540982142727 -20.772385163361292 125 122 109
208.212852456377334 -3.237032117386801 -21.322404642198933 126 123 108
199.498496061279866 -4.237430098589616 -27.563923996645343 133 130 115
196.633565574824530 -4.281492501457590 -29.629522948171882 134 131 116
196.968978292713132 -2.374383379332708 -29.477037420193142 133 130 115
191.491113766769416 -3.339571216584158 -33.387184854560218 134 132 117
186.572637495810284 -4.144965331732324 -36.901433240221706 135 133 118
188.561078773658807 -2.588795899239384 -35.540678582129260 137 135 120
187.376318444540118 -2.128259176401261 -36.419799341505495 137 135 120
186.285107267914555 -1.641583195023713 -37.233083874373733 135 133 118
181.645981836102408 -2.420499655815886 -40.548668636984701 133 131 116
179.060725665181678 -2.491522358772370 -42.415208651745644 131 128 113
175.074502811073728 -3.083185920600413 -45.269055063281087 130 127 112
172.208681502517152 -3.290575057745220 -47.332546644443624 130 127 110
171.024069771047124 -2.898048212868853 -48.211038432586577 130 127 110
171.427783985208123 -1.925020734381402 -47.970754249785898 130 127 110
171.084576596339673 -1.227754804948950 -48.257177859537563 129 126 107
167.658177340697250 -1.690556369109980 -50.715015093418003 132 129 112
163.764195517999752 -2.350461326426285 -53.501427970318645 133 130 113
159.589384778313331 -3.140365812435052 -56.484731760239100 133 130 113
155.881419993628015 -3.775243499140171 -59.138674398939742 133 130 115
155.912399529948601 -2.982909784158417 -59.161650791889144 132 129 111
154.728393825761088 -2.664589162108821 -60.039668659477172 130 127 108
153.825075168555145 -2.242598835739441 -60.720456717810833 132 129 110
154.418284067169395 -1.232438007436218 -60.349490604902115 134 131 112
152.393266326778473 -1.264215277553867 -61.819297427924568 137 134 115
145.316952203967219 -3.340257998015929 -66.837918510466409 133 130 111
141.139459813953636 -4.283060264291261 -69.818365554400771 130 127 108
140.049020929224469 -3.989929002220703 -70.630027296040680 132 129 110
140.549589401633284 -3.048642208265659 -70.324892250665641 133 130 111
139.085353194231516 -2.918051230526938 -71.399493065291040 133 130 111
136.965969835665703 -3.069246504933847 -72.933785355448776 134 131 112
134.752864890809263 -3.272157079585882 -74.533568113331285 132 129 112
131.603326651927176 -3.884256058025257 -76.789741260582559 133 130 113
132.011807423782244 -2.998481514220402 -76.550839244355501 137 134 117
132.139920992902489 -2.230297110891391 -76.509176759731815 134 131 114
133.298934074415911 -1.015552030994775 -75.745842007460681 138 135 118
119.327464978108836 -3.670290019687109 -85.774304153223426 142 139 120
117.113371620273696 -3.989245666968001 -87.372419547496321 139 136 117
114.430216960531070 -4.533630715003933 -89.298111589278705 140 137 118
115.967107654899095 -3.169209067817461 -88.273657348157428 141 138 119
114.221935736553277 -3.301851109069838 -89.543726546694188 140 137 118
112.476700210728879 -3.444637935273035 -90.813660890263492 140 137 118
112.983419313930185 -2.550303231036168 -90.510984984130801 139 136 117
111.613832590560094 -2.530755304763625 -91.518863880653214 139 136 117
107.334423277898438 -3.889701385242451 -94.557129525722900 141 138 119
101.833540608615252 -5.853010620385795 -98.445990994254316 142 139 120
102.434759547604855 -4.938045947740722 -98.077876955352338 141 138 119
108.242308142908101 -0.871653601974418 -94.135653735781062 144 141 124
100.296947380692103 -4.085086210054668 -99.724548123669649 140 137 120
97.235619517273449 -4.957307582735107 -101.909384356784130 141 138 121
99.061112346109113 -3.442831297738401 -100.691964320553438 141 138 121
98.067642131914823 -3.312648911521962 -101.437479342238277 140 137 120
99.372821197464859 -1.419256860861113 -100.640196664987826 141 138 119
99.133063994340915 -0.915926028556250 -100.863255332702295 139 136 117
96.071260332413772 -1.844931495532275 -103.047279438232692 139 136 117
95.643691846691979 -1.448016676114442 -103.401112208477002 140 137 118
84.298072780870783 -6.656838113448717 -111.333714996551180 138 135 116
84.057260831525809 -6.200899308573040 -111.555781247342850 134 131 112
84.193587598993204 -5.550154725182823 -111.516839061592577 139 136 117
88.192229501997900 -2.880738725692475 -108.801180115014944 138 135 116
88.048114898034655 -2.363091298753989 -108.959282357312674 141 137 118
80.460383260754455 -5.779141972120905 -114.273744103506033 142 135 117
81.729422352017323 -4.533953645007363 -113.452499899878006 141 134 116
221.112357502373300 -4.183836048444996 -13.072082672243226 118 118 108
216.864905894874795 -3.581768234528341 -16.145822475064904 124 122 110
215.956992605989569 -2.915315793835353 -16.826928848702266 122 120 108
215.516961447334722 -2.104914387182808 -17.179055744094114 127 124 112
208.062104095756752 -3.553075217687663 -22.466481686927608 130 126 114
204.909352706179874 -3.648582957205070 -24.726435207035621 130 128 115
199.791853552391728 -4.405937522300229 -28.367683992807656 132 130 117
197.387088614073946 -4.296786613247348 -30.100707242232716 132 130 117
194.608012511879537 -4.326397480057077 -32.096668508905481 130 128 115
193.045338627092633 -3.963047486787069 -33.237431866481330 132 130 117
193.260926333113190 -3.005354300497354 -33.128708533298095 136 133 118
191.137080047057566 -2.846829389797877 -34.664053879697633 136 133 118
186.111494253626006 -3.702249874810642 -38.237405375313386 136 133 118
188.293615581858120 -2.077849545125624 -36.748291154504898 136 133 118
182.828999648505146 -2.269508223597819 -40.672738994373987 130 127 112
176.678544555687324 -3.609393999134531 -45.033276647328449 127 124 109
176.427336135877141 -2.862030873651189 -45.253369039216693 131 128 111
174.958895817181514 -2.557637192231467 -46.327747659949523 130 127 110
171.710799788631988 -2.912743686043963 -48.650275336118398 132 129 111
171.085549488384601 -2.319527266404084 -49.133276204715713 131 128 109
171.678612711418850 -1.276870689291631 -48.762574896175806 130 127 108
167.961888743523559 -1.845331118673696 -51.413010837847509 131 128 110
166.775057182347552 -1.480096754954093 -52.290159731849002 131 128 111
165.026053325062236 -1.335599998501912 -53.561248472799235 133 130 113
158.309074947190709 -3.106745239097728 -58.311477467266144 133 130 115
157.684538785452446 -2.562497178592263 -58.794315921358219 132 129 112
156.685272765754007 -2.167642094362602 -59.539782658597090 131 128 110
156.436385439425038 -1.483961382632927 -59.760329938574614 134 129 112
147.216999634026251 -3.594643801245636 -66.303110663357899 133 129 111
150.439039188389785 -1.547429709381260 -64.096394257721670 135 132 113
147.470391050843830 -1.983717389313362 -66.219196553587381 134 131 112
141.780355649761731 -3.545652769023072 -70.243417316155330 131 128 109
140.875272867613177 -3.178139438922800 -70.922800664073890 130 127 108
136.779324137635513 -4.134174413411320 -73.831262819627483 131 128 109
135.498789906813670 -3.942564426753390 -74.772656359642212 132 129 110
134.064828278131984 -3.105542021298326 -75.869012082520896 132 129 112
134.005631266884478 -2.413370834220507 -75.958676185916460 137 134 117
134.322600655329438 -1.560230741883112 -75.786518399658178 134 131 114
122.099440090440297 -3.377657131688484 -84.553665409578798 142 139 122
121.477829121843143 -2.970957972340187 -85.036487406104612 141 138 119
117.283620849102789 -4.171411539496008 -88.006285494766843 139 136 117
116.191862288971151 -3.994591544989567 -88.816118657910920 140 137 118
117.263525064452082 -2.839861179019246 -88.121236941966856 141 138 119
116.266513661468139 -2.625568684448283 -88.865923658671562 140 137 118
117.245518885588751 -1.506228897810784 -88.237209479668934 140 137 118
114.084862064014175 -2.300857016337867 -90.486184670937774 140 137 118
113.841352391192657 -1.752198853408408 -90.707914746995868 140 137 118
107.102889812706039 -4.256194264587371 -95.440322178572075 142 139 120
104.976064697105528 -4.619672131687132 -96.968869226304406 143 140 121
103.508199064949380 -4.681985756773237 -98.039748072584104 142 139 120
110.328891123825485 -0.783947819625744 -93.361028522593784 143 140 121
102.496648044227484 -3.274992822104777 -98.900615035712235 141 138 121
101.029415810191026 -3.360566637043015 -99.971557468662212 139 136 119
93.812275061166204 -6.276872705132043 -105.025017208108096 141 138 121
100.913754123246008 -0.911295965811845 -100.274013542271149 143 140 121
97.749559664873530 -1.875085268128088 -102.519555079177820 141 138 119
88.682011459194044 -5.252688809494029 -108.900215565807116 141 138 119
86.270155382164148 -5.895627319003376 -110.622104804576168 139 136 117
87.917837179544975 -4.462203531728261 -109.540504036147212 137 133 114
87.205851453688439 -4.240673143874874 -110.089043908313556 139 136 117
86.777533268250068 -3.875222709202338 -110.442194146064736 138 135 116
87.105493545474133 -3.115601123278878 -110.274331730358568 140 137 118
81.007896750087383 -5.740313701033005 -114.536072358983716 142 137 118
76.798593911663389 -7.400561621475347 -117.493916364903498 141 134 116
223.964988444802145 -4.546762211194988 -12.104999172459060 114 114 104
217.616693238613550 -5.518995060588446 -16.596392999418867 117 117 107
215.955900818362323 -5.079617754226742 -17.801858258197740 120 120 110
215.795561137751974 -4.181692590295614 -17.956112869224285 122 120 108
216.667162671632951 -2.959554539172920 -17.387934172058323 123 121 109
217.070383555001911 -1.880992478618825 -17.148500301967005 125 122 110
213.440882329717795 -2.093508346882815 -19.733468335987709 128 124 112
202.869668463170285 -4.574305401834099 -27.177753763001391 130 128 115
199.614318439816373 -4.727212819065561 -29.498892489591839 131 129 116
195.232929299751277 -5.270178641096645 -32.607629514423223 131 129 116
193.947513957659879 -4.809184756511217 -33.549460851325875 129 127 114
192.286912521099907 -4.481408073208740 -34.753868714771556 132 130 117
192.972596436022542 -3.369193502322758 -34.317333938206190 136 133 118
187.558147298778294 -4.334990269431394 -38.146953924215921 136 133 118
188.056609673024809 -3.296689028948471 -37.841809947133157 136 133 118
186.490337096168844 -2.972172717346646 -38.980451968164687 136 133 118
188.773458185745483 -1.308725800537776 -37.429198728201328 137 134 119
182.606968128342601 -2.615253701443204 -41.782408678422712 132 129 114
178.505527608398836 -3.222585529908004 -44.691832957136256 127 124 109
177.221088350927459 -2.842547712598662 -45.633297928106089 130 127 110
178.472774803342361 -1.551921667644185 -44.804219994788667 130 127 110
174.276958297891156 -2.241400021871568 -47.778508434993228 132 129 111
171.395895774319854 -2.471755491139251 -49.834472267141365 131 128 109
168.044856407341797 -2.893108385987344 -52.217929180501557 130 127 108
167.512501015324005 -2.280561241751867 -52.634710750717602 131 128 111
166.510588155899200 -1.847778852883207 -53.379301653703607 132 129 112
161.373404073661277 -2.990504220958092 -57.007166421910853 133 130 113
159.807446675102653 -2.797031252665181 -58.144610328196279 134 131 116
158.523604085129705 -2.503785143765918 -59.085467352197071 133 130 113
157.521978227126425 -2.108226740227906 -59.829812390498773 133 130 113
157.272845657947357 -1.423772871875054 -60.050250305626889 135 129 113
154.014643949871271 -1.927259035187837 -62.366416112871917 135 128 112
150.473910936111366 -2.561993605024700 -64.878645560893602 138 131 115
147.497159358835177 -2.991629860753256 -66.997639665419371 139 134 116
145.743179317826872 -2.945508755433143 -68.265335187136742 138 135 116
143.612827893157657 -3.062375663251818 -69.794733751188346 134 131 112
140.353082187928237 -3.653690148497762 -72.109256854448773 133 130 111
141.516621255381040 -2.441032964626415 -71.348065826574611 132 129 110
135.056088220454797 -4.385925165099553 -75.886612274583115 134 131 112
136.596772736643601 -3.023820355563995 -74.863949136442983 133 130 113
134.936906754568611 -2.999799540294595 -76.065582127049794 134 131 114
133.653754461898814 -2.825600992369066 -77.005543970564759 137 134 117
131.805590659805461 -2.899948521157319 -78.337801144565304 135 132 115
125.435634435004417 -4.928994054258987 -82.807954110618113 136 133 116
129.993456681344242 -2.264976364504103 -79.694596246545416 137 134 115
122.774205321039446 -4.706794850641114 -84.751930415832675 141 138 119
121.019514790815677 -4.793147450926663 -86.017922423543808 141 138 119
123.506545917757236 -3.015574314891635 -84.343676035176401 142 139 120
121.469606540579591 -3.235084718122378 -85.805847156575823 144 141 122
118.395312823484971 -3.930878783646031 -87.986296624636964 141 138 121
115.603450598616064 -4.517344522519339 -89.970409067111376 140 137 120
114.697648539128522 -4.264365197890565 -90.648269359161162 139 136 119
118.037349090786776 -2.077519037994383 -88.388419989423511 139 136 119
116.472226211717782 -2.125077635585370 -89.523782067980790 140 137 120
115.284591867203986 -2.006969485411985 -90.398003118923555 139 136 117
111.642965165947530 -3.038304462444622 -92.968741850375807 140 137 118
109.227862250913773 -3.516232465589881 -94.690776349009127 141 138 119
105.301652971315235 -4.720915841580045 -97.456164043058152 142 139 120
107.702092617735133 -2.945955217699012 -95.851324580240345 141 138 119
109.726151884094648 -1.336024360569139 -94.508162839114561 141 138 120
109.484105160683555 -0.802700855687519 -94.730434937817307 139 136 119
98.226918170497910 -4.981429905214770 -102.605087701256963 140 137 120
94.391968482821724 -6.242673834625859 -105.302692580159487 139 136 119
96.796442126334171 -4.452993395588722 -103.699934486175437 140 137 119
96.932766607910580 -3.772587586960395 -103.661296524754590 142 139 120
98.866949200568172 -2.194527527000857 -102.385668913795968 144 141 122
91.383882549144417 -4.730513442003360 -107.648402094205409 140 137 118
89.155251315088933 -5.263661267824436 -109.237357830631566 142 137 118
92.701222989716570 -2.860997858146463 -106.856691604612507 143 134 119
91.609419297316336 -2.818807327191660 -107.665117367933590 141 134 118
85.024311324857862 -5.621091562026703 -112.246100910827749 139 133 117
88.429512563330235 -2.679217173802900 -110.025358729992206 142 139 122
82.788767792694841 -5.052970362400126 -113.953944627762098 141 138 119
78.568012428904666 -6.709547786472865 -116.906347567065723 138 135 116
223.821025426708019 -5.821864410369388 -13.242450224699553 106 106 96
218.234639210851185 -5.591048560739663 -17.223851206283598 118 118 108
214.998744291982661 -4.693507988507085 -19.565109977028612 123 121 109
216.437257903110208 -3.298662419738757 -18.604764530122509 121 119 107
213.362153154806208 -3.326110516878612 -20.791705624433831 124 120 108
206.336568330705546 -4.635313423792159 -25.731630012100993 130 126 114
206.553087266178181 -3.647179990984418 -25.623665512644919 128 126 113
201.313823790354490 -4.435094704121743 -29.317206978092855 129 127 114
201.154421053316355 -3.583593239664261 -29.471431957252889 128 126 113
193.938604095719882 -5.073173952052750 -34.540210994792005 130 128 115
193.308807746798607 -4.401209180258405 -35.021847645634779 133 131 118
191.832328732450179 -4.018509571967728 -36.093186624164503 136 133 118
190.920692065739303 -3.451956439632679 -36.771483432846708 136 133 118
187.844365940971727 -3.633870844827758 -38.956250225538355 136 133 118
189.568844374134585 -2.170990129109463 -37.800833034472618 136 133 118
186.116033278683005 -2.505977103831746 -40.247350594498215 135 132 117
183.981137172298446 -2.396848803801341 -41.776901280599731 131 128 113
181.657898073061801 -2.366915320306833 -43.437251902316802 128 125 110
178.581189829042216 -2.620187653811250 -45.621101367464831 128 125 108
175.786819827031195 -2.789377578062295 -47.608309327531714 131 128 111
171.422272000533610 -2.727185713187343 -50.731332371123017 130 127 108
167.685321756519784 -3.289923871719890 -53.372151033838009 131 128 109
164.701802824877007 -3.593547756648853 -55.489204767867164 132 129 112
160.304425558873419 -4.445667338870057 -58.587110853093208 131 128 111
162.692618542613900 -2.754100859767028 -56.975554211001793 133 130 113
159.426029520979057 -3.206020466704925 -59.288238356659178 135 132 117
159.364462893212192 -2.444485262170135 -59.377482842311480 134 131 114
158.077619466466842 -2.157820601649128 -60.316836530131894 134 131 114
155.565041219509027 -2.357030752010331 -62.105967031885285 136 130 114
156.730422577735339 -1.123978698087164 -61.345867284245287 136 129 113
150.822352285394828 -2.687133186489136 -65.487486123138979 139 132 116
146.611254358283475 -3.607311822892580 -68.452089269703379 139 135 117
144.475175129095021 -3.717448753946845 -69.978816946737908 138 135 116
143.660053305516215 -3.304702057537380 -70.590844033718128 134 131 112
142.278949239069959 -3.127478396284528 -71.594836108340672 133 130 111
140.331627764858666 -3.190887291763595 -72.990628073652232 131 128 109
141.971466910966768 -1.780308138322770 -71.905040256444636 132 129 110
142.384891832364872 -0.871141391302794 -71.668744292110830 133 130 113
134.713881421600604 -2.638358474638045 -77.071196915890738 136 133 116
130.594064475193221 -3.676636510987954 -79.967394029366631 137 134 117
128.173971664965109 -4.010114303236126 -81.688528277829249 135 132 115
125.942613074651319 -4.276126291798628 -83.278929019740417 137 134 115
125.601059383729748 -3.733449406224450 -83.564552490234206 141 138 119
124.220252106678828 -3.647382491407434 -84.567748225701905 141 138 119
119.814571093541275 -4.902207044266917 -87.657536582197451 142 139 120
120.135232415530652 -4.085992090714833 -87.486764915288830 144 141 122
119.227231246473949 -3.816295814037908 -88.163745236843994 141 138 121
115.293003044677064 -4.912239089402370 -90.926416022481931 140 137 120
114.952492172373184 -4.404830167280107 -91.212175342963008 139 136 119
114.272717287707891 -3.394492254778294 -91.784244363259802 139 136 119
114.406674740736563 -2.673156607894399 -91.744895334881789 139 136 117
112.742702598286556 -2.785756683446770 -92.943157644978356 140 137 118
110.794651383364865 -3.040704911031785 -94.336628894268955 141 138 119
107.236639106657904 -4.064288025376200 -96.836589388715765 143 140 121
107.939894340566809 -3.091359882811489 -96.407026925745811 143 140 121
109.496550135235950 -1.707293725159052 -95.392230451674294 141 138 121
105.937970201442866 -2.765757322640654 -97.891560338581542 139 136 119
102.852414673423922 -3.616925367112690 -100.065022852480212 140 137 120
100.619286791497601 -4.072413258620871 -101.652626800695032 140 137 120
102.841665589874637 -2.364952735185275 -100.183626595912955 138 135 118
100.608800287158189 -2.832920941665453 -101.771227694970122 138 135 117
100.557014369211075 -2.235628633833984 -101.863460604030422 141 138 119
101.359579047777189 -1.213318239230499 -101.371056870387463 143 140 121
99.885878283169816 -1.324720336285025 -102.438638917001754 141 138 119
87.489149721978208 -5.772035158797100 -111.095680829652139 141 134 118
85.728640952664620 -6.088092141666039 -112.356524949122502 140 133 117
89.097363976164189 -3.770750774005799 -110.111903083161650 139 133 117
88.952836971109747 -3.253965568899293 -110.269799158908427 139 136 119
86.242961366945892 -4.075235193453090 -112.179857880430404 142 139 121
83.437376395581367 -4.962600549722827 -114.154308097098067 141 138 119
81.486788019771353 -5.415478827320499 -115.544528183880061 140 137 118
215.203191474532986 -5.832889259510426 -20.427200779019330 121 121 111
215.514006874454140 -4.795276701596853 -20.253997813504526 124 122 110
214.599387553117595 -4.139561421783191 -20.931785521212674 122 120 108
211.610238668890361 -4.144950049086304 -23.049215790550562 124 120 108
209.186867200967271 -3.987060533360636 -24.773839430952904 127 123 111
206.103192963599213 -4.055774877491123 -26.956256136859082 129 127 114
